0.85564017,9.0538607,3.0012209,0.089346692,0.94541198,0.31339011,0
0.43790415,2.9458485,-9.1706409,0.045415767,0.30551884,-0.95110238,0
-0.97658199,8.6441431,4.2767744,-0.10074511,0.89173788,0.44119602,0
3.193387,-6.4649119,-6.4474068,0.33014303,-0.66836423,-0.66655445,0
-9.5765839,-1.3641338,0.047133248,-0.98999482,-0.14101954,0.0048724758,0
-0.080938399,-4.0549793,8.6574154,-0.0084660519,-0.42414561,0.90555447,0
-1.3137251,-8.5672846,-4.1505656,-0.13670446,-0.89150006,-0.43190226,0
7.2161331,-4.7092943,-4.5373878,0.74099207,-0.48357612,-0.46592382,0
6.0480108,-3.9608307,-6.4047399,0.62618303,-0.41008607,-0.66311711,0
-2.5311315,6.6644168,-6.6855083,-0.25898471,0.6819014,-0.6840595,0
-2.004586,3.6774111,-8.7518883,-0.20660645,0.37901935,-0.90202993,0
-2.5979271,-5.4839945,7.4508719,-0.27035511,-0.57069576,0.77538019,0
-4.3582759,7.8396573,3.3573117,-0.45505899,0.81855911,0.3505457,0
8.5161524,-3.430367,3.1433849,0.87756622,-0.35348994,0.32391721,0
5.8122473,1.1198263,7.6387777,0.60145134,0.11587963,0.79046071,0
3.9397645,7.5281429,-4.5890837,0.40797701,0.77956671,-0.47521639,0
-8.3923779,-3.9599929,2.6855361,-0.86872935,-0.40991506,0.27799082,0
-6.184577,6.6742291,-3.3456426,-0.6379323,0.68843937,-0.34509933,0
9.3818092,1.2161208,-1.6501232,0.97695273,0.12663789,-0.17183173,0
-4.1535363,-8.4274817,-2.0247858,-0.43215841,-0.87684488,-0.21067065,0
1.6840109,8.0696507,5.0593905,0.17410731,0.83430886,0.52308267,0
9.4569607,0.61407244,1.7145915,0.98195654,0.063761756,0.17803334,0
8.890667,3.6189001,0.84273583,0.92266065,0.37556425,0.08745791,0
2.3177366,1.0477233,9.3739204,0.23862511,0.1078695,0.96510226,0
-4.1253433,-7.6683087,3.8068328,-0.43409422,-0.80690706,0.40057859,0
2.6080599,8.7602882,-3.295013,0.26842785,0.9016301,-0.3391307,0
4.6982584,-8.2421675,-1.4558532,0.48949099,-0.85871536,-0.15167898,0
9.0797186,-3.2920887,0.60484421,0.93827498,-0.34019607,0.062503062,0
-1.1414623,-9.3974628,-1.618607,-0.11885389,-0.97850358,-0.16853622,0
5.7681499,-2.4948545,7.2086849,0.60314059,-0.26087186,0.75376868,0
-4.7916656,0.43622562,-8.2999601,-0.49945793,0.045469858,-0.86514407,0
4.8959475,7.0361948,4.5360966,0.50483203,0.72551775,0.46772704,0
-5.7025504,7.1968179,2.9979174,-0.59037298,0.74507135,0.31036806,0
5.400795,-6.9694247,3.6292245,0.56642884,-0.73094481,0.38062868,0
-8.1128778,-4.7210627,2.0766749,-0.84390283,-0.49108568,0.21601605,0
-7.4444675,-5.9032335,1.7572969,-0.77048057,-0.61096734,0.18187508,0
-5.5784159,-7.1725249,-3.1373637,-0.5803082,-0.74613929,-0.32637185,0
2.803972,8.1402121,-4.298656,0.29137978,0.84590471,-0.44670254,0
3.8756652,-7.6686568,-4.3483272,0.40245715,-0.79632932,-0.45153937,0
-2.3453572,-3.8094761,-8.6194706,-0.24150968,-0.39227515,-0.88757718,0
5.4171247,1.3700596,7.7785902,0.56560868,0.14304961,0.81217217,0
4.5213585,-5.4127855,6.5827055,0.46865925,-0.56105971,0.68232721,0
-3.2260985,7.8757486,-4.7059379,-0.33172312,0.80982274,-0.48388737,0
-2.1643438,-8.6383429,-3.4420674,-0.22669417,-0.90478319,-0.3605234,0
-3.2545159,-5.0841484,7.4798675,-0.33859193,-0.52894247,0.77818727,0
-2.2033038,8.7467365,-3.4893522,-0.22781698,0.90439421,-0.36079168,0
-7.5203037,-4.5334058,4.13941,-0.77466583,-0.46698573,0.42640024,0
-2.6312642,-9.2598848,0.57922959,-0.27284274,-0.96018195,0.06006185,0
-9.7385464,0.19593032,-0.34397686,-0.99917483,0.020102451,-0.035292026,0
-5.1449137,1.8511333,7.9941702,-0.53121257,0.19112961,0.82539845,0
4.8076706,0.49092853,-8.242445,0.50317252,0.051380754,-0.86265725,0
0.95686406,8.9865465,3.5012619,0.098728471,0.9272247,0.36125743,0
-7.1947093,-2.2329094,-5.8632751,-0.75368172,-0.23390841,-0.61420733,0
8.3365831,1.0628918,-4.8592253,0.85875535,0.10948899,-0.50055104,0
3.7274995,-4.7239437,7.6432862,0.38318086,-0.48561367,0.78571731,0
3.6066396,-8.9523668,0.38901055,0.37338126,-0.92680341,0.040272735,0
-2.763068,-0.38057151,-9.1684065,-0.28832203,-0.039712071,-0.95670962,0
-8.0975103,-4.9076047,1.4157534,-0.8457945,-0.51260513,0.14787711,0
-5.4864755,-0.87080681,-7.8623762,-0.56991249,-0.09045583,-0.81671131,0
-0.7454257,-8.3988047,-4.7541156,-0.077008925,-0.86766917,-0.49114126,0
4.2422128,-7.2853527,-4.6404915,0.44082966,-0.75705761,-0.48221681,0
-1.7359746,-7.9838629,-5.2852511,-0.17839895,-0.82046872,-0.54314351,0
-1.8528758,-0.75347376,9.3469505,-0.19384436,-0.078827001,0.97786027,0
-4.617135,8.5199776,-0.44262353,-0.47595823,0.87828344,-0.045627929,0
4.9541287,-4.2494707,7.0320683,0.51635945,-0.44291428,0.73293912,0
-6.1117668,-6.2476392,4.1140647,-0.63269949,-0.64676523,0.42589432,0
7.5174446,-4.7525506,-3.4831679,0.78704327,-0.49757105,-0.3646723,0
1.0388498,-3.4991894,8.9206305,0.10778099,-0.36304197,0.9255181,0
-4.6989756,2.9166427,7.8695107,-0.48853296,0.30323121,0.8181603,0
-4.1952066,-8.2275724,-2.922107,-0.43309107,-0.84937131,-0.30166295,0
-3.659934,-8.901741,0.43381855,-0.37987646,-0.92394066,0.045027439,0
8.3148909,-1.1003131,-4.8918862,0.85634714,-0.11332078,-0.50381333,0
7.69556,0.038600933,5.8955374,0.79381877,0.0039817952,0.6081413,0
3.7140343,-2.368299,-8.548378,0.38621354,-0.24627376,-0.88892537,0
5.4393849,-7.628346,-2.3759036,0.56275809,-0.78922772,-0.2458107,0
-1.3726466,-8.578002,-4.2824574,-0.14172421,-0.88566911,-0.44215891,0
6.9851336,3.7067442,-5.5483913,0.72309452,0.3837187,-0.5743643,0
-4.4873066,7.3889318,-4.0931816,-0.46914548,0.77250886,-0.42793992,0
4.7448816,-2.3091493,8.098794,0.49087059,-0.23888761,0.83784169,0
6.5020437,-1.1275729,7.0751457,0.67204565,-0.11654496,0.73128098,0
-3.753762,-2.6659904,8.457304,-0.38982537,-0.2768611,0.87828469,0
8.1627283,3.7259874,3.3393908,0.85257858,0.389171,0.34879184,0
-7.3343534,-4.3914771,-4.743824,-0.75019556,-0.44918299,-0.48522285,0
5.1335416,0.6664663,8.1782227,0.53038579,0.068857782,0.84495533,0
-2.9326091,-8.289175,3.896306,-0.30493167,-0.86190552,0.40513653,0
-2.7050776,9.1057014,1.568903,-0.28096807,0.94578111,0.16295712,0
8.1973219,4.0131831,-3.346396,0.84324902,0.41283152,-0.34423989,0
1.2164177,-2.5791688,9.2451582,0.12572853,-0.26658204,0.95557648,0
0.35309324,-9.3280106,2.6057744,0.03643303,-0.9624871,0.26887023,0
7.0963321,-1.8523803,6.290719,0.73442584,-0.19170974,0.65104997,0
-8.7421989,-2.9060032,3.0523856,-0.9007889,-0.29943216,0.31451526,0
-4.7188735,-6.6508918,-5.2515559,-0.48650515,-0.68569183,-0.5414235,0
0.17608851,6.9210863,-6.6074724,0.018399427,0.7231819,-0.69041246,0
7.4223285,5.4518943,-3.2314465,0.76048946,0.55859935,-0.33109298,0
6.2630196,7.4009213,-0.063668609,0.64597052,0.76333416,-0.0065668072,0
-2.6348517,4.1088524,8.2554855,-0.27473491,0.42842835,0.86079609,0
-6.3093228,7.3855524,-0.88278395,-0.64686936,0.75721079,-0.090508267,0
5.7403278,6.7228627,3.6719885,0.59967196,0.7023139,0.38359979,0
9.0686197,-2.1099184,2.310854,0.94530636,-0.21993636,0.24088174,0
-9.3776321,-2.3710358,1.2930326,-0.9609434,-0.24296445,0.13249946,0
-3.6218958,4.069612,7.860714,-0.37869969,0.42551219,0.82190382,0
5.5846729,-2.7649071,-7.2926388,0.58219218,-0.28823665,-0.76024461,0
9.4205847,-1.4181199,-1.8374091,0.97096443,-0.14616333,-0.1893788,0
2.5569789,1.616738,-9.1093111,0.26639313,0.16843621,-0.94903314,0
0.34374493,8.3531361,4.8104515,0.035638273,0.86602396,0.49873081,0
-7.4215889,-3.4772377,5.1351042,-0.76735646,-0.35952958,0.53094494,0
-4.323523,7.4560251,4.337779,-0.44808403,0.77273226,0.44956151,0
1.9286257,0.83676803,9.3376245,0.20149955,0.087424114,0.97557926,0
-8.8370485,3.8965085,0.68063605,-0.91273773,0.40245229,0.070299737,0
-6.2497602,-1.1099391,-7.3014889,-0.64597839,-0.11472387,-0.75468558,0
5.1758289,-1.4031993,7.918694,0.54119658,-0.14672175,0.82799691,0
-1.1345099,5.9082246,7.6084232,-0.11696455,0.60912013,0.78440547,0
0.82671922,-1.4668955,9.45051,0.086122476,-0.15281206,0.98449546,0
-3.4921639,2.7291486,-8.5047045,-0.36413577,0.28457445,-0.88680464,0
-4.5035467,4.6440191,-7.2248278,-0.46438932,0.47887433,-0.74499792,0
7.4642324,-5.7787914,2.0108497,0.77337015,-0.59874135,0.20834441,0
-5.7608366,3.1793494,-6.985836,-0.60029101,0.33129475,-0.72793847,0
9.0683937,-0.0082584796,-3.3653848,0.93752199,-0.00085379026,-0.34792516,0
-9.3577433,-1.7540853,0.95637745,-0.97795981,-0.1833161,0.099949174,0
8.7466888,0.24541192,3.9734824,0.91015911,0.025536966,0.41347089,0
-0.46188128,8.8717194,-3.9689963,-0.04746962,0.91178656,-0.40791163,0
-6.6850114,-6.3302503,-2.8196218,-0.69428027,-0.65743613,-0.29283538,0
7.0181022,4.89854,4.4969769,0.72590256,0.50667012,0.46513528,0
-7.6001301,-3.2979538,4.7247553,-0.79687744,-0.34579211,0.49539295,0
0.9490186,5.5043159,-7.9019618,0.098072231,0.56881976,-0.81659412,0
-7.1269236,-1.4951739,6.3910007,-0.73558128,-0.15431932,0.65962547,0
-0.33571893,-4.8515573,8.2759771,-0.034974113,-0.50541955,0.86216462,0
1.9306614,9.5048971,-0.15474965,0.19903253,0.97986299,-0.015953192,0
-0.09006872,9.5970392,1.155692,-0.009317331,0.99278408,0.11955277,0
-9.5265684,0.2714999,1.1873965,-0.99192512,0.028269107,0.12363408,0
-6.588017,-7.002511,0.41753757,-0.68457699,-0.72764808,0.043387353,0
4.2282963,-7.7838879,-4.0107746,0.43483663,-0.80049253,-0.41246676,0
-8.0147829,-5.0280485,-1.2875142,-0.83936757,-0.52657455,-0.13483804,0
1.8475841,9.402688,-0.75048876,0.19221973,0.97824085,-0.078079663,0
-2.2247851,-1.8780919,9.0818291,-0.23327659,-0.1969246,0.95226192,0
-7.696003,3.4123261,4.719923,-0.79739511,0.35355651,0.48903871,0
-0.89150649,-2.8933039,-9.0629501,-0.093300045,-0.30279687,-0.94847727,0
-8.9553022,3.6923709,0.37909931,-0.92379296,0.38089013,0.039106362,0
7.772469,5.5166869,0.44375506,0.81458807,0.57817245,0.046507433,0
-0.60946572,9.0322447,-3.4830878,-0.062833257,0.93118501,-0.35909113,0
1.561533,-7.4194622,-6.0101967,0.16139562,-0.76685458,-0.62119687,0
-5.7716742,2.8540046,7.1305065,-0.60075444,0.29706386,0.74219078,0
-4.6519566,7.4541855,-4.1837206,-0.4780131,0.76595688,-0.42989936,0
2.532419,-7.0005951,6.1364999,0.26248941,-0.72562325,0.63605839,0
-9.0147991,2.2389567,2.8744063,-0.92713773,0.23026815,0.29562172,0
2.6654184,9.2949734,-0.48081318,0.27530941,0.96007204,-0.049662896,0
-2.994226,1.47595,-8.9572744,-0.31323272,0.15440245,-0.93704069,0
-7.9217839,3.6722977,4.2408271,-0.81609327,0.37831599,0.43688524,0
-1.3685629,-9.5113974,0.97735035,-0.14168893,-0.98472619,0.10118624,0
-2.6078506,-3.5107439,-8.5477152,-0.27160743,-0.36564371,-0.89024389,0
6.417963,-1.4919063,6.9583364,0.66972166,-0.15568209,0.72611022,0
9.4739132,0.074028589,-2.0965972,0.97634852,0.0076291291,-0.21606801,0
-5.1978922,0.14599003,-8.2334805,-0.53377146,0.014991713,-0.84549594,0
-1.4243675,-9.311224,1.9869814,-0.14795814,-0.96721625,0.20640044,0
1.9992541,4.4267955,-8.4736004,0.20469356,0.4532373,-0.86756927,0
-3.1240261,-6.4750514,-6.441483,-0.32363594,-0.67078799,-0.66731048,0
9.2514095,-2.6329613,-1.2085898,0.95430261,-0.27159557,-0.12466861,0
-7.625896,-5.7136807,0.23016913,-0.80005574,-0.5994395,0.024147738,0
2.109118,-5.643856,-7.5505929,0.2183383,-0.58425844,-0.78164601,0
4.6473732,-0.66447431,-8.495863,0.47878179,-0.068455487,-0.87526101,0
6.838542,6.5469546,-1.9323384,0.70774692,0.67756939,-0.1999851,0
8.9993324,-3.4198797,-0.64506084,0.93268764,-0.35443512,-0.066853881,0
2.0513184,9.3677988,-0.83217138,0.21310623,0.97319669,-0.086452164,0
-8.8701763,2.7280779,-2.6878278,-0.91808403,0.28236243,-0.27819648,0
3.4593122,5.2372537,-7.2438989,0.36091381,0.54640841,-0.75576389,0
-6.4327903,2.4498954,6.6739316,-0.67094141,0.25552464,0.69609255,0
-5.5288167,4.8850889,-6.2707267,-0.57100177,0.50451922,-0.64762431,0
2.0491667,4.4208946,-8.4113636,0.21080174,0.45478597,-0.86529326,0
-1.7618173,-1.8991829,-9.2908983,-0.18266083,-0.19690256,-0.96325719,0
0.93560195,9.3656816,-2.266737,0.096639149,0.96738952,-0.23413327,0
-8.4315023,2.1343122,-4.0022407,-0.88065714,0.22292554,-0.41802773,0
7.4390378,5.8482766,-2.2069485,0.76560116,0.60188532,-0.22713184,0
-4.0066113,7.1929641,-4.9916468,-0.41611958,0.74704856,-0.51842362,0
-5.5259385,6.6904001,-4.3592877,-0.56904715,0.68896049,-0.44890842,0
4.2004042,6.4982734,5.7242813,0.43641099,0.67515355,0.59473783,0
2.9763677,3.7597129,8.2865582,0.31088066,0.39270082,0.86552835,0
7.8894711,-0.90015692,-5.397337,0.82170725,-0.093753487,-0.56214553,0
6.9588227,-4.1491671,-5.3168812,0.71809149,-0.42815885,-0.54865706,0
-2.059226,-9.0571604,-2.6708572,-0.21306716,-0.93714017,-0.27635235,0
2.7908089,-9.3307142,-0.10535694,0.28653923,-0.9580074,-0.010817257,0
-5.2459168,-0.30262265,8.1079302,-0.54295617,-0.031321663,0.83917665,0
9.1433268,-2.6986475,0.44474965,0.9580552,-0.28276944,0.046601716,0
5.1895208,-6.1777153,-5.3959541,0.53465676,-0.63646668,-0.55592477,0
2.5371196,-6.5818076,-6.62677,0.26214272,-0.68005186,-0.68469751,0
0.89135057,-1.714637,-9.3855476,0.093019247,-0.17893548,-0.97945362,0
-8.551096,-3.7748337,1.9132811,-0.89624453,-0.39564216,0.20053193,0
-3.4597478,0.68541139,9.0843019,-0.35502955,0.070334986,0.93220544,0
1.1024435,-1.2783703,-9.450304,0.11483919,-0.13316511,-0.98441809,0
-0.76504606,6.1108923,7.476356,-0.078982368,0.63088065,0.77184939,0
4.0558753,1.8112154,8.5493565,0.42097744,0.18799415,0.88737595,0
6.5738087,-3.755069,6.0218983,0.67956096,-0.38817653,0.62250775,0
-0.59465444,2.7427092,-9.2804785,-0.061332829,0.28288379,-0.95719117,0
4.0180697,8.3902864,2.6401272,0.41551208,0.86764681,0.27301785,0
-8.1970568,5.0182691,0.69810265,-0.85062605,0.52075648,0.072443604,0
8.833107,-3.7548664,-1.5572912,0.90842152,-0.386161,-0.16015619,0
-1.4599489,-1.963007,9.3260517,-0.15142214,-0.20359802,0.96727407,0
-1.1711076,4.5221419,8.4145336,-0.12168336,0.46987092,0.87430793,0
-9.0338306,0.27047005,3.6655068,-0.9262706,0.027732251,0.37583736,0
-0.91281027,1.711641,-9.3928366,-0.095173091,0.17846224,-0.9793331,0
-6.8110142,2.1966946,6.523663,-0.70335013,0.22684515,0.67367637,0
-7.0738564,2.6188099,-6.013824,-0.73327368,0.271465,-0.62339103,0
7.5054078,-3.3679056,5.2331972,0.7697944,-0.34543023,0.53674442,0
-4.8470268,-2.4489992,-8.0334797,-0.49985802,-0.25255728,-0.82846648,0
-8.2349882,-4.4654179,2.3324692,-0.85303283,-0.4625566,0.24161211,0
7.7457957,-5.2860265,2.6536176,0.79478085,-0.5423888,0.27228248,0
-4.0152745,-8.6820984,-0.58513629,-0.41897747,-0.90594143,-0.061056577,0
-4.8816557,0.50480294,-8.2527504,-0.50841403,0.052574147,-0.85950631,0
-7.5617833,4.5873895,4.1463714,-0.77412504,0.46962643,0.42447791,0
0.30498075,-8.4102335,4.7773175,0.03151546,-0.86907899,0.49366838,0
2.7287819,-7.7233486,-5.0212383,0.28401831,-0.80386502,-0.52262276,0
-8.995038,-2.570559,-2.4085019,-0.9311446,-0.26609805,-0.2493223,0
-6.4719615,6.1565471,-3.7655437,-0.66764307,0.63510513,-0.38845089,0
-1.5640771,-9.46807,-1.7214659,-0.16042523,-0.97112685,-0.17656839,0
1.8701127,9.1807766,-1.9709299,0.19532488,0.95889097,-0.20585479,0
8.6821814,-4.0251417,-1.7365199,0.89266586,-0.41384837,-0.17854178,0
-7.7765474,2.8057239,-5.0929451,-0.80087703,0.28895083,-0.52450305,0
-1.2835165,-7.6838512,-5.8646398,-0.13162854,-0.78800243,-0.60143673,0
-3.659009,-8.6129045,2.4051826,-0.37869868,-0.89141506,0.24893065,0
1.6768342,-1.816921,-9.3037395,0.17418653,-0.1887385,-0.96645576,0
0.4490431,0.0074207545,9.692461,0.046279456,0.00076480076,0.99892825,0
-2.3287036,-7.5225525,5.4399295,-0.24330771,-0.78597164,0.56837493,0
-5.5831866,-7.9377985,-0.74132329,-0.57363808,-0.81555998,-0.076166406,0
-7.9325652,4.5984478,2.7804768,-0.82791686,0.47993711,0.29019663,0
-5.191215,-6.708045,-4.5256948,-0.53996563,-0.69773906,-0.47074133,0
-3.4291103,-4.0266948,8.0788832,-0.35512155,-0.41700789,0.83665597,0
-3.8127413,-7.8060484,4.0620728,-0.39756665,-0.81396151,0.42356524,0
0.46515816,1.5035137,9.4900446,0.048354946,0.15629593,0.98652595,0
5.8911409,6.5710478,4.1604261,0.60380417,0.67349023,0.42641699,0
5.1789618,-1.3816415,-8.0104084,0.53733033,-0.14334878,-0.83110005,0
-1.8216124,-3.3449466,8.7487679,-0.19090664,-0.35055345,0.91687888,0
-4.3803797,1.0591582,-8.4942636,-0.45554364,0.11014862,-0.88337272,0
0.62073642,-7.7153382,5.8902631,0.063818365,-0.79321957,0.60558224,0
7.4977632,-5.949842,-1.7169782,0.77102119,-0.61184305,-0.17656288,0
3.7583845,6.9614816,5.6994138,0.38545811,0.71396619,0.5845291,0
5.7184253,7.1691785,2.9751348,0.59313595,0.74361336,0.30859184,0
-4.7638626,1.4229963,8.1864185,-0.49737912,0.14857033,0.85471684,0
-0.6856131,-4.4955244,8.4981508,-0.071133643,-0.46641907,0.88169909,0
-3.577441,-4.4711084,7.8577833,-0.36794189,-0.45985612,0.80817759,0
4.2147975,5.270864,-6.9102139,0.43635657,0.54569077,-0.71541214,0
4.2866945,-1.776355,-8.5535393,0.4405151,-0.1825442,-0.87899041,0
0.35091746,6.7625532,6.7856846,0.036605418,0.70542538,0.7078383,0
-7.746716,2.9111121,-4.9774833,-0.80216992,0.30144471,-0.5154168,0
-7.7367744,5.3133588,2.6805952,-0.79262972,0.54435164,0.27462599,0
2.085937,9.4314318,0.94654173,0.21492063,0.97174996,0.097525157,0
-4.5669465,5.2465477,6.5820146,-0.47689924,0.54786599,0.68732089,0
6.1864939,-0.73146158,7.3937674,0.63987565,-0.075655855,0.76474524,0
0.015919721,7.5171108,-6.0388274,0.0016510233,0.77959436,-0.62628263,0
0.50245422,0.099376597,-9.5758362,0.052396156,0.010363037,-0.99857259,0
2.4977591,-5.4379282,7.4588747,0.26119891,-0.56866211,0.77999914,0
0.76178467,-7.9485645,5.6303439,0.077968605,-0.81353498,0.57626528,0
-7.2869539,-4.8520961,-3.9491134,-0.75873655,-0.50521284,-0.41119194,0
0.016279316,-8.0392952,5.2708888,0.0016934411,-0.83628041,0.54829943,0
-6.14745,0.16939375,-7.3260307,-0.64269787,0.017709618,-0.76591498,0
9.4508495,-1.8125526,-1.2989985,0.97327375,-0.18666151,-0.13377434,0
5.0496268,-6.6237907,4.7918,0.52550501,-0.68932521,0.49867347,0
5.0847745,-7.9877591,1.714142,0.52841127,-0.83009022,0.17813413,0
8.3436251,-0.56623894,-4.6007481,0.87415218,-0.059324216,-0.48201519,0
-7.4805999,-6.0268884,-0.4113442,-0.77799779,-0.62680882,-0.042780645,0
0.79263335,-8.2992945,-4.6973042,0.082830988,-0.86728466,-0.49087304,0
-5.1193147,0.047748495,8.1048498,-0.53402078,0.0049808794,0.8454566,0
2.2481949,-9.2557449,1.2976482,0.23387367,-0.96285021,0.13499084,0
9.1921349,-0.73193645,-2.6886847,0.95699447,-0.076202005,-0.27991936,0
1.664646,4.3513732,-8.4651537,0.17227864,0.45033517,-0.87608123,0
4.8921876,-7.4591656,3.8010676,0.5045349,-0.76926923,0.3920069,0
-6.7611275,-6.6504469,-1.5109125,-0.70403916,-0.69251394,-0.15733199,0
-5.3855934,-7.2127557,-3.6086426,-0.55533165,-0.74373817,-0.37210262,0
1.1296394,9.2021723,-2.3339231,0.11815687,0.96251947,-0.24412133,0
3.3180983,-2.9479315,8.473217,0.34688812,-0.30818933,0.88582623,0
1.085162,-5.7532396,7.5259705,0.11380745,-0.60337675,0.78929365,0
7.5063062,-1.4658122,-5.9914308,0.77261335,-0.15087394,-0.61668938,0
5.7002287,-7.0556741,3.4885111,0.58654743,-0.72602129,0.35896406,0
7.1164064,4.8911786,4.2178731,0.74050003,0.50895321,0.43889219,0
2.9763291,-1.6020647,9.1204453,0.30599743,-0.16470884,0.93767613,0
-6.8074279,-4.4097667,5.2186427,-0.70581639,-0.45721903,0.54108596,0
9.5471783,-0.65882349,1.1801156,0.99012756,-0.06832587,0.12238851,0
3.6106668,-8.9951286,0.012749652,0.37251207,-0.92802638,0.0013153802,0
-4.9878912,5.6680298,6.1889892,-0.51091605,0.58058351,0.633946,0
9.5446663,-0.64061189,1.7217339,0.98197711,-0.06590762,0.17713593,0
1.1692265,-2.7609618,9.1635599,0.12126868,-0.28635871,0.95041704,0
-2.9859047,-0.2917763,9.1535673,-0.30997646,-0.030290246,0.95026159,0
-3.2283864,-0.34075239,-9.1511555,-0.33248389,-0.035093281,-0.94245583,0
-0.27101979,-8.3743563,-4.7049594,-0.028203707,-0.87147844,-0.48962218,0
8.2712622,-0.096438654,4.7798009,0.8657825,-0.010094577,0.50031877,0
-4.9597025,8.2230577,-0.56576961,-0.51558101,0.85481989,-0.058814026,0
0.6508835,9.399642,-1.594645,0.068111546,0.98362333,-0.16687125,0
-5.4529533,1.0269682,7.8678236,-0.56638354,0.10666841,0.8172096,0
-7.4255023,-6.0968609,0.93246347,-0.76924759,-0.63160652,0.096598893,0
6.4106684,2.5069795,-6.8970752,0.65788943,0.25727665,-0.70780653,0
4.2307701,-1.6814202,-8.5176468,0.43805879,-0.17409618,-0.88192689,0
2.7554817,-0.72928339,-9.1568556,0.28732172,-0.076044403,-0.95481074,0
4.1521621,-8.6493893,0.46476516,0.43226278,-0.90044874,0.048384596,0
-8.3194456,-0.30747133,4.7719455,-0.86698914,-0.032042317,0.49729574,0
7.9361796,-4.8268871,-2.6524804,0.82154256,-0.49967283,-0.27458119,0
5.0692887,-0.33157766,-8.2954569,0.52113521,-0.034086991,-0.85279316,0
-2.750957,-2.0031967,-9.1321249,-0.28227749,-0.20554931,-0.93705332,0
2.7973037,-9.1764956,-0.13906023,0.29155618,-0.95644391,-0.014493911,0
6.9891505,-4.0460486,-5.2952704,0.72373557,-0.41897357,-0.5483321,0
-6.2691236,7.1784515,1.0523632,-0.65381616,0.74865133,0.10975251,0
-4.0257092,-2.7318277,-8.3184147,-0.41774935,-0.28348279,-0.86320502,0
1.7418162,-7.6770368,5.8167233,0.17795411,-0.7843309,0.59427041,0
-6.2525115,6.5940857,-3.4336023,-0.64364719,0.67880958,-0.35346252,0
-2.3940268,8.033617,4.8835263,-0.24676861,0.82807946,0.50337821,0
1.5821254,9.2346296,2.0529742,0.16495138,0.96279657,0.21404178,0
1.4494153,-5.1835628,-8.0749168,0.14935727,-0.53414834,-0.83209246,0
3.7183807,-1.5899898,-8.6965485,0.38770089,-0.16578196,-0.90675479,0
6.6262231,4.192359,5.7650614,0.68084508,0.4307653,0.59236068,0
-4.9885893,-7.4936485,3.1575117,-0.5229156,-0.78550178,0.33097777,0
-2.6079221,-4.4750085,8.2409086,-0.26793474,-0.45975691,0.84666085,0
-0.33790642,9.4678993,-2.0845449,-0.034833744,0.97601694,-0.21488939,0
-3.6175871,7.7108297,-4.4986629,-0.37556714,0.80051547,-0.46703783,0
-7.5454154,-0.72612077,5.8054142,-0.79026532,-0.076049902,0.60802716,0
5.0882092,6.6653676,4.8612185,0.52495271,0.6876688,0.50153399,0
9.2628565,2.4289997,-0.52038354,0.96587002,0.25328016,-0.054262187,0
3.7988729,6.3550372,6.2271562,0.3926698,0.65688723,0.64366883,0
8.208209,0.89734548,-4.8074865,0.85907763,0.093916886,-0.50315529,0
6.2523823,-6.3582349,-3.7933502,0.64519656,-0.65611976,-0.39144385,0
-2.1459765,9.3461189,0.15411378,-0.22375916,0.97451192,0.016069314,0
-0.78749341,6.5370479,-6.8742905,-0.08272966,0.68674576,-0.72217458,0
-5.4137201,-5.5934453,-5.6346583,-0.56336594,-0.58206862,-0.58635736,0
6.5436954,-6.7520947,-1.9668078,0.68119508,-0.70288932,-0.20474361,0
-4.7409353,1.0920175,8.225194,-0.49610597,0.11427206,0.86070949,0
4.8155627,-8.0459824,-2.3692415,0.49790508,-0.83191431,-0.24496771,0
8.2718573,2.3962038,-4.5130544,0.85076803,0.24645174,-0.46417174,0
7.5433059,-4.2059846,4.165319,0.78669351,-0.43864331,0.43440229,0
0.78319699,-5.7321138,-7.7138343,0.081225201,-0.5944764,-0.80000025,0
7.2002349,-1.1380712,-6.283668,0.74814719,-0.11825236,-0.65291047,0
-8.7209406,-2.7409873,2.9822905,-0.9069472,-0.28505304,0.31014773,0
1.5117297,-9.5250988,-0.7260738,0.15630592,-0.98485154,-0.075072698,0
-0.3357363,3.2909524,-8.979495,-0.035084173,0.34390187,-0.93834996,0
-4.0849695,-0.76074886,8.7227926,-0.42279038,-0.078736767,0.90280056,0
-9.4104309,1.0724362,-1.6048908,-0.97960508,0.11163824,-0.16706559,0
-8.8474684,-3.1622648,-1.7597049,-0.92556578,-0.330816,-0.18408912,0
-2.2491813,0.42201725,-9.4258041,-0.23188335,0.043508619,-0.97177005,0
-5.7558174,-0.43808261,7.5757203,-0.60432774,-0.045996156,0.79540706,0
-2.3970704,-9.316021,-1.0051152,-0.24784023,-0.96321106,-0.10392184,0
6.7919044,-3.0550563,-6.1373038,0.70379657,-0.31657368,-0.63596499,0
-2.7090695,3.649225,8.5689974,-0.279295,0.37622154,0.88343179,0
-5.2350135,8.0979214,-0.79559511,-0.54106051,0.836954,-0.082228079,0
-1.6361583,-9.4335079,-0.61818331,-0.17053474,-0.98324281,-0.064432479,0
-2.7216859,0.75877172,9.3319101,-0.2791394,0.077820547,0.95709205,0
7.6303968,5.4651918,2.4172246,0.78729069,0.56388873,0.24940491,0
8.1435633,-5.1615939,1.1033521,0.83915442,-0.53187704,0.11369505,0
-1.8257726,-1.9415214,9.3583326,-0.18763529,-0.19953083,0.96175909,0
-6.8361502,-2.3490634,-6.4404173,-0.70610976,-0.24263607,-0.66523427,0
6.5544543,-7.0794597,0.72098088,0.67748541,-0.73175132,0.074522458,0
1.3979409,7.5475812,-5.6925235,0.146283,0.78979224,-0.59567571,0
3.1663892,7.2340994,5.6947923,0.32522625,0.743029,0.58492368,0
-1.5912848,8.3420582,4.6698656,-0.16418983,0.86073923,0.4818399,0
-4.4373536,-6.1673121,5.8137712,-0.46382305,-0.64465034,0.60769576,0
-1.0291733,-8.9255342,-3.4337659,-0.1069996,-0.92795706,-0.3569968,0
4.0418458,-7.1723614,5.1370072,0.41651225,-0.7391119,0.52936864,0
-5.3331413,-7.0437074,-3.5344818,-0.5604564,-0.74021864,-0.37143642,0
-0.27609208,-9.2073412,-2.6631384,-0.028793406,-0.9602257,-0.27773643,0
3.8068516,-8.7811556,-0.31675678,0.39753792,-0.91698933,-0.033077948,0
0.87594211,5.5805817,-7.8403625,0.090645254,0.57749623,-0.81134546,0
-1.8320045,-0.32048014,9.423048,-0.19073783,-0.033366557,0.9810738,0
-5.1398582,-2.2435806,7.8868561,-0.53111345,-0.23183437,0.8149671,0
7.324851,5.4534259,3.3985088,0.75173879,0.55967712,0.348784,0
1.7119756,8.7091322,-3.865026,0.176842,0.89962757,-0.39924574,0
-4.1625276,4.1069074,-7.7650709,-0.42821807,0.42249617,-0.79882801,0
4.4003921,3.8154726,-7.8548098,0.45000625,0.39018944,-0.80327243,0
-0.22422858,-9.6236792,-1.5868884,-0.022983156,-0.98641545,-0.16265413,0
4.7815948,2.1151371,-8.091176,0.49635005,0.2195603,-0.83989877,0
-4.6145034,-5.6873531,6.2727194,-0.4785361,-0.58979344,0.65049744,0
-4.3776665,7.9206691,3.3615172,-0.45345372,0.82045007,0.34819749,0
5.4152498,3.5701764,7.1910429,0.5591886,0.36866295,0.74256027,0
-8.8452444,-3.787936,-0.18980639,-0.91907465,-0.39358959,-0.019722037,0
7.8037252,5.7328548,0.23593886,0.80566704,0.59186757,0.024358643,0
4.2336917,5.2209573,-6.8488436,0.44117907,0.54405874,-0.71369541,0
4.4231839,8.5385952,1.3726041,0.45535463,0.87902486,0.14130582,0
6.9811931,-4.2719069,-4.9981904,0.72796565,-0.44545418,-0.5211876,0
-7.1944804,2.1653755,5.9855647,-0.74895227,0.22541764,0.62310296,0
-9.612421,-1.0492579,-1.0687675,-0.98807788,-0.10785509,-0.10986052,0
-4.0382838,-2.2913883,8.5286894,-0.41586131,-0.2359665,0.87828201,0
6.8560252,-6.3488297,-2.4322705,0.71006429,-0.65753508,-0.2519052,0
5.3287997,-3.7966504,-7.0964603,0.55206525,-0.39333412,-0.7351954,0
6.0205283,7.5499578,0.95869178,0.62041682,0.77802491,0.09879341,0
3.7352378,6.889668,5.5742731,0.38838822,0.71638435,0.57961023,0
4.6233315,7.8685994,3.0013406,0.48123661,0.81903231,0.31240568,0
6.0070176,-3.9287424,-6.4212213,0.62373304,-0.40793729,-0.66674149,0
-5.2986851,3.0752332,-7.3220196,-0.5550108,0.32211533,-0.766945,0
-5.7409873,-6.5873556,-4.2182441,-0.59167904,-0.67890763,-0.43474171,0
7.3701687,-3.425168,5.2025928,0.76376599,-0.35494801,0.53914142,0
-8.015049,3.4047225,-4.0990925,-0.83275449,0.3537468,-0.42589104,0
2.5522413,5.0533752,7.7163486,0.26668072,0.52802128,0.80627221,0
6.1873617,-5.6658525,-4.7191753,0.6427896,-0.5886113,-0.49026337,0
6.2101321,7.4415708,-0.49031886,0.63990319,0.76679283,-0.050523337,0
-3.947155,7.5408602,4.4320202,-0.41132402,0.78581583,0.4618507,0
-7.1386194,1.4477181,6.3466439,-0.73890811,0.14985119,0.65693188,0
-2.2872386,9.3073263,-1.4680141,-0.23589453,0.95991182,-0.15140375,0
-5.3300233,2.0723293,-7.8817124,-0.54735297,0.2128125,-0.80939209,0
-8.7084379,-3.7442982,1.4031296,-0.90878004,-0.39074096,0.14642535,0
5.7676725,6.7258873,-3.9230969,0.59522474,0.69411266,-0.40486425,0
3.0645814,-1.439723,-9.0010548,0.31866851,-0.14970866,-0.93596882,0
6.0743904,5.3262186,5.0919013,0.63609046,0.55774432,0.53320736,0
-4.9213562,8.2536249,1.3577616,-0.50709879,0.85045731,0.13990438,0
8.454689,0.43903089,-4.6448188,0.87553978,0.045464594,-0.48100215,0
-7.6613884,-0.39977607,5.9860349,-0.78733045,-0.041083395,0.615161,0
1.6617668,4.2573242,-8.500001,0.17219105,0.4411408,-0.88076389,0
5.465147,1.400722,-7.8784347,0.56398821,0.14455068,-0.81303287,0
-2.9083068,3.633697,8.4376326,-0.3018117,0.37708959,0.87562156,0
-3.1071417,-6.9570794,-5.9239373,-0.32193896,-0.72084093,-0.61379445,0
2.8679078,-7.6844897,-5.0064154,0.29844832,-0.79968506,-0.52099174,0
0.86439449,8.2750111,-4.6835957,0.090534084,0.86669981,-0.49054575,0
2.7045956,7.0931754,-5.8865905,0.28154558,0.73839217,-0.61278796,0
6.684536,2.8282754,6.4098043,0.69031054,0.29207537,0.66193908,0
-4.6726565,-1.1629524,-8.2755251,-0.48803288,-0.12146389,-0.86433238,0
-5.0587006,1.1633598,-8.0814362,-0.52668095,0.12112191,-0.84138972,0
-7.2599039,1.6102734,-5.9694114,-0.76132476,0.16886464,-0.62599462,0
3.1628442,5.3553271,7.2959008,0.32990482,0.55859482,0.76100904,0
3.2235878,9.0539846,0.80420405,0.33424729,0.93878937,0.083386295,0
0.85389471,1.9723352,-9.4566317,0.08805044,0.20337985,-0.97513264,0
8.7655878,-0.17901914,-3.9590349,0.91119784,-0.018609347,-0.41154847,0
7.8935924,-4.3997974,-3.4964871,0.81462812,-0.45406434,-0.36084163,0
6.9837165,0.65814292,6.5956349,0.72531784,0.06835369,0.68501228,0
9.2123165,-3.0246356,0.36321414,0.94943523,-0.3117235,0.037433397,0
-0.039733745,7.9688258,5.493701,-0.0041051176,0.82330436,0.56758529,0
2.012615,-1.138321,9.3794432,0.20833993,-0.11783562,0.97093213,0
-2.8121512,-4.921874,-7.7322955,-0.29331231,-0.51336008,-0.80649197,0
-5.8912492,-5.3818045,5.3794656,-0.61218137,-0.55924308,0.55900007,0
8.7473249,-0.62652719,4.031188,0.90628242,-0.064912483,0.41765851,0
1.3726616,-7.8665314,5.3994427,0.14239925,-0.81607014,0.56013554,0
0.063765921,1.165852,9.5882368,0.0066016652,0.12070028,0.99266708,0
4.7415466,-8.1090221,2.1237416,0.49234089,-0.84200442,0.22051978,0
-4.2721372,-3.0137329,-8.1165686,-0.4424949,-0.31215325,-0.84068936,0
3.955061,-8.5110025,2.3720398,0.40857229,-0.87921774,0.2450404,0
-4.552887,8.4331064,1.8177193,-0.46674761,0.86453545,0.18634684,0
-6.6400423,-2.8413301,6.4558806,-0.68544543,-0.29330787,0.66643459,0
-9.5422316,-0.80598724,1.1847225,-0.98891264,-0.083528779,0.12277915,0
5.6825762,-2.9069784,7.2205362,0.58964151,-0.30163699,0.74922496,0
4.0428758,-6.7393694,5.5132828,0.42113239,-0.70201677,0.57429957,0
3.9216306,5.0910463,7.2516036,0.40473577,0.52542651,0.74840897,0
6.6626267,3.8018057,-5.7891569,0.69327682,0.39559531,-0.60238826,0
-5.733501,7.6460853,1.2500861,-0.59486145,0.79329568,0.12969877,0
-1.8898458,-2.9834347,8.9613008,-0.19620292,-0.30973881,0.93035811,0
-1.0476387,4.7218075,-8.3018484,-0.10903814,0.49144533,-0.86405569,0
-8.3346815,4.231041,-2.3004119,-0.86584795,0.43954146,-0.23897818,0
-6.5097127,-6.4879904,2.7920766,-0.67770517,-0.67544371,0.29067409,0
9.3490992,-2.6017311,-0.61344832,0.96147221,-0.26756504,-0.063087739,0
8.40413,-4.1791663,-2.0812352,0.87416774,-0.43470204,-0.2164827,0
8.9508753,3.1565938,1.2967755,0.93439311,0.32952079,0.13537201,0
-4.6229868,5.7104411,6.3613935,-0.47569129,0.58758706,0.65456808,0
1.2237225,-9.3104477,-2.3552084,0.12639971,-0.96168691,-0.2432722,0
-1.3766394,8.7571363,3.9560535,-0.1418139,0.9021126,0.40753114,0
8.3368731,-4.0146394,-2.5820644,0.86782259,-0.41790184,-0.26877868,0
5.8755798,-6.2336702,4.3177276,0.61249214,-0.64982086,0.45009589,0
2.3724492,-2.6043699,9.036706,0.24460408,-0.26851556,0.93170184,0
9.1158781,2.9731228,1.4241321,0.94039696,0.30670831,0.14691393,0
-2.166853,4.3765359,-8.2858438,-0.22529313,0.45503938,-0.86149991,0
4.3412857,-3.5103304,-7.8948803,0.44896913,-0.363033,-0.81647646,0
-1.5277344,2.5752056,-9.2514029,-0.15711138,0.26483274,-0.95140928,0
-6.3580451,2.58933,6.8019257,-0.65790093,0.26793182,0.70383161,0
-8.6459513,4.3920732,-0.24242362,-0.89128053,0.45276329,-0.024990594,0
3.470305,-1.1243792,-8.8715477,0.36178148,-0.11721724,-0.92486447,0
1.3435581,2.909307,-8.9985199,0.1406558,0.30457255,-0.9420464,0
4.7715397,-4.3379226,-7.2169509,0.4930141,-0.44821107,-0.74568355,0
8.5623007,-4.1364794,-1.23454,0.89293617,-0.43138078,-0.12874641,0
5.7667785,-5.6985698,-5.2645254,0.59656262,-0.58950657,-0.54460549,0
-4.6804485,8.4948673,-1.3565017,-0.47792169,0.86741287,-0.1385127,0
6.868609,-3.1607101,5.9387426,0.71440905,-0.32874778,0.61769301,0
-1.1067122,5.2668962,8.0163975,-0.11462051,0.54548448,0.83024621,0
-7.5728865,-4.240139,-4.409893,-0.77788538,-0.43554622,-0.45298332,0
8.2539244,-4.1073294,3.1852255,0.84619778,-0.42108613,0.32655144,0
-5.8073463,5.9671683,-4.7627764,-0.60540372,0.62206483,-0.49650946,0
-6.9641218,-3.7664866,-5.5089626,-0.72201347,-0.39049491,-0.57114816,0
-2.2334752,-2.3316727,9.1356497,-0.23050617,-0.24064066,0.94284618,0
-4.8136945,-0.30704796,8.2468853,-0.50384587,-0.032138485,0.86319548,0
-4.5854535,-7.2112236,-4.472096,-0.47541842,-0.74765748,-0.46366554,0
2.6980577,-2.3691564,8.8958397,0.28124857,-0.24696353,0.92731237,0
8.2744865,-0.33859146,4.8420095,0.86254913,-0.035295453,0.50474077,0
-4.0304089,-5.3580709,-6.9896946,-0.41612804,-0.55320525,-0.72166568,0
-6.4351234,6.9781098,2.1238151,-0.66157019,0.7173925,0.21834122,0
-8.8911867,-0.65504342,3.5444109,-0.92674303,-0.068276256,0.36943978,0
7.3135672,3.6050594,5.0628915,0.76200527,0.37561345,0.52750593,0
3.1575165,5.4813147,7.2750392,0.32752326,0.5685665,0.75462615,0
1.4489355,-7.9415712,5.3688974,0.14945184,-0.81914097,0.55378008,0
7.7431545,2.0378115,5.2712092,0.80774176,0.21257815,0.54987609,0
-8.951436,-3.3572605,0.56617016,-0.9346754,-0.35055256,0.059117366,0
0.016937196,-7.4030752,6.2232051,0.0017512839,-0.76546824,0.64347124,0
-2.6048961,8.4025593,3.9722965,-0.26987204,0.87052059,0.41153723,0
-1.4678597,-4.4418221,-8.4910746,-0.15141207,-0.45818102,-0.8758679,0
-1.1097031,1.9730277,-9.3927202,-0.11485648,0.20421229,-0.97216529,0
0.31880754,-9.2142906,-2.7334788,0.033152204,-0.95817697,-0.2842494,0
-9.0861282,2.1299257,2.3908165,-0.94314992,0.22108859,0.24816933,0
0.85459429,9.6352806,0.20689,0.088327259,0.99586195,0.021383278,0
0.31307665,-6.7320633,6.7867951,0.032733265,-0.70386088,0.70958328,0
-7.6644554,3.2558627,-5.0106764,-0.78863692,0.33501318,-0.51557535,0
6.5175114,6.9842658,-0.71664596,0.68034291,0.72906601,-0.074808463,0
-0.43728217,4.0660238,8.6470871,-0.045715243,0.42507851,0.90400136,0
9.5110817,0.24295734,-1.5727097,0.98628968,0.025194434,-0.16308843,0
-1.9801245,1.0613515,9.4283514,-0.20429818,0.10950432,0.97276461,0
-2.899765,2.3052831,-8.9407539,-0.29963022,0.2382029,-0.92384034,0
-0.0921124,-1.8500565,9.5360384,-0.0094821649,-0.19044712,0.98165166,0
2.1118455,6.2335587,-6.953557,0.22057214,0.65106535,-0.72626573,0
-4.0343132,-0.84040225,-8.7078285,-0.41877076,-0.087235637,-0.9038921,0
-5.4156866,-7.1903439,-3.598767,-0.55863941,-0.74169904,-0.37122035,0
4.8507285,2.1779282,8.1025305,0.50051695,0.22472708,0.83605051,0
-1.5579841,8.3897696,-4.4291229,-0.16205046,0.87264436,-0.46068597,0
6.3495383,-5.6257329,4.6527538,0.65625501,-0.58144629,0.48088425,0
2.3131769,-3.393651,-8.7153463,0.24009137,-0.35223693,-0.9045912,0
3.464489,0.4393788,8.9303875,0.36130092,0.045821466,0.93132269,0
-6.9565773,6.4928083,-0.7169382,-0.72898906,0.68039006,-0.075128913,0
-7.887332,-4.9591227,-2.6414394,-0.8144694,-0.51209378,-0.27276292,0
1.8348485,-1.9997863,-9.293231,0.18952261,-0.20655912,-0.95990342,0
-3.4874854,-8.2635546,-3.402128,-0.36354932,-0.8614257,-0.35465133,0
-2.0022089,-2.2039576,9.2619152,-0.20580247,-0.22653976,0.95201105,0
-6.24792,5.8438563,4.3489947,-0.65103376,0.60893029,0.45316559,0
6.1221795,7.3247714,1.4932091,0.633605,0.75806528,0.15453725,0
0.49346122,-9.4471769,1.7449452,0.051297262,-0.98207176,0.18139401,0
-8.2390862,1.0390089,-4.7939644,-0.85924482,0.10835704,-0.49995703,0
9.4511986,-1.942952,0.86692637,0.97558618,-0.20055839,0.08948721,0
0.65274256,-9.5435534,-1.501122,0.06741178,-0.98560739,-0.1550279,0
0.58312798,8.3430948,-4.6382275,0.06097436,0.87238973,-0.48499295,0
-6.7955441,-6.7995396,-1.5157391,-0.69827241,-0.69868296,-0.15574893,0
-8.3218699,4.0956893,2.6742122,-0.86210567,0.4242937,0.27703553,0
-1.8399084,9.0036564,-3.2668986,-0.18864782,0.92315477,-0.3349587,0
6.7124014,-6.9526167,1.1687634,0.68954498,-0.7142216,0.12006358,0
4.7817564,-5.2113657,-6.6045237,0.49413908,-0.53853422,-0.6825009,0
-6.0272045,3.3462949,-6.7515874,-0.6246267,0.34679177,-0.69969779,0
-9.1009884,0.72131598,3.1629739,-0.94194412,0.074655555,0.32736495,0
-0.020028716,-9.4972458,-1.520939,-0.002082359,-0.98741609,-0.15813002,0
-4.0757313,1.4768827,-8.6162462,-0.42255989,0.15311888,-0.89330715,0
-5.4406214,4.356925,6.82827,-0.55758464,0.44652152,0.69979846,0
-6.2892046,3.818887,-6.086174,-0.65863854,0.39993387,-0.63737607,0
-5.1996584,-6.1548138,5.361485,-0.53726578,-0.63595921,0.55398685,0
-6.5568056,1.0561466,-7.0882955,-0.67502344,0.10873035,-0.72974038,0
-0.49351013,-7.4264445,-5.9751587,-0.051706038,-0.77808338,-0.62602925,0
-1.876448,0.69268525,9.3335133,-0.19658065,0.072567165,0.97779852,0
0.18666233,3.6799617,-8.9014912,0.019375417,0.38197741,-0.92396849,0
-7.0738397,-5.4931765,3.6581509,-0.73118281,-0.56779861,0.37812239,0
0.79364008,-6.7392616,-6.8107505,0.082548298,-0.70096582,-0.70840156,0
2.0028594,-9.2846785,-2.0047283,0.20632073,-0.95644343,-0.20651326,0
8.728797,-0.78898162,-4.0707932,0.90326267,-0.081644431,-0.42124885,0
2.5466573,5.6012464,-7.3632216,0.26539713,0.58372778,-0.76735014,0
8.9987946,-3.38869,0.56207812,0.93425,-0.35181195,0.058354646,0
-8.7848139,1.9704137,-3.411056,-0.91246092,0.2046629,-0.35429952,0
5.8313208,-1.3671243,7.4955425,0.60777062,-0.14248882,0.78122455,0
6.7073445,6.8238444,-1.2390982,0.69518787,0.70726258,-0.12842728,0
-4.8586917,6.5464959,5.4491472,-0.49548393,0.66760433,0.55569792,0
6.0662007,-6.7054334,3.4934964,0.62579352,-0.69173717,0.36039153,0
-4.4711561,-8.5322151,-0.53381437,-0.46345076,-0.88439351,-0.0553317,0
-5.4011636,-7.685308,2.026252,-0.56206578,-0.79976261,0.21085955,0
-0.039443333,-0.027591417,-9.5507088,-0.0041298331,-0.0028889026,-0.9999873,0
-9.5465145,1.6339947,-0.59642154,-0.98380256,0.16838901,-0.061463378,0
0.69171333,-6.4383354,7.0721431,0.072137333,-0.67144054,0.73753899,0
6.777257,-5.7021847,-3.890563,0.70057786,-0.58944559,-0.40217483,0
0.6021117,8.7093639,-3.978883,0.062758431,0.90778178,-0.41472116,0
2.627548,7.9004502,-4.8122988,0.27322993,0.82154143,-0.50041485,0
0.071397714,8.8555288,4.0427637,0.0073341569,0.90966272,0.41528308,0
0.84157979,-4.4207025,8.5648069,0.086984448,-0.45691732,0.88524586,0
-7.6355286,-0.76293051,5.8163838,-0.79298902,-0.079234272,0.60406148,0
7.4379139,-2.3106792,5.5877151,0.77594393,-0.2410565,0.58292603,0
-1.1105822,8.6811399,-4.0864863,-0.11497982,0.89876813,-0.42307851,0
9.3227062,1.2180618,2.1768584,0.96601754,0.1262154,0.22556576,0
-1.0542252,4.8050804,-8.3190126,-0.10908013,0.49717915,-0.86076385,0
3.336935,5.4902377,-7.1525936,0.34707537,0.57104087,-0.74394292,0
-3.3049212,8.998929,-0.41505647,-0.34442055,0.93781847,-0.043254882,0
3.5371177,-5.2058854,-7.2333355,0.36890319,-0.54294705,-0.75439966,0
-2.5165374,6.0450592,-7.0378113,-0.26178947,0.62885326,-0.73212695,0
-8.1867695,4.1678605,3.0633943,-0.84539682,0.43038905,0.3163377,0
6.0858259,-7.5576406,0.37996382,0.62670714,-0.77827191,0.039127972,0
-8.95397,-3.8649251,-0.31667614,-0.91763705,-0.3960923,-0.032454181,0
-7.5503874,2.9935203,-5.2067504,-0.7826032,0.31028056,-0.53968352,0
-7.3728647,-4.6158333,-4.099092,-0.76672822,-0.48001555,-0.42627794,0
-3.1091313,9.1003828,-1.4369009,-0.31975114,0.93590701,-0.14777461,0
1.5536884,0.41228604,9.5026703,0.16120997,0.042778604,0.98599255,0
3.7352548,2.8979008,8.4106512,0.38714263,0.3003546,0.87172681,0
0.39727387,-5.5425692,7.9360886,0.041006349,-0.57210034,0.81915784,0
4.3926907,-1.090549,-8.4570484,0.45795298,-0.11369345,-0.88167614,0
-9.0530319,1.9520695,-2.5802236,-0.94166863,0.20304829,-0.26838696,0
-2.6530011,4.3624549,-8.1897717,-0.27489394,0.45202106,-0.84859312,0
5.353344,6.4449878,4.8590112,0.55272549,0.66543627,0.50168633,0
3.3139932,-8.1143446,-4.156929,0.34162119,-0.8364628,-0.42851475,0
8.2390604,-3.7596498,-3.0629404,0.86180246,-0.39325789,-0.32038236,0
0.74579847,6.4510717,7.034822,0.077898405,0.67381233,0.73478484,0
-7.2390661,4.551806,-4.4808455,-0.74984634,0.47149107,-0.46414074,0
8.0057421,-3.7369745,-3.9596183,0.82689363,-0.38598299,-0.40897936,0
2.6609519,-8.6754551,-3.1360426,0.277154,-0.90360039,-0.32663754,0
5.8927875,-7.6254048,1.4265202,0.60488433,-0.78273445,0.14642981,0
-0.0094657121,7.0039449,6.4789591,-0.00099210045,0.73408282,0.67905915,0
0.80190307,-9.7037773,-0.43988574,0.082273588,-0.99558741,-0.045131363,0
-6.0685821,-6.0277796,-4.2194266,-0.63628131,-0.63200325,-0.44240028,0
7.421731,-5.6214662,2.0479987,0.778534,-0.58968753,0.21483351,0
1.6564643,-7.9900308,-5.2077713,0.17111966,-0.82540345,-0.53798443,0
2.619164,-0.068229906,9.2123194,0.27346605,-0.0071238619,0.96185523,0
-0.98686361,9.4781246,-1.6831093,-0.10198181,0.97946292,-0.17393136,0
-9.2706881,1.5119827,-1.7300898,-0.97063315,0.15830331,-0.18113893,0
4.3040638,7.9822216,-3.1332893,0.44858751,0.83194047,-0.32656449,0
-5.0199218,1.0093945,-8.0990305,-0.52389634,0.10534389,-0.84524274,0
-7.0528002,4.5967231,-4.8963099,-0.72419035,0.47199726,-0.50275922,0
1.024094,6.1026025,7.3738489,0.10638585,0.63395602,0.76601678,0
1.2678667,8.1299,-5.0235257,0.1315151,0.84330994,-0.52108753,0
-2.5064435,6.0376468,7.0062385,-0.26156679,0.63007522,0.73115528,0
-8.025774,3.6535866,3.9255729,-0.83146608,0.3785097,0.40668735,0
6.5376668,4.8002872,5.3223457,0.67391038,0.49481922,0.54863364,0
-1.6477371,-7.7371511,5.4209304,-0.17182113,-0.8068071,0.56527853,0
6.3786073,-6.6162615,3.0852435,0.65797216,-0.68248689,0.31825194,0
-4.7738276,-2.257045,8.0529776,-0.49573198,-0.23437993,0.83625108,0
-1.4187303,9.1597147,-2.9615276,-0.14580148,0.94133466,-0.30435321,0
0.56494099,8.3804655,-4.7091646,0.058667637,0.87028933,-0.48903438,0
-4.8264775,2.5960555,7.980907,-0.49853158,0.26814911,0.82435566,0
2.3435192,1.6778915,-9.2657919,0.24150716,0.17291209,-0.95486951,0
-8.1756048,-3.3039625,-4.1042833,-0.84056276,-0.33969203,-0.42197582,0
2.8021874,9.313015,0.39033359,0.28789738,0.95682126,0.040102962,0
9.4898939,-0.76432806,-1.4813256,0.98492175,-0.079326846,-0.15374142,0
-2.2609847,-4.127183,-8.4202423,-0.234395,-0.42786273,-0.87292176,0
0.77568787,8.289794,-4.8094358,0.080672666,0.86215061,-0.50018829,0
-5.161087,0.94863135,-8.0200491,-0.53849649,0.098978117,-0.83679438,0
4.0504665,-8.1385317,3.1732483,0.42066684,-0.84523857,0.32956213,0
-7.2197642,-5.3248158,3.279084,-0.75587797,-0.5574851,0.34330586,0
4.0880809,-7.086113,-5.1653609,0.42253903,-0.73241192,-0.53388536,0
8.8392887,3.5106063,-1.9398012,0.91063696,0.36166799,-0.19984128,0
8.6741953,-3.4905422,2.7383494,0.89030939,-0.35826522,0.28106102,0
-9.2816811,-2.8007483,0.55821371,-0.95578092,-0.288407,0.057482045,0
2.9936173,-1.2400624,-9.1709309,0.30777839,-0.12749271,-0.94287747,0
6.7633867,4.6870079,4.9890022,0.70283765,0.48706451,0.51844716,0
7.6954966,-5.4330945,2.2283421,0.79497957,-0.5612632,0.2301978,0
-8.9149094,-1.4873084,-3.0325947,-0.93513095,-0.15601148,-0.31810454,0
-9.4999218,0.43575424,-1.6218693,-0.98473155,0.045168895,-0.16811779,0
-0.72507817,-2.1960266,-9.307888,-0.075600773,-0.22897021,-0.97049332,0
-4.26335,3.7929821,-7.6975169,-0.44493344,0.39584473,-0.80333132,0
5.7660437,1.7987392,7.4186554,0.60272872,0.18802351,0.77547741,0
1.5376905,4.5190163,-8.47365,0.15810631,0.4646481,-0.87126601,0
-1.9615951,-1.1112477,9.2937765,-0.20511663,-0.11619899,0.97181535,0
-0.69108176,3.0637119,9.1931763,-0.071136601,0.31536362,0.94630092,0
9.4758892,-0.32004404,2.3014891,0.97122604,-0.032802738,0.23588985,0
-3.5852098,3.6302445,-8.2912855,-0.36826566,0.37289155,-0.85166448,0
-4.8842425,5.5685339,-6.270267,-0.50328779,0.57379937,-0.64610815,0
7.1622019,6.2545547,1.714115,0.74127316,0.64733356,0.17740738,0
-0.067528971,5.1190591,-8.0411968,-0.0070840144,0.53700638,-0.84354836,0
-6.1180429,-0.35249493,-7.3822174,-0.63767046,-0.036739785,-0.7694326,0
-9.0176535,-3.4527795,-0.61017376,-0.93202513,-0.35686415,-0.063064888,0
-7.6175408,-5.758245,-1.4648285,-0.7885043,-0.59604549,-0.15162683,0
-0.84525126,-7.9123335,-5.4571433,-0.087601438,-0.82003051,-0.56557572,0
-3.5014918,-5.7757573,6.9711132,-0.36073664,-0.59503984,0.71818984,0
3.5029395,-8.0037479,-4.3951874,0.35817406,-0.81837982,-0.44940603,0
-3.3599238,9.0241251,-1.1772962,-0.34634721,0.93022358,-0.12135788,0
2.7807188,-5.6576986,-7.3961716,0.28613231,-0.58216977,-0.76105636,0
-1.4373868,9.6226025,0.047739375,-0.14773516,0.9890148,0.0049066716,0
7.1657414,-3.1814251,5.7005391,0.73922557,-0.32819924,0.58807373,0
-2.5994916,3.0850151,8.8447256,-0.2674014,0.31734565,0.90982872,0
-8.0667324,-4.7081528,-2.3722305,-0.83708286,-0.4885639,-0.2461658,0
-5.3517356,5.0230746,6.3720064,-0.55060047,0.51678699,0.6555686,0
1.2795647,8.9209976,-3.5181844,0.13225935,0.92209899,-0.36364928,0
-2.0872288,4.8293824,-7.9870644,-0.218235,0.50494719,-0.8351059,0
7.2120385,3.3816547,5.5537066,0.74270934,0.3482492,0.57193118,0
-7.1997266,-4.8882809,4.1319928,-0.74736196,-0.50742418,0.42891827,0
-1.3775052,8.6692057,3.8293762,-0.14383642,0.90522164,0.39985606,0
6.1545243,-1.8022646,7.3185658,0.63248122,-0.18521309,0.75210613,0
6.7616072,-1.0949236,6.7397709,0.70363694,-0.11394165,0.70136458,0
-1.1659223,4.0759511,8.5910511,-0.12170212,0.42545879,0.89675713,0
-9.64956,-0.70675766,-0.52091908,-0.99588615,-0.072941169,-0.053761635,0
7.3060117,3.741194,-5.127182,0.7549147,0.38656965,-0.52978086,0
-7.2618527,-5.6435299,3.0694799,-0.7489804,-0.58206815,0.31658316,0
-2.1187491,-5.2110515,7.939569,-0.21774507,-0.53554279,0.81595409,0
-9.4269638,-1.8015001,1.0088382,-0.97684383,-0.18667561,0.10453815,0
-9.3571024,-1.1166021,2.0898669,-0.96940219,-0.11568074,0.21651164,0
2.306879,8.5158119,4.0677505,0.23744769,0.87653482,0.41869465,0
-7.9857836,-2.3320823,-5.0377593,-0.8210963,-0.23978412,-0.51798117,0
-3.0647049,-8.7332935,-2.8031948,-0.3169091,-0.90307564,-0.28986737,0
-4.564672,-8.0478468,2.7586043,-0.47279084,-0.83356446,0.28572544,0
6.9685273,3.8134012,5.6453905,0.71505809,0.39130268,0.57928771,0
9.6606112,-0.46638757,-0.42352754,0.9978804,-0.048174903,-0.043747731,0
2.4664755,-9.2297888,0.086895421,0.25815994,-0.96605933,0.0090951305,0
5.2296944,-2.54389,-7.6475949,0.54432648,-0.26477775,-0.79599082,0
1.240157,1.8746381,-9.4744225,0.12736019,0.19251938,-0.97299314,0
-3.0762787,1.0521164,9.0787315,-0.31900588,0.10910302,0.94145197,0
4.1395798,-8.5880947,0.55637157,0.4334673,-0.89928412,0.058259267,0
-0.81099927,2.2910173,9.3879681,-0.083630212,0.23624961,0.96808684,0
-2.1174095,7.3854218,5.9181752,-0.21833293,0.76153469,0.61024219,0
2.474422,-5.3938451,7.5258236,0.25818077,-0.5627929,0.78524321,0
-8.6072712,4.0093474,1.2340391,-0.89892089,0.41872576,0.12887982,0
-9.2023163,-2.235311,1.2304209,-0.9636426,-0.23407595,0.12884648,0
-4.378993,-6.0091085,-6.0734572,-0.45611578,-0.62590855,-0.6326111,0
3.2347481,-8.7848854,-2.5172291,0.3336845,-0.90621585,-0.25966793,0
6.5813408,6.8652296,-1.1978353,0.68659925,0.71621603,-0.12496433,0
5.1072292,6.2847195,-5.3572369,0.52598357,0.64725101,-0.55173135,0
2.9985125,5.3431087,-7.4531636,0.31078172,0.55378807,-0.77248532,0
1.8726004,8.0849266,-4.8171496,0.19514979,0.84255654,-0.50201088,0
0.24181914,-7.6326547,-6.0477395,0.02482436,-0.78354329,-0.62084109,0
-2.7102201,4.1233463,-8.2950382,-0.28080291,0.42721537,-0.85943973,0
-4.9052353,-2.2971017,8.0956621,-0.50359064,-0.23582944,0.83113229,0
9.4939308,-0.67842758,-1.6017582,0.98362577,-0.070288993,-0.16595136,0
4.217351,7.7176657,-4.0676212,0.43523213,0.79646587,-0.41977996,0
-1.0059634,-6.6748233,6.7630296,-0.10527804,-0.69854659,0.70777774,0
1.4368776,-9.5400667,0.054960091,0.14893281,-0.98883092,0.0056966306,0
3.624532,4.8223886,7.5237308,0.37584808,0.50006056,0.78017789,0
0.64323783,6.7513542,-6.8992367,0.066488661,0.69785774,-0.71314365,0
-9.2417002,2.8904173,1.0206566,-0.94915169,0.29685494,0.10482464,0
3.1352606,-9.1373596,-0.97403216,0.32291412,-0.94109643,-0.10031981,0
6.5710702,5.4593964,-4.2897334,0.68737984,0.571091,-0.44873607,0
-7.2956181,-2.7025816,5.7419176,-0.75449646,-0.27949494,0.59381622,0
-5.4433074,1.3395908,-7.747448,-0.56921721,0.14008361,-0.81016564,0
-2.7129674,-9.0562048,-1.2834227,-0.28436157,-0.9492324,-0.13452284,0
-3.1778238,6.1470962,6.7511358,-0.32870743,0.63584274,0.69832337,0
-3.2237031,4.7578521,7.6727443,-0.33627632,0.49630904,0.80037218,0
-6.448082,1.5112743,6.9259539,-0.67287898,0.15770654,0.72274649,0
-7.1423464,-6.2929587,-1.7183005,-0.73837942,-0.65056926,-0.17763878,0
-4.2184172,-5.0018406,6.93328,-0.44249284,-0.52467042,0.72726965,0
-6.4769535,-1.059607,7.1713338,-0.66627097,-0.10899961,0.73770046,0
3.2383058,8.1830587,-4.0636582,0.33407256,0.8441869,-0.41921821,0
7.2496986,6.221693,0.64222533,0.75715101,0.64978719,0.067073353,0
3.013629,7.2057195,5.6574888,0.31247938,0.74715197,0.58661789,0
7.4181108,6.0917611,-1.3739752,0.76501501,0.62823117,-0.14169532,0
