4.2736692,-6.6778316,-5.3743315,0.44618905,-0.69719368,-0.56110281,0
-4.4385171,-4.5485992,-7.0901213,-0.46615463,-0.477716,-0.74463904,0
9.079484,2.5761127,1.5905917,0.94864875,0.26915914,0.16618927,0
4.8611908,0.50072664,-8.2730064,0.50592262,0.052112523,-0.86100322,0
-1.1281445,-6.1252604,-7.1429133,-0.11904078,-0.64633191,-0.75371373,0
-7.9809327,-5.0591769,1.7710373,-0.83014494,-0.52623546,0.18421626,0
-8.3132544,-3.0128601,-3.6217294,-0.87001175,-0.31530654,-0.37902689,0
-2.5883975,8.4972591,-3.7194452,-0.26878393,0.88237095,-0.38623399,0
-1.2032353,8.4731913,-4.139081,-0.1265689,0.89129913,-0.43539193,0
0.93147898,-9.3623867,-0.95497072,0.098496765,-0.99000067,-0.10098083,0
7.1289763,-6.0206056,2.1477747,0.74453127,-0.62877601,0.22430786,0
2.7649133,7.8432608,-4.7595205,0.28855315,0.818542,-0.49671528,0
-1.9946669,0.42191061,-9.4348412,-0.2066453,0.043709472,-0.97743911,0
5.1287031,3.2577918,7.3654656,0.53714186,0.34119666,0.77140361,0
0.32402825,-1.0992897,9.4633989,0.033991802,-0.11531968,0.99274671,0
4.5956254,-5.4700794,6.3761473,0.47991854,-0.57123727,0.66585743,0
5.9557481,7.0432153,-2.4952908,0.62329078,0.73709822,-0.2611413,0
8.6304893,3.040498,2.7601326,0.90299463,0.31812257,0.28878838,0
-1.6498574,6.5436125,-6.8637805,-0.17140289,0.67981273,-0.71307486,0
-4.6408334,-4.111557,-7.2211246,-0.48759961,-0.43199,-0.75870371,0
-9.41366,-1.0182687,0.01636116,-0.99419904,-0.10754178,0.0017279411,0
7.7153459,1.3195467,5.4453797,0.80914408,0.13838698,0.57108217,0
8.9777575,-0.52594447,-3.4152021,0.93325919,-0.054673176,-0.35501838,0
3.4714675,5.9050817,6.5777173,0.36554435,0.6218031,0.69263136,0
0.2895368,-5.0249639,-8.0335627,0.030541549,-0.53005409,-0.84741366,0
-6.7033901,5.0909657,-4.4512482,-0.70399553,0.53465742,-0.46747375,0
2.1748149,-8.8971176,-2.9177365,0.22624674,-0.92557019,-0.30353314,0
4.9498272,-7.6433301,2.8913343,0.51808333,-0.80000407,0.30262715,0
6.0751672,-7.148859,-1.6782424,0.63744503,-0.75010359,-0.17609183,0
-3.8734016,4.343524,7.4503412,-0.40971285,0.4594405,0.78806716,0
8.9966497,-2.4120827,-2.2466524,0.93895972,-0.25174356,-0.23447795,0
1.1724032,5.0596547,7.9148459,0.12384428,0.53446567,0.83606768,0
-4.0981145,-3.0708249,-7.997345,-0.43154302,-0.32336652,-0.842143,0
-2.7475405,-2.0602844,-9.0244627,-0.2845479,-0.2133725,-0.93461472,0
0.080486134,6.1336055,7.4407382,0.0083463741,0.63605195,0.77160102,0
-4.780602,7.3628855,3.7255218,-0.50129271,0.77207023,0.39065725,0
-6.3932786,-6.9847503,-0.86925054,-0.67235738,-0.73456025,-0.091415852,0
-6.2979054,-6.9335656,2.1312852,-0.65560395,-0.72177535,0.22186409,0
2.0216918,9.1266556,-2.067719,0.21116818,0.95329034,-0.21597578,0
-6.7337689,-0.077566169,6.7771506,-0.70480955,-0.0081186891,0.70935017,0
-0.93794256,-8.5237284,-4.088851,-0.098729491,-0.8972227,-0.43039966,0
-4.5049424,-6.4012713,5.4555163,-0.47215953,-0.67091233,0.57178849,0
8.6946249,-3.2461674,2.2243221,0.91103536,-0.34013811,0.23306768,0
3.4532919,0.95119423,-8.7265987,0.3660821,0.10083573,-0.92510331,0
3.6460211,2.4175439,-8.3719301,0.38598511,0.25593266,-0.88629222,0
2.1737859,-8.75072,3.1240153,0.2277997,-0.91702288,0.32737803,0
-6.4498138,0.76821035,6.9661493,-0.67717624,0.080655627,0.73138708,0
-0.41726795,-0.091958478,-9.4359798,-0.044175677,-0.0097355386,-0.99897635,0
-4.2969089,-5.1893134,-6.7582159,-0.45027545,-0.54379106,-0.70819718,0
-7.3438816,5.4747133,-2.6267028,-0.77067566,0.57452291,-0.27564931,0
-6.2972956,-1.0144534,-7.1274524,-0.65838152,-0.10606099,-0.74517435,0
6.5918436,-6.4874043,-2.4849222,0.68831921,-0.67741364,-0.25947514,0
-2.033411,-0.76536322,-9.3191605,-0.21249807,-0.079982944,-0.97388256,0
-4.9603624,5.877275,-5.7261457,-0.51733267,0.61296052,-0.59719878,0
7.8009896,-2.9104273,4.5767612,0.82105321,-0.30632213,0.48170355,0
-8.4174032,3.0713744,-3.6425664,-0.8702544,0.31754175,-0.37659588,0
-3.0347915,9.156209,-0.13326502,-0.31458521,0.94912875,-0.013814195,0
0.59613913,4.6566334,-8.2436028,0.062839769,0.49086151,-0.86896837,0
-0.76629871,5.7952514,7.6400595,-0.079657584,0.60242265,0.79419249,0
-5.4115696,3.4920936,7.010921,-0.5684346,0.36681163,0.73643142,0
-1.8393004,-1.2223035,-9.3525028,-0.19140038,-0.12719475,-0.97323555,0
0.71792483,2.6257532,9.1978579,0.074844532,0.27373794,0.95888782,0
-2.0044019,9.1355152,-1.9245512,-0.20991187,0.95672083,-0.20154947,0
8.2259102,-4.230927,-2.3014634,0.86295921,-0.44385573,-0.24144064,0
3.802336,8.5463734,-2.3663249,0.39407682,0.8857522,-0.2452476,0
-3.6231182,0.72355527,-8.7915888,-0.37992591,0.075873151,-0.92189991,0
-2.6528301,-2.5323319,8.7502193,-0.27960715,-0.26690668,0.92226928,0
7.0950274,6.4041705,-1.176578,0.73676193,0.66502196,-0.12217823,0
-5.0412836,-4.3106098,6.862071,-0.52822661,-0.45166647,0.71900904,0
6.5744014,6.7690706,-2.0301685,0.68113101,0.70129943,-0.21033257,0
-5.9497614,-7.3924608,-0.89867646,-0.62419933,-0.77555537,-0.094281636,0
-6.6389694,6.8252225,0.83272952,-0.69460708,0.71409392,0.087124944,0
-5.1083937,-5.7683535,-5.6419787,-0.53491318,-0.60401934,-0.59078628,0
-6.7863231,-0.1354174,-6.5988235,-0.71686828,-0.014304718,-0.6970619,0
1.1766552,-8.8875771,3.0454831,0.12427326,-0.93866765,0.32165083,0
9.3298368,-2.4753616,0.13244401,0.96646804,-0.25642014,0.013719737,0
-8.4923944,1.9413188,-3.8888879,-0.8901816,0.20349105,-0.40763727,0
-8.7250948,0.63141125,-3.9313638,-0.9097451,0.065835766,-0.40991405,0
-5.0642571,7.4301596,3.1601596,-0.531344,0.77957553,0.33156529,0
5.8754182,1.3739258,-7.468976,0.61191046,0.14309102,-0.77787566,0
0.97133404,-6.4420772,7.0825915,0.10093617,-0.66942835,0.73598742,0
4.0619164,1.8362519,8.4625769,0.42467159,0.19197933,0.88475871,0
-7.8348789,5.1008062,2.1019924,-0.81763428,0.53231126,0.21936026,0
3.4186924,1.9285898,-8.7368231,0.35692999,0.2013552,-0.9121716,0
3.6153002,-4.7114272,7.5815525,0.37539834,-0.48921579,0.78723818,0
8.7901192,-3.6151075,-0.70509809,0.92230475,-0.37931579,-0.073982537,0
3.9619439,6.0034232,-6.2265654,0.41645139,0.63103724,-0.65449232,0
-5.7915139,2.4357529,7.257143,-0.60334605,0.25375089,0.75603175,0
-2.6296918,8.0727892,-4.5931029,-0.2724202,0.83629221,-0.47581774,0
7.3540602,5.9150105,0.96432281,0.77518827,0.62349868,0.10164885,0
4.3718734,6.1900764,5.809525,0.45784199,0.64825231,0.60839927,0
-9.2637596,0.72268039,-2.0710149,-0.97309357,0.075912558,-0.21754573,0
-6.4197636,-7.1237111,0.28832844,-0.66914749,-0.7425217,0.030053172,0
3.0200005,7.1916742,5.4923925,0.31656995,0.75386345,0.57573718,0
-0.82736897,5.107697,7.9604664,-0.087143563,0.53797394,0.83844507,0
2.2575285,9.1771879,1.2991827,0.23664668,0.96200383,0.13618754,0
7.9026875,2.668833,-4.6981091,0.82549572,0.27877986,-0.49075317,0
2.9582253,1.8571968,-8.891386,0.30966926,0.19441275,-0.93075699,0
-2.4493947,-7.1108484,5.7981901,-0.25792718,-0.74878955,0.61056346,0
3.0060227,7.0782347,5.6455345,0.31510013,0.74196136,0.5917815,0
-6.5740709,3.3809133,-5.9958706,-0.69067162,0.35519859,-0.62992591,0
-1.1010318,-2.628623,9.1186743,-0.11524729,-0.27514344,0.95447057,0
1.9112201,-9.1393528,2.3514504,0.19849417,-0.94918859,0.24421531,0
9.2648134,0.98818809,2.2006927,0.96773273,0.1032187,0.2298678,0
-6.7473817,-2.0464332,6.4362836,-0.70677119,-0.21435872,0.6741845,0
-2.9076731,-2.7072845,8.7276516,-0.30321863,-0.28232166,0.91013902,0
0.83981586,9.17206,2.0551879,0.088992424,0.97193193,0.21778126,0
-7.7393103,3.8197143,-4.2982202,-0.80269378,0.39616722,-0.44579613,0
0.75658458,9.1954393,-2.1151218,0.079927824,0.97143334,-0.22344771,0
-6.5137501,3.3487847,-6.0725985,-0.68463552,0.35197803,-0.63826776,0
-8.8037558,3.0977833,-2.282331,-0.91630554,0.32242101,-0.23754776,0
-6.9690323,5.1764984,3.8392048,-0.73418039,0.54533875,0.40445626,0
-2.5460916,-3.6671004,8.3617315,-0.26860738,-0.38687152,0.88214535,0
-8.7398872,3.9970994,0.70867938,-0.90694427,0.41478184,0.073540159,0
1.3437322,3.9003966,-8.6553516,0.14014418,0.40679076,-0.90270752,0
-8.4314375,1.9566659,4.101851,-0.88026917,0.20428221,0.42824644,0
-3.5625877,-5.7035556,-6.780416,-0.37305787,-0.59725022,-0.7100141,0
7.7780089,-3.6893072,-4.0372825,0.81802177,-0.38800851,-0.42460546,0
-2.8914063,-5.7943821,7.1678987,-0.29932019,-0.59983808,0.74202538,0
-0.14375035,5.1334057,-8.0297337,-0.015081638,0.53857374,-0.84244335,0
0.054587808,8.510458,4.3432112,0.0057131248,0.89069903,0.45455769,0
3.1851339,6.2337718,6.3858323,0.33614653,0.65788776,0.67393565,0
3.0674055,-6.8053093,5.9556565,0.32121447,-0.71264261,0.62366813,0
-0.26601771,8.9249563,-3.3595746,-0.027884342,0.93552619,-0.35215521,0
-4.3515592,-6.9399452,4.9347959,-0.45504087,-0.72570741,0.51602972,0
0.46102831,2.1893733,-9.3195009,0.048102397,0.22843304,-0.97237051,0
9.2518139,-2.7038229,-0.14530413,0.95974088,-0.28048223,-0.015073187,0
-8.7923946,-3.3641644,-1.890697,-0.91568303,-0.35036054,-0.19690645,0
-2.4269249,-8.4311533,-3.6461203,-0.25543961,-0.88739884,-0.38376281,0
8.9333286,-1.4909846,-3.024821,0.93555826,-0.15614593,-0.31677958,0
-7.6806917,-2.8935571,4.8540106,-0.80547792,-0.30344874,0.50904244,0
-8.2538452,-1.6375729,4.6755996,-0.8574118,-0.17011154,0.4857026,0
8.9945297,-2.2256773,-2.1848676,0.94481164,-0.23379163,-0.22950487,0
-6.0129051,1.2506344,-7.3520865,-0.62766594,0.13054931,-0.76745838,0
1.6745083,7.314414,5.9574285,0.17477383,0.76342899,0.62179601,0
4.4403644,6.3591886,5.4920807,0.46722803,0.66913229,0.57789266,0
-0.35214919,8.0586367,5.1019549,-0.036895894,0.84433138,0.53454953,0
-9.1827393,-2.5206065,1.1940601,-0.95683682,-0.26264593,0.12442046,0
-7.9161496,-4.2730384,2.9512897,-0.83613545,-0.45133543,0.31172705,0
8.5208998,-2.3515656,-3.5759571,0.89361084,-0.24661534,-0.37502074,0
7.0785041,4.5096688,-4.3992167,0.74698925,0.47590196,-0.46424603,0
-5.8372784,7.1215754,2.6688895,-0.60886425,0.74282438,0.27838168,0
-2.7597158,-8.7026434,2.9274662,-0.28784218,-0.90769774,0.30533877,0
2.3030183,9.1530457,-0.93966794,0.24280651,0.96500278,-0.099068902,0
-7.1693254,-5.787951,-2.6323445,-0.74815005,-0.60399771,-0.27469653,0
9.3152037,1.8298076,0.38573739,0.98043907,0.19258998,0.040599436,0
5.0466523,-7.6888556,-2.4083495,0.53082281,-0.80873805,-0.2533178,0
-0.060957272,-8.4547796,4.4433193,-0.0063819946,-0.88518327,0.46519864,0
1.7847152,-5.1296401,7.9313183,0.18566199,-0.53363091,0.82508641,0
6.9129906,-0.38313419,-6.5798693,0.72376066,-0.040112518,-0.68888426,0
-6.8708425,-6.4091907,-1.5875243,-0.72102726,-0.67258149,-0.16659504,0
-7.4984484,5.6222196,1.9848272,-0.78272241,0.58687305,0.20718536,0
-0.3466385,-2.1406391,-9.304369,-0.03628305,-0.22406316,-0.97389901,0
8.6953993,2.5552714,-3.0981569,0.90785187,0.26678568,-0.32346618,0
8.8262901,2.6640968,-2.3369439,0.9279933,0.28010228,-0.24570553,0
-8.8056679,-2.1539879,2.6555078,-0.93218905,-0.22802632,0.28111842,0
-8.3544331,0.43934804,-4.5540218,-0.87709105,0.046124998,-0.47810447,0
5.4952183,4.4326668,6.3078246,0.58042628,0.46819547,0.6662569,0
-3.9217112,8.3361301,2.1880977,-0.41417083,0.8803764,0.23108439,0
-6.3693829,-3.0579884,6.3880668,-0.6686939,-0.32104492,0.67065543,0
-5.4893069,7.4839697,2.3627861,-0.57315695,0.78142637,0.24670641,0
6.9015665,-6.1397071,-2.0598218,0.72923118,-0.64873183,-0.21764424,0
-9.2847385,-1.5586798,1.9476029,-0.96575183,-0.16212603,0.20257986,0
6.3926663,6.4732394,2.826443,0.67102712,0.67948472,0.29668683,0
-2.8723962,4.8921285,-7.742249,-0.29926315,0.5096907,-0.80663306,0
-5.0760202,-7.3898292,-3.3969183,-0.52945745,-0.77080077,-0.35431769,0
-2.9810596,0.034598757,9.0578785,-0.31261492,0.0036282695,0.94987297,0
7.6165309,-0.42907527,5.7899985,0.79529059,-0.044802487,0.60457069,0
8.3974199,-4.2646761,-1.5062124,0.88042045,-0.44712639,-0.15791757,0
-6.8787456,-5.9376278,3.1236155,-0.71587783,-0.61793482,0.32507777,0
-7.5314941,-2.3693776,5.5373101,-0.78098309,-0.24569413,0.57419491,0
0.44486985,5.9559793,-7.5316658,0.046280991,0.61961633,-0.78353918,0
6.7840195,6.8088183,0.8093937,0.70332617,0.70589721,0.083913051,0
-8.84513,3.2221098,-1.1279516,-0.93292582,0.33984682,-0.11896887,0
8.377306,1.6906911,4.2303014,0.87850308,0.17729774,0.44361907,0
1.3971512,8.468915,4.2111154,0.14613397,0.88579977,0.44045842,0
-7.6534071,-2.6708999,4.9660335,-0.80508751,-0.28096089,0.5223937,0
7.0939918,0.7763254,6.4591622,0.73700809,0.080653898,0.67105448,0
-0.1960638,7.5621295,-5.955822,-0.020364173,0.78544086,-0.61860168,0
-3.3033397,7.5456538,4.7723699,-0.34700084,0.79263669,0.50131583,0
3.1479702,-9.0441265,-0.41208568,0.32842043,-0.94355273,-0.042991944,0
7.6600575,-5.4246006,1.8664277,0.80041778,-0.5668295,0.1950275,0
-0.42842311,-6.0300055,-7.4489522,-0.044658575,-0.62856424,-0.77647442,0
-0.44744223,-8.5928459,-4.0263205,-0.047099583,-0.90451783,-0.42382681,0
1.647923,-1.3356973,-9.2661705,0.17335838,-0.14051282,-0.9747836,0
-3.8824425,7.4357324,4.3150992,-0.41157612,0.78825891,0.45744187,0
1.4465879,4.0133519,8.4725695,0.15249726,0.42308193,0.89316636,0
-5.8593745,4.755053,5.804399,-0.61546886,0.49947089,0.60969418,0
3.0177741,-8.5810452,-2.7298529,0.31776011,-0.90355134,-0.2874431,0
6.0409212,2.4081089,7.033474,0.63062763,0.25138882,0.7342428,0
-4.2569909,2.9259052,-8.03617,-0.44561064,0.30627608,-0.84120518,0
-3.772979,5.6117544,6.5837483,-0.39977127,0.59460127,0.69759029,0
2.5341816,-5.4397717,7.4223628,0.26550177,-0.56991535,0.777628,0
-1.0720341,-2.6918051,9.1250725,-0.11197315,-0.28115702,0.95310694,0
-2.4189405,-1.6216683,-9.0639677,-0.2540817,-0.17033748,-0.95206487,0
-1.1232928,-2.2975478,9.2632637,-0.11689014,-0.23908342,0.96393764,0
-9.499301,-0.56281132,0.10589456,-0.99818766,-0.05914028,0.011127412,0
4.0198689,-1.5284644,8.5078239,0.4216781,-0.16033357,0.89245772,0
-9.117341,-0.54953992,-2.6647198,-0.95824206,-0.057757221,-0.28006485,0
-7.1359887,5.5850239,-3.0437374,-0.74650127,0.58425367,-0.31840771,0
0.88255161,-5.4236403,-7.7220182,0.093120024,-0.57226062,-0.81476772,0
-7.583703,-5.8978,0.70466757,-0.78726935,-0.61225462,0.073152021,0
7.4121571,5.2741508,3.0149393,0.77341586,0.55032724,0.31459153,0
5.1925383,5.1366644,6.0338998,0.54808593,0.54218829,0.63689381,0
-8.9848604,-2.0724561,2.8031087,-0.93228728,-0.21504223,0.29085621,0
-7.8998432,4.819263,2.4072018,-0.82619053,0.50401372,0.25175276,0
6.1463799,5.6724267,-4.6726222,0.6415447,0.59207457,-0.48771733,0
-2.2839978,-4.4339991,8.1480227,-0.2390772,-0.46412832,0.85289329,0
-6.486064,-6.8364735,1.1936513,-0.68281472,-0.71970379,0.1256606,0
-1.5592781,9.381485,0.47664487,-0.16375323,0.98523057,0.050056584,0
-5.9990234,2.8903995,6.8800836,-0.62653798,0.3018733,0.71855593,0
2.9037344,3.9592392,8.1271601,0.30581221,0.41697466,0.85592705,0
-7.251163,3.6903107,4.8529749,-0.76540726,0.3895362,0.51226294,0
-4.2305245,6.2407207,5.9561982,-0.44029704,0.64951068,0.61989862,0
0.72495753,4.160265,8.4984884,0.076392762,0.43838999,0.89553249,0
2.0016413,7.9649053,4.787066,0.21056813,0.83789003,0.5035885,0
3.4958105,-1.0694318,-8.8365116,0.36556113,-0.11183178,-0.92404473,0
-7.4935045,-3.6167071,-4.9095364,-0.77563727,-0.37435794,-0.50817603,0
2.7826273,9.0103035,0.98192865,0.29348958,0.95033574,0.10356609,0
-2.3932137,-9.1250439,1.2013768,-0.25165638,-0.95953631,0.12632976,0
-4.5417666,-2.4787114,-7.9926968,-0.47701198,-0.26033372,-0.83945578,0
-2.6506312,-9.164526,-0.08769948,-0.27782795,-0.96058685,-0.0091922889,0
-8.4388447,3.5301948,-2.6031988,-0.88730198,0.3711822,-0.27371323,0
-6.8152099,6.6741185,0.78871644,-0.71203381,0.69729298,0.082402863,0
9.515727,-0.046748143,-1.5012745,0.98777062,-0.0048526446,-0.15583831,0
-4.3218355,-2.6522467,-8.1558876,-0.45001745,-0.27616906,-0.84924376,0
-2.4276476,-5.6473637,7.233108,-0.25574872,-0.5949406,0.76199621,0
7.071466,1.2015995,-6.245769,0.74350405,0.12633789,-0.65668911,0
5.1877146,1.459748,-7.8117499,0.54663068,0.15381397,-0.82312584,0
-4.5775166,-8.3215008,-0.68016416,-0.48074338,-0.87394691,-0.07143271,0
-5.1716065,7.9927592,1.048522,-0.53997278,0.83453226,0.10947727,0
-5.2275233,7.4400501,2.9273665,-0.54723972,0.77885658,0.30644935,0
-8.0633888,-4.8565993,2.0821579,-0.83640349,-0.50376791,0.21597919,0
6.6671877,6.3609304,-2.5426905,0.69746369,0.66542566,-0.26599434,0
-8.9568672,3.1051064,1.3394719,-0.93554145,0.3243272,0.13990735,0
0.32896629,-7.4964256,5.8128214,0.034658089,-0.78978246,0.61240709,0
-2.1522017,8.8425026,-2.6632504,-0.22696951,0.93252349,-0.28086433,0
-3.7406862,-2.8786149,8.2229118,-0.3945322,-0.30360907,0.86727494,0
1.4392463,-2.2547901,9.2117462,0.15004221,-0.23506308,0.96032953,0
-3.6110303,5.6747193,6.7689853,-0.37841174,0.5946725,0.70934421,0
-2.3240752,-3.7243271,8.47997,-0.24338624,-0.39002609,0.88805562,0
8.8549099,2.9056394,1.9868777,0.92926931,0.30492932,0.2085108,0
4.958559,-6.7628303,-4.6261563,0.51774126,-0.70613182,-0.4830339,0
1.5381587,-5.7030187,7.3914099,0.16256727,-0.60274941,0.78119469,0
-5.2692037,7.9310784,0.30257437,-0.55309838,0.83251029,0.031760659,0
7.6109467,-5.226263,2.5344849,0.79494923,-0.54587346,0.26472223,0
6.3156466,2.5361319,-6.7756767,0.65763313,0.26408133,-0.70553499,0
-8.6448383,-2.0840025,3.2452848,-0.91323614,-0.22015291,0.34283015,0
8.5411663,-4.0664444,1.0839322,0.89702296,-0.42707211,0.11383832,0
1.3185333,9.4773741,0.099806458,0.13778965,0.99040663,0.010429996,0
4.2289391,-1.6561456,-8.3527117,0.44479546,-0.1741917,-0.87852967,0
8.1092567,4.7992263,-1.4543293,0.85051256,0.50335097,-0.15253252,0
4.9569197,-3.8889561,7.065062,0.52364063,-0.41082275,0.74634123,0
3.9829021,8.5522537,-1.693398,0.41553506,0.89225423,-0.17667174,0
-6.586689,-6.4539523,-2.4855227,-0.68965536,-0.67575723,-0.26024517,0
0.74540764,-9.3363466,-2.158397,0.077553414,-0.97136855,-0.22456309,0
6.6420021,-6.9043841,-0.46279165,0.69247323,-0.71982837,-0.048249133,0
-9.3717089,-2.0845101,-0.85295022,-0.97231525,-0.21626802,-0.088493623,0
9.4103861,0.82720417,1.6547449,0.98121887,0.086252399,0.17253987,0
-8.5483236,-3.2044468,-3.0460303,-0.88823342,-0.33296549,-0.31650487,0
-7.8354959,5.4363198,1.1660041,-0.81554228,0.56582874,0.12136126,0
-7.1789527,2.6976128,5.674233,-0.75251162,0.28276893,0.59478396,0
8.0966167,3.5982258,-3.6703026,0.84425199,0.37519491,-0.38271052,0
-2.6375201,-8.3440189,-4.0533128,-0.2734856,-0.86519492,-0.42028975,0
-9.0680847,-2.2656612,1.6391487,-0.95559365,-0.23875509,0.17273328,0
-7.0440035,5.3877716,3.6210339,-0.73535609,0.56245434,0.37801647,0
6.1501718,6.9957395,1.7638878,0.64873105,0.73792303,0.18605801,0
8.5382395,2.8620174,-3.3883002,0.88741249,0.29746062,-0.35215923,0
7.5835824,5.2645082,2.4699736,0.79355294,0.55088294,0.25846028,0
9.0857849,0.42376566,-2.6726959,0.95839494,0.04470003,-0.28192371,0
-0.86420989,5.3744788,-7.7882586,-0.090949886,0.56561285,-0.81964028,0
8.7788401,-2.8800888,1.9041458,0.93061417,-0.30530816,0.20185186,0
-6.7165265,0.76446921,6.6923218,-0.70609069,0.080366626,0.70354611,0
1.8946801,8.9585333,2.7828133,0.19797657,0.93608397,0.29077828,0
-1.7789711,-8.8376884,-3.0788341,-0.18674488,-0.92772335,-0.32319608,0
7.824028,3.8973305,4.0094862,0.81358916,0.40526769,0.41693032,0
2.3050916,7.0623426,-6.0975528,0.23984025,0.73482287,-0.6344384,0
9.4794178,-0.4968442,-1.4730569,0.9868179,-0.051722031,-0.15334685,0
-7.5127177,-5.665235,-1.855974,-0.78333819,-0.59070432,-0.19351922,0
2.0474761,8.3381481,-4.0162816,0.21600614,0.87966412,-0.42371264,0
2.2790861,-1.6107346,-9.1881762,0.23733878,-0.16773818,-0.95683551,0
9.5189781,1.094641,0.16696759,0.99330211,0.11422541,0.017423009,0
2.9853978,-1.4546118,-9.005249,0.31104138,-0.15155248,-0.9382351,0
-4.8506217,2.8255711,-7.7602596,-0.50644493,0.29501292,-0.81023508,0
8.5510635,-3.650033,-2.080277,0.89752507,-0.38310981,-0.21834721,0
3.1771166,8.9364948,-0.40382633,0.33467802,0.94137192,-0.042539135,0
-7.3808398,-3.4044101,5.0606027,-0.77086216,-0.35555995,0.52853435,0
-5.4131756,-6.7523136,3.8772552,-0.57082301,-0.71203601,0.40885919,0
-9.3373127,-0.61509341,-2.1118193,-0.97335768,-0.064119719,-0.22014423,0
-1.1606084,-9.0222092,2.6285989,-0.12257279,-0.95284277,0.27760845,0
9.3206606,1.6984662,-1.3693037,0.97368211,0.17743014,-0.14304422,0
5.1824403,7.7687445,2.2585988,0.53939193,0.80857623,0.2350765,0
-5.4326186,-0.42397004,7.7849321,-0.57170177,-0.044616498,0.81924754,0
2.2004864,6.7136636,6.5092511,0.22906108,0.69886327,0.67758483,0
-9.351758,1.0558844,-1.0915098,-0.98706967,0.11144765,-0.11520788,0
-0.03728468,-2.7152643,9.2004385,-0.0038867292,-0.28305185,0.95909667,0
3.037077,-4.483882,-7.8235955,0.31918401,-0.47123712,-0.82222694,0
4.764338,-5.5565038,6.1192856,0.49938533,-0.58241808,0.64140737,0
0.23852086,9.4606695,0.75876743,0.025123207,0.99648458,0.079920352,0
8.8535194,3.0958662,-1.7059329,0.92871666,0.32475021,-0.17894897,0
0.072103932,-9.0951118,3.199966,0.0074781952,-0.94329143,0.33188161,0
-8.1846781,-2.0175571,-4.7233315,-0.84703124,-0.20879672,-0.48881695,0
-2.8381758,-7.6404195,-5.0106559,-0.29664618,-0.79857683,-0.52371389,0
6.3447952,-7.0823464,-0.32405028,0.6668725,-0.74439311,-0.034059446,0
-7.5426941,3.5916893,4.580936,-0.79165787,0.37697262,0.4808009,0
-2.8477626,-9.0649614,0.94840407,-0.29822734,-0.94931346,0.099320084,0
-3.4494026,7.533072,-4.5590892,-0.36475414,0.79657829,-0.482097,0
0.71795881,-7.5130115,5.7291522,0.075770482,-0.79289299,0.60463166,0
-0.22107162,6.0261378,-7.3236022,-0.023303207,0.63521647,-0.77198249,0
-0.84354818,5.4034085,-7.8392301,-0.088252552,0.56530809,-0.82014531,0
-7.1451964,5.0475173,-3.6579359,-0.75353938,0.53231609,-0.38576949,0
7.9501286,5.2373343,0.38976929,0.83438098,0.54966813,0.040907022,0
6.2891221,1.1435753,-7.1619763,0.65513563,0.11912583,-0.74606049,0
-6.9154387,5.3598943,3.6535492,-0.72935587,0.56529605,0.38533166,0
-8.1350775,-4.8817024,0.18516114,-0.85729921,-0.51444864,0.019512843,0
-9.2397718,2.3927114,-1.0490071,-0.96227336,0.24918823,-0.10924853,0
1.1286715,1.5159347,9.4004679,0.11771005,0.15809803,0.9803822,0
-5.8390331,5.1714725,5.5616574,-0.6095221,0.53983712,0.58056754,0
5.2050657,-1.4752896,7.9520392,0.54118496,-0.1533899,0.82679528,0
7.5872512,-2.7086453,-4.9787221,0.80114377,-0.28600797,-0.52570713,0
-8.0183811,-0.0084134517,5.1001282,-0.84377921,-0.00088535273,0.53668964,0
5.844151,4.0816445,6.2538548,0.61628574,0.43042338,0.65949041,0
-8.9284477,1.7609491,-3.1197391,-0.9280805,0.18304442,-0.32428584,0
8.6885281,-0.090405844,4.0664644,0.90567029,-0.0094236778,0.42387801,0
-5.4343743,-2.5271542,7.4267197,-0.56944233,-0.26480851,0.7782107,0
7.1894789,6.1773138,-1.6417136,0.74735254,0.64213711,-0.17065756,0
9.4173403,-1.216063,1.0333629,0.98594439,-0.12731519,0.10818748,0
3.1916952,-8.2101164,-3.7301073,0.33365309,-0.85826826,-0.38993755,0
-2.7467563,-0.43689302,9.1918974,-0.28601724,-0.045493275,0.9571439,0
3.0863788,5.2356558,-7.4168525,0.32186905,0.54601061,-0.77348095,0
-2.9348202,2.7627265,-8.5930176,-0.30920988,0.29107827,-0.90535223,0
3.0519791,8.8620815,-1.3829387,0.32213023,0.9353748,-0.1459664,0
0.35252029,6.2006631,7.3877044,0.036525074,0.64245856,0.76544946,0
4.5510058,3.0395806,-7.7651238,0.47905898,0.31995967,-0.81739122,0
-5.4097362,7.3505445,-2.6232219,-0.56967622,0.77405447,-0.27624029,0
0.05845822,-3.7029419,-8.806304,0.0061191437,-0.38760731,-0.92180431,0
6.6673059,-4.6351895,4.9389391,0.70150667,-0.48769569,0.51965499,0
1.8497385,3.6679251,-8.6059122,0.1939725,0.38463631,-0.90245748,0
9.4108257,1.3565955,1.5058751,0.97758442,0.14092138,0.15642837,0
-0.80755383,0.57844788,-9.4304609,-0.085161343,0.061000761,-0.99449807,0
-2.7315373,-9.0809317,-1.7515393,-0.28325865,-0.94168669,-0.18163349,0
9.4261856,-0.36208293,0.76031113,0.99603301,-0.038260072,0.080339499,0
7.1053405,-6.2458663,1.1069239,0.74598247,-0.65574718,0.11621482,0
-9.4749327,-0.17553663,0.14188968,-0.99971634,-0.018521171,0.014971022,0
-1.8743858,4.7021093,8.1277971,-0.19575445,0.49107224,0.8488394,0
-8.0221825,4.2167387,2.8195715,-0.84520727,0.4442704,0.2970666,0
-2.5375557,-5.5363302,-7.263792,-0.26770085,-0.58405823,-0.76629776,0
-4.9283028,5.3750777,-6.1508436,-0.51659101,0.5634225,-0.64473927,0
-1.7207108,1.8329363,-9.1531267,-0.18127793,0.19310096,-0.96428746,0
-0.67531943,7.2550035,6.0907001,-0.071110785,0.76394808,0.64134753,0
6.2938671,-3.7550185,-6.0350623,0.6629352,-0.39551738,-0.63567519,0
6.907115,3.0079744,5.8885145,0.72235477,0.31457773,0.61582822,0
4.6570773,-7.5151739,3.5151641,0.48948002,-0.78987902,0.36945975,0
-5.1592197,7.9846139,-0.87001073,-0.54045165,0.83642447,-0.091137566,0
1.5378692,-5.8669848,7.3819551,0.16096522,-0.61408377,0.77265221,0
0.71138304,5.5418239,7.8222585,0.074003853,0.57650566,0.81373501,0
-1.5229768,0.29011133,9.407196,-0.15974005,0.030428829,0.98668998,0
-8.9268875,-0.61446422,3.1503544,-0.94102043,-0.064773232,0.33209199,0
-4.9021978,7.7183914,2.7415428,-0.5135482,0.80856913,0.28720063,0
-2.4274054,-9.1131353,0.5186879,-0.2570006,-0.96484965,0.054915879,0
9.0194626,0.38984439,-3.3179505,0.93774086,0.040531572,-0.34496266,0
6.4739156,6.8139167,-1.21223,0.68312997,0.71900702,-0.12791497,0
7.6294341,-0.65244853,5.8832536,0.79008853,-0.067566231,0.60925764,0
-8.1898375,4.9486728,0.56104028,-0.85441834,0.51627845,0.058531452,0
2.7278216,-7.93715,4.7079062,0.28346646,-0.82480317,0.48923051,0
8.3578339,-3.4021339,3.0213511,0.87828201,-0.35751286,0.31749836,0
3.3573978,6.5559249,6.1105828,0.35081261,0.68502492,0.63849139,0
1.1166258,-7.6986303,-5.5839972,0.1166086,-0.80396366,-0.5831337,0
-1.0815145,4.7358103,8.1103611,-0.11439921,0.50093919,0.85788858,0
1.371202,9.2043352,-1.7866077,0.14470473,0.97134548,-0.18854304,0
5.819973,-7.3543267,-1.7641664,0.6098628,-0.77064449,-0.1848633,0
-0.2307076,-7.5571833,-5.9825754,-0.023928994,-0.78383112,-0.62051278,0
-4.6168418,6.8520169,-4.6836343,-0.48611319,0.72145766,-0.49314588,0
-6.8490963,-2.4237144,6.0546398,-0.72420192,-0.25627595,0.64019859,0
0.32577983,6.4412346,6.9991498,0.034229383,0.67677456,0.73539418,0
-1.0211227,-9.3634682,-1.6969417,-0.10669344,-0.97835511,-0.17730734,0
-8.7118092,0.19530021,-3.8480017,-0.91454875,0.020502236,-0.40395573,0
-8.4867973,1.936029,-3.8243828,-0.89260638,0.20362356,-0.40223283,0
-4.6859016,-3.2251654,7.6025686,-0.49350327,-0.33966348,0.80067676,0
1.0136398,-7.527771,5.7243619,0.10657316,-0.79146296,0.60185421,0
-6.2629986,-2.0521338,6.8565392,-0.65853906,-0.21577688,0.7209484,0
1.9332178,1.05214,-9.2760468,0.20277958,0.11036134,-0.97298545,0
3.3911152,-7.1782165,-5.3729434,0.35375017,-0.74880832,-0.5604881,0
9.4212408,-0.66060001,1.788462,0.98013163,-0.06872502,0.18606129,0
-4.2083464,-6.0341773,-5.9993525,-0.44331872,-0.63565671,-0.63198817,0
-0.023414368,3.7839,8.8829918,-0.0024250122,0.39189628,0.92000616,0
2.6948001,-2.1276059,-8.8675699,0.28339255,-0.22374484,-0.93253785,0
-7.7469826,5.4986358,1.2689314,-0.80828995,0.57370621,0.13239534,0
-2.0196526,-7.9252028,4.7898359,-0.213091,-0.83617812,0.50536954,0
-0.79988223,4.4147768,8.4356623,-0.083716936,0.4620575,0.88288975,0
-7.8924408,0.95337415,-5.4345202,-0.81958288,0.099002212,-0.5643425,0
-3.7082527,-3.3470638,-8.1749916,-0.38706574,-0.34936503,-0.85330194,0
8.2972746,0.089163736,4.7190304,0.86920846,0.009340642,0.49435765,0
-9.3594913,-2.1051333,-0.82365078,-0.97205043,-0.21863322,-0.085542053,0
-8.9932404,0.86089444,-2.7810502,-0.95139271,0.091073811,-0.29420662,0
-3.7203333,-6.3619308,-6.0313616,-0.39065778,-0.66804171,-0.63332987,0
-4.3450723,-2.2640347,8.1791058,-0.4557296,-0.23746157,0.85785931,0
-3.5630496,4.7230854,7.5933924,-0.37014332,0.49065232,0.78883088,0
0.63990706,-4.7019176,8.2243843,0.06739299,-0.49519113,0.86616623,0
-9.0325966,0.23510846,3.1955197,-0.94245929,0.024531169,0.33341986,0
1.5901995,9.4135151,-1.1187288,0.16543539,0.97932905,-0.11638623,0
2.3678944,-5.300477,-7.7132587,0.24528044,-0.54905462,-0.79898477,0
8.7083626,-2.2476153,-3.4633682,0.90358728,-0.23321451,-0.3593621,0
7.2989039,3.0034506,5.3254066,0.76658899,0.31544629,0.55931658,0
-2.4644237,4.5743403,-8.0046186,-0.25823981,0.47933185,-0.83878076,0
-3.0446177,8.957324,1.9317342,-0.31531408,0.92766017,0.20005895,0
2.1270208,8.9790611,2.752522,0.22088964,0.93246925,0.28584749,0
-9.0160027,2.5843754,2.108773,-0.93787426,0.26883525,0.21936151,0
1.6267862,-9.3120928,-1.8572712,0.16886158,-0.96660197,-0.1927861,0
1.2588201,9.1835051,-2.2573524,0.13194785,0.96260279,-0.23661268,0
-6.8493629,3.6391182,-5.50772,-0.72002113,0.38255265,-0.5789845,0
8.7739611,0.019585932,3.5158594,0.9282456,0.0020721033,0.3719621,0
7.4059587,-0.36332354,-5.8934145,0.78190625,-0.038358968,-0.62221485,0
1.1390446,8.8740721,-3.4626117,0.11873022,0.92500377,-0.36093113,0
1.388624,7.5646052,5.7116065,0.14495221,0.78963512,0.59620893,0
-1.4199338,-7.4868498,-5.8431549,-0.14786838,-0.77966195,-0.60849166,0
-3.283273,7.3143001,5.1608429,-0.34434485,0.76711309,0.54126161,0
-6.2560167,-5.6778555,-4.6240849,-0.64956456,-0.58953387,-0.48012048,0
3.4994688,8.850832,1.0475408,0.36547929,0.92436773,0.1094036,0
2.1940117,5.4186883,7.5024657,0.23067671,0.56971675,0.78880352,0
-9.6038742,0.59743369,-0.3895345,-0.99725395,0.062036745,-0.040448762,0
-9.0554314,-2.9423769,-0.11504848,-0.95098436,-0.30900288,-0.012082174,0
-2.0156853,-7.3098469,5.8547292,-0.21040751,-0.76303911,0.61114651,0
-6.6789212,5.7515507,3.6099443,-0.70122075,0.60385597,0.37900847,0
-6.0089908,-1.4780577,7.2084174,-0.63251162,-0.15558165,0.75876433,0
3.7224984,8.5222836,2.4432154,0.38713986,0.88631755,0.25409442,0
-3.1743419,7.7130828,-4.574852,-0.3336843,0.8107931,-0.48090479,0
-4.8317614,-5.2763352,6.2934036,-0.50708449,-0.55374175,0.66048121,0
9.1463804,-2.5251,0.61202973,0.96194065,-0.26556912,0.064368226,0
-6.8657131,-3.1848896,5.8997645,-0.71545506,-0.33188763,0.61479646,0
-8.2965336,2.661036,3.8927672,-0.86939204,0.27884939,0.40792227,0
4.0222964,1.3926561,8.4217892,0.42625508,0.14758404,0.89248276,0
4.3392186,2.7392273,-8.0127392,0.4560374,0.28788364,-0.84211212,0
-1.149248,-9.4805498,-0.51315796,-0.12016735,-0.99130261,-0.053656679,0
4.7936215,-0.41214344,8.220067,0.50328803,-0.04327143,0.86303461,0
-6.8982911,-1.410383,6.3484602,-0.72763485,-0.14876783,0.66963845,0
-1.9306912,8.9207726,-2.4824274,-0.20411439,0.94311196,-0.26244441,0
-1.6350085,0.21267596,-9.3147135,-0.1728428,0.022482762,-0.98469281,0
-1.312465,-7.9652786,-4.9578414,-0.13853972,-0.84079009,-0.52333432,0
-4.1532001,8.2253876,2.4709246,-0.43534607,0.8622002,0.25900686,0
-7.161849,6.3075514,-0.44872546,-0.74961901,0.66020107,-0.046967357,0
-4.8457375,-0.33961421,8.2706757,-0.50520146,-0.035407115,0.86227477,0
-3.6177289,-8.3871078,2.4552522,-0.38249171,-0.88674396,0.25958651,0
-1.6331795,1.7514185,-9.1992235,-0.17180853,0.18424712,-0.96774727,0
-2.7859294,6.2560558,-6.6667151,-0.29149315,0.65457416,-0.69754165,0
-4.5415664,-7.1019883,4.2976923,-0.47996673,-0.75055999,0.45419335,0
-2.0894406,-5.9211612,-7.1909671,-0.21886949,-0.62024331,-0.75325584,0
-8.8065453,2.7336233,2.5834134,-0.91963667,0.28546271,0.26977679,0
4.9124403,5.5719604,6.1352429,0.50988996,0.5783453,0.63681155,0
-9.0186615,2.4416487,-1.6830428,-0.94996172,0.25718594,-0.17727977,0
8.9836416,-2.6702747,-1.1853871,0.95097566,-0.28266558,-0.12548077,0
2.4483249,-6.8240657,6.1547432,0.25744325,-0.71755576,0.64717597,0
-2.3907025,9.1469202,-1.6885879,-0.24893303,0.95242739,-0.17582501,0
-0.51188582,9.1948891,2.1872456,-0.054080207,0.97143048,0.23108023,0
3.3313646,7.1459031,5.4630704,0.34730542,0.74498326,0.56954259,0
7.3319893,-1.9836,-5.5967135,0.7771197,-0.21024236,-0.59319735,0
5.765274,-7.4107785,-2.1432455,0.59863132,-0.7694906,-0.22254169,0
-1.4746782,2.9251301,9.0326777,-0.15347886,0.30443636,0.94008654,0
-3.5673332,5.2708044,7.1604671,-0.37236661,0.55017895,0.74742639,0
6.1512046,7.3367925,-0.08096417,0.64245224,0.76627898,-0.0084561668,0
7.4554381,-5.3004417,-2.7935052,0.77948099,-0.5541718,-0.29206657,0
8.9134655,3.032212,-0.91964823,0.94223565,0.32053283,-0.09721531,0
-1.5404682,-3.7469547,-8.7083349,-0.16038905,-0.39012197,-0.90668637,0
-4.0559883,-8.4131298,1.6985127,-0.42726168,-0.88624716,0.17892295,0
-2.4877002,-8.0029297,-4.5361419,-0.26105148,-0.83980238,-0.47600853,0
-1.8205062,-9.1987438,1.979223,-0.18995741,-0.95982617,0.20651841,0
9.0912933,-0.50862294,-2.7451205,0.95594078,-0.053481214,-0.28864679,0
8.8417797,3.2461879,1.7310629,0.92326862,0.3389706,0.18075955,0
-1.2127255,-8.9577789,2.9686437,-0.12746102,-0.94148892,0.31201318,0
3.5559652,-8.5738811,-1.9832755,0.37464496,-0.90331632,-0.20895149,0
8.4069242,4.4256096,1.3360536,0.87625659,0.46128279,0.13925733,0
9.0541391,-2.0848401,2.3312399,0.94519973,-0.21764524,0.24336797,0
2.6809874,-9.0336752,-1.2596179,0.28200364,-0.95022053,-0.13249478,0
5.5711551,-3.873647,-6.7312813,0.5828861,-0.40528309,-0.70426512,0
-1.8242854,-3.0692208,8.870265,-0.19078712,-0.32098475,0.92766863,0
0.68238568,8.5072317,4.3210077,0.071333945,0.88931292,0.45170134,0
-6.2638865,2.152617,6.821414,-0.65880293,0.22640103,0.71744078,0
2.7963755,4.8708072,-7.6462436,0.29474828,0.51340103,-0.80594224,0
3.7762575,8.2643814,2.9135671,0.39575282,0.86610943,0.30534261,0
-6.6054573,3.7921224,-5.7086935,-0.6939615,0.39839587,-0.59974855,0
1.5856246,-9.321125,0.52644217,0.16744238,-0.98431325,0.055592433,0
1.1383543,-6.2024484,-7.2976365,0.11802807,-0.64308888,-0.75664133,0
-4.7312617,-1.1725793,-8.1762781,-0.49703363,-0.12318307,-0.85894322,0
-3.9432366,-4.3080683,-7.6029382,-0.41130483,-0.44935912,-0.79303515,0
6.6561866,-6.8162298,-0.31202742,0.69828314,-0.71507287,-0.032733981,0
-1.7577012,9.1311407,2.4719379,-0.18268034,0.94901216,0.25691196,0
8.8011723,-2.7004566,-2.4906743,0.9228338,-0.28315237,-0.26115593,0
4.8790202,-3.7874539,-7.37817,0.50705785,-0.39361554,-0.76678491,0
-0.26448017,6.1644721,7.3249536,-0.027615177,0.64365119,0.76482058,0
-2.0303841,0.99230522,-9.3595781,-0.21087137,0.10305871,-0.97206587,0
-1.3441174,-9.3562355,0.020106841,-0.14219986,-0.98983574,0.0021271878,0
5.3627715,-7.0237923,3.6229925,0.56149584,-0.73540896,0.37933654,0
3.0757101,-8.1097002,-3.7314966,0.32574785,-0.85889673,-0.39520207,0
-5.5941238,-7.5522308,0.83075088,-0.59290743,-0.8004424,0.088049248,0
-9.0892897,-1.1589105,2.4893019,-0.95727193,-0.12205492,0.26216999,0
-5.2604904,7.0199265,-3.5769975,-0.55528527,0.74100733,-0.37757963,0
-0.79749173,-0.432787,9.475811,-0.083777592,-0.045464862,0.9954468,0
-2.9338076,8.8331814,1.9624546,-0.30842304,0.92860782,0.2063074,0
1.5027536,4.4077034,8.3333521,0.15741822,0.46172094,0.87294513,0
1.3932018,8.3619852,-4.3450642,0.14625359,0.8778128,-0.45613006,0
4.3790603,-6.3446455,5.4764705,0.46308181,-0.67094076,0.57913196,0
8.417819,-1.3991041,-4.3306117,0.8796699,-0.14620768,-0.45255294,0
2.5297465,-8.1871252,4.2662377,0.2642771,-0.85529113,0.44568455,0
-2.2816033,-9.3219252,-0.45290488,-0.23747495,-0.97024918,-0.047139466,0
8.4392729,-3.4424584,2.9615881,0.88060743,-0.35920802,0.30903095,0
1.3623099,6.4486995,7.0203543,0.14147277,0.66968268,0.72904772,0
-3.7495329,-1.0516994,8.6383018,-0.3957077,-0.11099131,0.91164494,0
-3.8056033,-2.4061213,-8.3774815,-0.40013731,-0.25298983,-0.88084406,0
-7.7839203,1.3427856,5.3185916,-0.81741554,0.1410104,0.55852312,0
-4.4388776,3.0052824,7.8935995,-0.46520767,0.3149626,0.82727289,0
7.2682118,-0.94910109,6.0172062,0.76641589,-0.10008048,0.63450027,0
-6.3687129,-5.5389662,-4.234199,-0.67444181,-0.58657229,-0.44839844,0
-3.7707984,-8.2961521,-3.1805336,-0.39067587,-0.85952789,-0.32952112,0
-9.0901585,2.4026716,1.776557,-0.94998914,0.25109705,0.18566342,0
5.4524512,-1.1550237,7.7204828,0.57261401,-0.12130008,0.81080174,0
6.7331161,-5.0571151,-4.3835378,0.70924169,-0.53269792,-0.46174574,0
-5.5190678,-4.6517301,-6.2329473,-0.57871979,-0.48777229,-0.65357596,0
-0.78040361,-8.2672815,-4.7867141,-0.081420422,-0.86253512,-0.49940345,0
-2.2874472,-7.4895234,5.4846582,-0.23925538,-0.7833662,0.57366747,0
-4.7305398,-0.050674383,8.1923285,-0.5000481,-0.0053566038,0.8659811,0
3.3897336,2.9517546,8.5343485,0.35142672,0.30601975,0.88478881,0
1.1552956,-4.3779826,-8.4590664,0.12041044,-0.45629433,-0.88164443,0
8.8032522,-3.5611479,1.5878648,0.91432899,-0.36987022,0.16491982,0
-0.69545418,3.1986823,-9.0463047,-0.072290011,0.33249176,-0.94033152,0
4.0357118,-6.107348,-6.2703857,0.41869909,-0.63362825,-0.65054315,0
-8.4800005,2.1608098,3.6949902,-0.89271837,0.22747576,0.38898414,0
-6.3686328,1.1597596,-7.1691189,-0.65933108,0.12006746,-0.74220371,0
-7.904705,2.2846699,-5.0734019,-0.81773227,0.23634636,-0.52483737,0
-2.1276717,-8.8060875,3.2029934,-0.22142436,-0.91643941,0.33333185,0
4.6553249,-8.4713221,-0.027294258,0.48160684,-0.87638283,-0.0028236699,0
7.6559463,3.8913505,-4.3207874,0.79634887,0.40476677,-0.4494355,0
3.4436033,5.9553275,-6.7326112,0.35775429,0.61869609,-0.69944769,0
0.89629817,8.6371555,-4.0771503,0.09343186,0.90035385,-0.42501006,0
8.8378468,3.6946142,-0.75190324,0.91979569,0.38451561,-0.078254059,0
6.8616271,-4.999032,4.5549545,0.71220773,-0.51887828,0.47278491,0
3.4339342,3.5961869,-8.2012482,0.3580417,0.37495911,-0.85510927,0
-3.0891817,-0.77421939,-8.9033165,-0.32669821,-0.081878021,-0.94157541,0
2.3781455,-6.2498827,-6.6992364,0.25124255,-0.66027772,-0.70775032,0
7.4057374,3.0731277,5.1406088,0.77755111,0.32265714,0.53972828,0
-0.46445239,-0.070492662,9.5039558,-0.048809785,-0.0074081472,0.99878061,0
-2.1710689,-8.4332581,3.95575,-0.22699033,-0.88171685,0.41358292,0
-5.6619301,-7.6860361,-0.95401025,-0.59015995,-0.80113858,-0.099439345,0
3.3225975,8.3133001,2.9580832,0.35239092,0.8816992,0.31373096,0
5.7315722,-7.7083812,0.20859735,0.59654194,-0.80228823,0.021710809,0
-8.3536091,4.0155864,-2.6242957,-0.8671869,0.41685742,-0.27242774,0
-7.3697867,-3.3818009,-5.1001935,-0.76934785,-0.35303345,-0.53242016,0
-1.3703532,9.3581038,1.6116799,-0.14283079,0.97538751,0.16798408,0
3.4852741,-6.5080895,5.9389162,0.36784416,-0.68687934,0.62680739,0
-8.0557823,-3.3761156,-4.0748262,-0.83580416,-0.350279,-0.42277169,0
-0.068906076,8.9525938,3.219177,-0.0072425748,0.94098854,0.33836102,0
8.1933184,-3.8354969,3.3131902,0.85043675,-0.39811069,0.34389713,0
-4.7661037,8.0519609,-2.2816448,-0.49487227,0.83604813,-0.23690687,0
4.3242941,2.7327282,-7.9740658,0.45644727,0.28845087,-0.8416959,0
6.7769046,1.9456476,-6.4339581,0.70999223,0.2038386,-0.67406297,0
5.9465613,7.4713364,-0.18548672,0.62262756,0.78227729,-0.019421164,0
-3.5963538,7.0991621,-5.0493383,-0.38158232,0.75323921,-0.53574771,0
-5.5098362,5.4766183,5.6080518,-0.57505965,0.57159269,0.58531034,0
-6.2726493,2.9080913,-6.7175746,-0.65069211,0.30167031,-0.69684637,0
1.8411442,-8.1335592,-4.6474876,0.19285211,-0.85195613,-0.48680478,0
4.8145022,7.1629891,-4.2987881,0.49932808,0.74289745,-0.44584164,0
-4.4758625,6.2208662,5.8221912,-0.46505025,0.64635932,0.60493624,0
-1.6691562,6.1136036,-7.1969419,-0.1740611,0.63753206,-0.75050354,0
1.1384193,6.1029158,-7.3265743,0.11854658,0.63551259,-0.76293534,0
8.9453545,-1.2245402,-2.841042,0.94507629,-0.12937261,-0.30015597,0
8.8489628,-3.6560578,0.8448258,0.92064565,-0.38037607,0.087895632,0
-3.7128847,-6.9682102,-5.3872614,-0.38843986,-0.72901016,-0.56361216,0
4.8709126,8.1039524,-1.7869511,0.50619888,0.84218544,-0.18570496,0
-0.47439596,-9.4217176,-0.86829674,-0.050075952,-0.99453098,-0.091655046,0
0.47294065,-1.8184305,-9.2961111,0.049866717,-0.19173475,-0.98017907,0
3.7900136,-7.7818723,-3.9674246,0.39804086,-0.81728023,-0.41667321,0
7.1492062,-2.0495656,5.9188676,0.7521528,-0.21563044,0.62271148,0
-4.31147,4.7391729,-7.0281153,-0.45335463,0.49832794,-0.73901212,0
-4.2861834,7.4644413,4.1872973,-0.4477846,0.77982241,0.43745381,0
-7.1210632,-4.9401503,-4.1762266,-0.74019086,-0.51349837,-0.43409315,0
8.7058649,3.2242436,2.2085989,0.91229314,0.33787054,0.23144048,0
-6.1337523,-0.11572617,-7.3471761,-0.64082205,-0.012090459,-0.76759416,0
-1.6538292,7.2561469,-6.0106502,-0.17288014,0.75850862,-0.62831283,0
-5.1823702,4.0209951,-6.8825622,-0.54507488,0.422923,-0.72389889,0
5.7905717,-4.403276,6.114964,0.60932344,-0.46334273,0.64345819,0
-0.22790314,-9.3567772,2.1695127,-0.023720872,-0.97388262,0.22580968,0
6.3563399,-4.3612008,-5.6115494,0.66664559,-0.45739773,-0.58853287,0
-8.3060827,2.9532714,3.8649848,-0.86292166,0.30681634,0.40153453,0
0.013502682,5.8541698,7.5736542,0.001410578,0.6115647,0.79119319,0
4.7158704,-1.8465849,8.0265236,0.49689105,-0.19456674,0.84572041,0
6.8234501,6.4902358,-1.5169147,0.71535611,0.6804226,-0.15903014,0
-0.81641984,-3.872097,-8.657608,-0.085766219,-0.40677002,-0.90949565,0
4.6393933,-6.9902592,4.6664424,0.48326129,-0.72813869,0.48607886,0
-4.1298881,-0.80705905,8.6858826,-0.4279002,-0.083619878,0.89994955,0
4.329751,-7.2706218,-4.6513867,0.44838625,-0.75294095,-0.48169464,0
-4.5219936,-7.110054,-4.4640794,-0.47421798,-0.74562591,-0.46814457,0
2.8712115,-8.6130009,-2.724066,0.30290788,-0.90865678,-0.28738427,0
-8.0546703,-3.4223728,3.8220124,-0.84344119,-0.35837224,0.4002203,0
-0.090361916,-6.949914,-6.5427308,-0.0094664292,-0.72808182,-0.6854248,0
-2.6049242,-6.9891114,-5.9794154,-0.27249187,-0.73110616,-0.62548542,0
5.057569,6.9579659,-4.0104799,0.53288889,0.73312354,-0.42256275,0
-0.58512825,8.3687592,-4.5645204,-0.061266333,0.87625778,-0.47793183,0
2.4540806,2.8267581,-8.806922,0.25644869,0.29539308,-0.92031354,0
-6.4759355,5.9508419,-3.799927,-0.67593592,0.62112844,-0.39662334,0
-2.3256054,9.2953854,-0.99488932,-0.24141061,0.96491206,-0.10327497,0
-4.3284349,-8.2566223,2.3849194,-0.44981828,-0.85804218,0.24784486,0
4.3613443,-8.2618666,-1.7483224,0.45886928,-0.86925417,-0.18394591,0
-4.2070951,-7.7053585,3.7934196,-0.43990755,-0.80569738,0.39665231,0
-2.7065449,0.59454739,-9.093997,-0.28469503,0.062539026,-0.95657593,0
1.1360763,-4.8434448,8.2149763,0.11829286,-0.50431907,0.8553766,0
5.7459564,1.8476598,-7.3708382,0.60313869,0.19394423,-0.77369845,0
-5.1803908,7.2527347,-3.7376668,-0.53600484,0.75042617,-0.38672903,0
4.5252585,7.6916504,3.6707726,0.46896005,0.79709846,0.38040826,0
0.47194457,-3.0719604,8.9844427,0.049642671,-0.32313183,0.94505107,0
5.4147906,-5.4953971,5.5809121,0.56866908,-0.57713449,0.58611536,0
8.7192144,2.2381151,3.1581101,0.91398424,0.23460852,0.33104622,0
-1.9392596,9.4166393,-0.17036384,-0.20167512,0.97929215,-0.017717147,0
6.376689,1.3350785,6.9248581,0.67067975,0.14041929,0.72833443,0
6.6538854,1.4981689,-6.656363,0.69818503,0.15720125,-0.69844496,0
7.8071966,3.9583747,4.1093502,0.80736732,0.40934828,0.42496112,0
-7.5230937,2.6660523,5.2796435,-0.78613573,0.27859271,0.55170339,0
-5.3202367,3.2066143,7.2004499,-0.55945557,0.33719522,0.75717157,0
6.0476956,5.8355007,-4.6735849,0.62891114,0.6068446,-0.48601481,0
-5.0178242,-8.0239573,-0.01990618,-0.53021437,-0.84786099,-0.0021034102,0
-8.2508669,-2.2362914,-4.2736611,-0.86330527,-0.23398779,-0.447162,0
-5.4468741,-1.4922806,7.6853094,-0.57111526,-0.1564685,0.80581951,0
5.1631961,0.18553521,-7.981153,0.54306781,0.019514695,-0.83946204,0
-3.2670567,8.8215132,1.8090349,-0.3410494,0.92088139,0.1888459,0
7.5590587,-4.7636352,3.4008241,0.79068094,-0.49827838,0.35572773,0
4.0722852,6.6268368,-5.5228348,0.42689109,0.69468057,-0.57894987,0
4.8339815,-2.3976531,-7.9890556,0.50141925,-0.24870376,-0.8286888,0
-0.23821037,-9.3012638,-2.1753054,-0.02492987,-0.97342241,-0.22765626,0
-7.8650956,-3.2434185,4.3435307,-0.82337499,-0.33954448,0.45471215,0
1.6000841,-1.8843898,9.1819515,0.16827203,-0.19817089,0.96561527,0
-3.5067296,7.9445257,3.886096,-0.36858994,0.83504367,0.40846488,0
4.3531094,7.2838583,-4.6826463,0.44915307,0.75154722,-0.48315462,0
6.8950629,-4.1130247,-5.0961947,0.7250731,-0.43251869,-0.53590715,0
-4.8447008,5.5533671,-6.1949763,-0.50321484,0.57682341,-0.64346677,0
-6.3345294,2.5090053,6.6229997,-0.66666144,0.26405388,0.69702077,0
-2.7782049,-1.5947646,-8.9763384,-0.29149723,-0.16732728,-0.94182318,0
-3.8881702,5.660172,6.6911035,-0.4055323,0.59035033,0.69787544,0
0.85238212,9.4211235,0.6053524,0.089923643,0.99389905,0.063862786,0
1.9327042,-4.2345548,-8.2309818,0.20438927,-0.44781688,-0.87045103,0
-4.117878,1.9373863,8.3781071,-0.43190101,0.20320153,0.87873244,0
0.81944269,9.5300512,1.234857,0.084963918,0.98812342,0.12803616,0
3.9478655,3.2156396,7.917222,0.41939664,0.34160954,0.84107637,0
-3.5934942,8.6436872,-2.0037134,-0.37537998,0.90292817,-0.20930989,0
2.2520442,-8.6189957,3.6696811,0.23374569,-0.89458865,0.38088602,0
4.1244841,5.5644655,6.4142833,0.43690568,0.58944261,0.67946362,0
-1.0717958,7.6395144,-5.5730639,-0.11262114,0.80273765,-0.58560115,0
-7.405652,3.2195656,-5.1691322,-0.77238977,0.33579212,-0.53912669,0
-4.217834,-4.9999223,6.88907,-0.44398588,-0.52631158,0.72517073,0
-2.8772426,-7.9606509,4.5620031,-0.29922232,-0.82787752,0.47443104,0
-7.0234666,1.0504133,-6.3728204,-0.73607624,0.11008584,-0.66788691,0
5.2105699,4.9464607,6.3286347,0.54421896,0.51663405,0.66099542,0
5.8127933,4.8849502,-5.7806129,0.60912281,0.51189411,-0.60575062,0
-1.3392992,-6.7587199,6.7264528,-0.13908902,-0.70190716,0.69855613,0
2.0629168,-8.7988396,2.7920067,0.21809301,-0.93021953,0.29517293,0
7.1574311,6.1474533,1.4009432,0.7503742,0.64448965,0.14687274,0
-4.7086816,-4.3530636,7.1236281,-0.49126941,-0.45416683,0.7432273,0
-1.3129156,6.8863869,-6.5812669,-0.13654061,0.71617055,-0.68443871,0
1.3086556,-7.2641406,5.9735079,0.13781957,-0.76501471,0.62909317,0
-1.794541,6.0386739,-7.2346969,-0.1870666,0.62948364,-0.75415951,0
-2.1635292,5.4794097,7.546803,-0.22598268,0.57232958,0.78827077,0
-2.1459002,-4.4440618,8.1711473,-0.22480054,-0.4655517,0.85599428,0
-6.6707873,-1.9348633,-6.4462986,-0.70395368,-0.20418192,-0.68026388,0
-7.8063622,1.0804635,-5.5685725,-0.80897903,0.11196923,-0.57707524,0
-7.0449672,5.8284526,2.7232189,-0.73843879,0.61092627,0.28544214,0
-5.710741,2.2175937,7.4053431,-0.59419423,0.23073736,0.77051502,0
9.2859592,2.4869432,0.19296673,0.96576309,0.25864834,0.020069025,0
-1.5208911,-9.2127686,1.9253362,-0.15952465,-0.96631753,0.20194648,0
-1.1791122,9.2248335,-1.5849783,-0.12498564,0.97783029,-0.16800736,0
0.015322017,-1.1636119,9.4787197,0.0016044186,-0.12184561,0.99254775,0
2.4303355,2.9973469,-8.7256813,0.254729,0.31415877,-0.91455853,0
-0.029560154,5.4153018,7.8482223,-0.0031000925,0.56792456,0.8230747,0
-8.0215435,0.28411761,-5.3266077,-0.83269733,0.029493572,-0.55294245,0
-6.2441111,3.1398015,6.4874043,-0.65479928,0.32926059,0.68031263,0
-7.7821932,-3.4054923,-4.2659369,-0.81868798,-0.35825834,-0.44877726,0
5.7916322,1.7475399,7.322475,0.60976189,0.18398669,0.77093405,0
-6.9838276,1.8111365,-6.3193746,-0.72815967,0.18883578,-0.65888131,0
-8.7525864,0.082680978,4.0249357,-0.90850645,0.008582172,0.41778278,0
-1.1975207,-0.30221248,9.4469118,-0.12569354,-0.031720668,0.99156183,0
-2.3627801,-7.6991997,-5.2194228,-0.24619937,-0.80224907,-0.54385877,0
6.921351,-5.5976586,-3.4268568,0.72562557,-0.58685136,-0.35926726,0
4.9792857,-0.44528526,-8.1898699,0.51894164,-0.046407674,-0.853549,0
-4.693974,3.1911647,7.7223644,-0.48977515,0.33297014,0.80576122,0
1.8886701,-5.0492039,7.7650666,0.19979744,-0.53414196,0.82144594,0
-7.960269,-0.010858351,5.1436677,-0.83991086,-0.0011456959,0.54272318,0
3.3363061,-7.3470507,-5.2242074,0.34707567,-0.76431316,-0.5434739,0
-3.0377183,-3.6778984,8.2849178,-0.31775132,-0.38471544,0.86661875,0
-9.0126419,2.2023976,-2.0193295,-0.94919378,0.23195219,-0.21267183,0
3.327975,6.7385073,5.7150059,0.35247925,0.71370244,0.60529929,0
-3.222688,-8.9458208,1.3694775,-0.33546215,-0.93120533,0.14255425,0
-8.3810825,-0.3574293,-4.6153221,-0.8753525,-0.037331291,-0.48204198,0
2.5467453,-3.4376025,8.5984287,0.26517665,-0.35793605,0.89530063,0
2.2655046,1.1046395,9.1715899,0.23818299,0.11613587,0.9642517,0
-3.3707671,-2.5815182,8.4833622,-0.35532242,-0.27212539,0.89425606,0
-1.3436549,-8.1419048,-4.9726048,-0.13946342,-0.84508157,-0.51612693,0
7.9929361,2.2687371,4.7926826,0.83330309,0.23652706,0.49966085,0
7.2833195,3.311739,-5.1098795,0.7671957,0.3488453,-0.53825426,0
-3.5987391,-4.2684798,-7.7772703,-0.37589633,-0.44585225,-0.81235325,0
-2.4220698,6.8490863,6.121244,-0.25496033,0.7209723,0.64435565,0
3.4433975,-8.9432468,-0.093058512,0.35929731,-0.93317264,-0.0097100819,0
3.3217907,4.7493968,7.5463848,0.34910369,0.499138,0.79308754,0
6.3001189,2.9004097,6.5904965,0.65848643,0.30314988,0.68883657,0
-6.6584954,2.0028076,-6.4664721,-0.70123595,0.21092464,-0.68101311,0
-4.5624824,-7.1964145,4.2998033,-0.47803408,-0.7540043,0.45051187,0
6.7971139,-0.024297316,-6.6973519,0.71231246,-0.0025462692,-0.70185781,0
7.6265421,5.5978475,0.92842275,0.80229616,0.58888179,0.097668119,0
6.3553934,5.3352265,-4.7330341,0.66528642,0.55849475,-0.49545687,0
2.4454312,-2.8527358,-8.7649794,0.25643101,-0.2991415,-0.91910684,0
