-0.89192152,2.2312045,0.29505265,0.51882863,0.64449084,0.56164807,0
2.3866675,-2.3804607,0.1380198,0.75840348,-0.65019441,0.045514226,0
1.7048385,-1.5187317,0.82964873,-0.39451393,-0.40234166,0.82612348,0
1.3630288,-1.9815361,-0.75297701,-0.51882863,-0.64449084,-0.56164807,0
-1.4348457,2.3277283,-0.29009044,0.39451393,0.40234166,-0.82612348,0
1.4030772,-1.0715568,0.7861017,-0.39451393,-0.40234166,0.82612348,0
-0.26745462,1.4524182,0.69746172,0.51882863,0.64449084,0.56164807,0
-1.2821857,0.68691266,0.23838019,-0.39451393,-0.40234166,0.82612348,0
-0.96289074,1.9196982,-0.21014488,0.39451393,0.40234166,-0.82612348,0
-2.589973,2.6517551,0.3493526,-0.75840348,0.65019441,-0.045514226,0
-2.6723967,2.0679901,-0.31263256,-0.75840348,0.65019441,-0.045514226,0
-0.71626234,1.7366499,0.24677157,0.51882863,0.64449084,0.56164807,0
2.2583566,-3.0189984,-0.2397604,0.75840348,-0.65019441,0.045514226,0
-1.6262746,2.3332512,0.45524693,0.51882863,0.64449084,0.56164807,0
-3.009654,1.4362085,-0.30604553,-0.51882863,-0.64449084,-0.56164807,0
-2.5802965,2.1189556,0.60837841,-0.75840348,0.65019441,-0.045514226,0
0.048770785,-1.2096725,-0.42719567,-0.51882863,-0.64449084,-0.56164807,0
-1.1670674,2.6292229,-0.015022755,0.51882863,0.64449084,0.56164807,0
-2.4568374,2.3924739,0.066893816,-0.75840348,0.65019441,-0.045514226,0
1.6663917,-2.2305377,0.14881039,-0.39451393,-0.40234166,0.82612348,0
0.23657978,-1.0471617,-0.85669732,-0.51882863,-0.64449084,-0.56164807,0
2.3523345,-2.5173891,0.5776825,0.75840348,-0.65019441,0.045514226,0
2.8161054,-1.8841068,0.67910504,0.75840348,-0.65019441,0.045514226,0
0.82648396,-0.45867658,-0.66216922,0.39451393,0.40234166,-0.82612348,0
2.9769561,-1.7884729,0.67879438,0.75840348,-0.65019441,0.045514226,0
-1.4861881,0.1515348,-0.7759335,-0.51882863,-0.64449084,-0.56164807,0
-1.6485243,0.44833156,-0.77237546,-0.51882863,-0.64449084,-0.56164807,0
-2.5171196,2.1495872,-0.030018568,-0.75840348,0.65019441,-0.045514226,0
1.5038717,0.15265572,0.55587637,0.51882863,0.64449084,0.56164807,0
1.3929071,-0.16395485,0.8443464,0.51882863,0.64449084,0.56164807,0
-0.59885585,-0.9222272,-0.49668133,-0.51882863,-0.64449084,-0.56164807,0
0.74416125,-0.68404973,0.47799629,-0.39451393,-0.40234166,0.82612348,0
-2.9934058,1.9355371,-0.31154156,-0.75840348,0.65019441,-0.045514226,0
-2.0498242,0.45300597,-0.36611271,-0.51882863,-0.64449084,-0.56164807,0
3.0351887,-1.7467659,0.75445867,0.75840348,-0.65019441,0.045514226,0
0.25834954,-0.48618355,-0.91393739,0.39451393,0.40234166,-0.82612348,0
2.7583709,-2.2324121,-0.10405946,0.75840348,-0.65019441,0.045514226,0
-3.0809846,1.9994751,-0.26200986,-0.75840348,0.65019441,-0.045514226,0
-0.64340985,0.34154058,0.30954856,-0.39451393,-0.40234166,0.82612348,0
2.4431877,-2.8699644,-0.5141263,0.75840348,-0.65019441,0.045514226,0
2.8829005,-1.4799711,0.23306489,0.39451393,0.40234166,-0.82612348,0
0.23309422,1.3616282,0.32662463,0.51882863,0.64449084,0.56164807,0
-2.720999,2.3681531,-0.43417573,-0.75840348,0.65019441,-0.045514226,0
2.6227007,-2.2502367,0.071303606,0.75840348,-0.65019441,0.045514226,0
-1.7058096,0.27475351,-0.12757564,-0.39451393,-0.40234166,0.82612348,0
2.356143,-2.4320285,-0.67398953,0.75840348,-0.65019441,0.045514226,0
-2.7880123,1.9207121,-1.1927884,0.39451393,0.40234166,-0.82612348,0
2.1516037,-1.5296451,-0.30006886,0.39451393,0.40234166,-0.82612348,0
-1.5084126,1.2012949,0.26078725,-0.39451393,-0.40234166,0.82612348,0
-0.56916857,-0.97864145,-0.36298269,-0.51882863,-0.64449084,-0.56164807,0
2.0013061,-2.8052545,-0.52230263,-0.51882863,-0.64449084,-0.56164807,0
-1.1565449,-0.33032036,-0.29098469,-0.39451393,-0.40234166,0.82612348,0
2.4062495,-0.75902158,0.77437377,0.51882863,0.64449084,0.56164807,0
1.1751404,-2.0382431,-0.81572354,-0.51882863,-0.64449084,-0.56164807,0
-2.3844755,2.5196507,-0.1095953,-0.75840348,0.65019441,-0.045514226,0
2.2261987,-2.8761497,-0.087997198,0.75840348,-0.65019441,0.045514226,0
-0.24802184,-1.0284011,-0.20929754,-0.51882863,-0.64449084,-0.56164807,0
-2.747582,1.0366462,-0.38219738,-0.51882863,-0.64449084,-0.56164807,0
1.8595238,-2.112885,-0.91851497,0.39451393,0.40234166,-0.82612348,0
-2.067435,1.6958749,0.37168527,-0.39451393,-0.40234166,0.82612348,0
-1.559361,0.34724104,-1.0356914,-0.51882863,-0.64449084,-0.56164807,0
-1.5772766,1.9311733,0.84177446,-0.39451393,-0.40234166,0.82612348,0
-0.26259553,-0.61829376,-0.96556044,-0.51882863,-0.64449084,-0.56164807,0
-2.204247,2.7630265,-0.053346395,-0.75840348,0.65019441,-0.045514226,0
-3.1699767,1.529879,-0.45096922,-0.75840348,0.65019441,-0.045514226,0
1.1952817,-0.78918332,-0.43448603,0.39451393,0.40234166,-0.82612348,0
-2.9840872,1.1766008,-0.2099483,-0.51882863,-0.64449084,-0.56164807,0
-2.7670436,1.9131589,-0.31304598,-0.75840348,0.65019441,-0.045514226,0
-2.7215259,2.1358151,0.5209403,-0.39451393,-0.40234166,0.82612348,0
0.13283765,-1.020937,-0.48240072,-0.51882863,-0.64449084,-0.56164807,0
2.8515942,-2.137948,0.70744658,0.75840348,-0.65019441,0.045514226,0
1.0059116,-1.7820288,-0.69081295,-0.51882863,-0.64449084,-0.56164807,0
2.7979143,-1.9696934,0.054744244,0.75840348,-0.65019441,0.045514226,0
0.23362398,-1.3106256,-0.35596013,-0.51882863,-0.64449084,-0.56164807,0
-1.1393515,-0.37976623,0.10806537,-0.39451393,-0.40234166,0.82612348,0
1.5864074,-2.496954,0.19565034,-0.39451393,-0.40234166,0.82612348,0
2.1124766,-3.1478655,0.11142182,0.75840348,-0.65019441,0.045514226,0
-0.73127848,1.2474277,-0.51966017,0.39451393,0.40234166,-0.82612348,0
3.2592664,-1.7275829,0.14598584,0.75840348,-0.65019441,0.045514226,0
2.6824028,-2.3289793,0.21946502,0.75840348,-0.65019441,0.045514226,0
3.1662843,-1.9082839,0.55416656,0.75840348,-0.65019441,0.045514226,0
-2.7465577,2.3376389,-0.46491599,-0.75840348,0.65019441,-0.045514226,0
0.95373857,0.080876946,-0.28849334,0.39451393,0.40234166,-0.82612348,0
-0.018159926,-1.0293585,0.19622578,-0.39451393,-0.40234166,0.82612348,0
-0.35042858,-0.99098366,-0.64849913,-0.51882863,-0.64449084,-0.56164807,0
1.1329551,-1.3717438,0.27610898,-0.39451393,-0.40234166,0.82612348,0
1.2408675,-1.8585054,0.39057207,-0.39451393,-0.40234166,0.82612348,0
-3.109848,1.8232684,-0.65451598,-0.75840348,0.65019441,-0.045514226,0
2.6340647,-2.1977267,0.4860146,0.75840348,-0.65019441,0.045514226,0
-2.3192782,2.8266432,-0.15427756,-0.75840348,0.65019441,-0.045514226,0
2.5844502,-2.605679,-0.72734475,0.75840348,-0.65019441,0.045514226,0
3.1810255,-1.7536064,0.61484218,0.75840348,-0.65019441,0.045514226,0
0.014960051,-0.80844438,-0.82097125,-0.51882863,-0.64449084,-0.56164807,0
1.425686,-0.31262958,0.58584607,0.51882863,0.64449084,0.56164807,0
-2.0821309,3.2049086,0.17552853,-0.75840348,0.65019441,-0.045514226,0
3.08324,-1.5296013,-0.087337494,0.39451393,0.40234166,-0.82612348,0
-2.7707539,1.9130131,-0.98780894,-0.75840348,0.65019441,-0.045514226,0
0.043509841,-1.2656982,-0.5653075,-0.51882863,-0.64449084,-0.56164807,0
0.895944,-1.1954287,-0.83828455,0.39451393,0.40234166,-0.82612348,0
2.36147,-2.5357239,-0.4218061,0.75840348,-0.65019441,0.045514226,0
0.88045937,0.4126409,0.60217422,0.51882863,0.64449084,0.56164807,0
-1.2898626,0.14088684,0.1545043,-0.39451393,-0.40234166,0.82612348,0
0.41735315,-1.5658375,-0.44841099,-0.51882863,-0.64449084,-0.56164807,0
0.65188539,0.012823284,-0.12670463,0.39451393,0.40234166,-0.82612348,0
-1.5229833,2.6436996,0.3067379,0.51882863,0.64449084,0.56164807,0
0.45355576,-0.027959317,0.76200217,-0.39451393,-0.40234166,0.82612348,0
-3.1923869,1.7272466,0.024757862,-0.75840348,0.65019441,-0.045514226,0
-2.1386075,3.0932722,-0.052766085,-0.75840348,0.65019441,-0.045514226,0
-2.3075557,2.560179,-0.043973923,-0.75840348,0.65019441,-0.045514226,0
-0.7058503,1.8046048,-0.019622326,0.39451393,0.40234166,-0.82612348,0
-3.0521088,1.504252,-0.40304661,-0.75840348,0.65019441,-0.045514226,0
1.443469,-2.1392226,0.10658836,-0.39451393,-0.40234166,0.82612348,0
-2.8795767,1.9185638,-0.98229337,-0.75840348,0.65019441,-0.045514226,0
3.3096843,-1.6276265,0.45675945,0.75840348,-0.65019441,0.045514226,0
1.7338767,-1.5287926,0.53772283,-0.39451393,-0.40234166,0.82612348,0
-0.97981071,1.6192106,0.49060583,0.51882863,0.64449084,0.56164807,0
-2.227844,0.52763951,-0.15027261,-0.39451393,-0.40234166,0.82612348,0
1.0384268,-2.3059998,-0.15753388,-0.51882863,-0.64449084,-0.56164807,0
3.2386284,-1.5687497,0.85881233,0.75840348,-0.65019441,0.045514226,0
2.3155291,-2.1787403,-0.38986182,0.39451393,0.40234166,-0.82612348,0
-1.9749815,1.7429836,-0.80454469,0.39451393,0.40234166,-0.82612348,0
-0.42591441,-0.7265017,-0.72494769,-0.51882863,-0.64449084,-0.56164807,0
-2.4624205,0.76890171,-0.42737079,-0.51882863,-0.64449084,-0.56164807,0
-1.5612743,0.68249023,-1.0475955,-0.51882863,-0.64449084,-0.56164807,0
-3.0122943,1.80127,-0.41017509,-0.75840348,0.65019441,-0.045514226,0
-0.77380633,1.5006422,0.60767245,0.51882863,0.64449084,0.56164807,0
3.0765162,-1.5403237,0.36071372,0.75840348,-0.65019441,0.045514226,0
-1.2044992,1.108675,-0.42326713,0.39451393,0.40234166,-0.82612348,0
1.9296722,-0.92432952,1.1235884,-0.39451393,-0.40234166,0.82612348,0
-0.15096641,0.014127284,0.68114609,-0.39451393,-0.40234166,0.82612348,0
-3.0516162,1.7186069,-0.25053,-0.75840348,0.65019441,-0.045514226,0
2.4136553,-2.5633502,-0.41251683,0.75840348,-0.65019441,0.045514226,0
-2.2866895,2.3854055,-0.38075161,-0.75840348,0.65019441,-0.045514226,0
-3.1074157,1.7652731,-0.72786283,-0.51882863,-0.64449084,-0.56164807,0
-2.8658614,1.706877,-0.81485438,-0.75840348,0.65019441,-0.045514226,0
2.7345462,-2.1132996,-0.28453946,0.75840348,-0.65019441,0.045514226,0
-1.9049646,0.35842866,-0.60789418,-0.51882863,-0.64449084,-0.56164807,0
-0.92859489,-0.032652855,-0.62544864,-0.51882863,-0.64449084,-0.56164807,0
2.6542273,-2.5738697,0.24869347,0.75840348,-0.65019441,0.045514226,0
2.9217362,-1.1983281,0.6184423,0.51882863,0.64449084,0.56164807,0
3.104475,-1.7185395,0.52947044,0.51882863,0.64449084,0.56164807,0
-3.0669715,1.5549692,-0.60091114,-0.75840348,0.65019441,-0.045514226,0
0.025901794,-1.1395211,-0.78451312,-0.51882863,-0.64449084,-0.56164807,0
-2.4619091,2.646678,0.27004814,-0.75840348,0.65019441,-0.045514226,0
-2.840847,1.1642931,0.01513195,-0.39451393,-0.40234166,0.82612348,0
1.2865624,-0.93885189,0.85508466,-0.39451393,-0.40234166,0.82612348,0
-2.8780689,2.1628277,-0.24535227,-0.75840348,0.65019441,-0.045514226,0
-2.0967116,1.5797744,-0.90170717,0.39451393,0.40234166,-0.82612348,0
-0.49695015,1.3797035,0.9677639,0.51882863,0.64449084,0.56164807,0
-0.83124804,-0.13582189,-0.83550519,-0.51882863,-0.64449084,-0.56164807,0
1.6548977,-1.2624843,-0.54031909,0.39451393,0.40234166,-0.82612348,0
1.0117798,-1.9787091,0.30286741,-0.39451393,-0.40234166,0.82612348,0
0.52136958,-1.5554039,-0.13689721,-0.51882863,-0.64449084,-0.56164807,0
0.51431745,-0.503268,-0.7505815,0.39451393,0.40234166,-0.82612348,0
-0.91636008,-0.51187503,-0.3633309,-0.51882863,-0.64449084,-0.56164807,0
-2.5935302,2.4617476,-0.30321383,-0.75840348,0.65019441,-0.045514226,0
-3.1317654,1.2496855,-0.3237927,-0.39451393,-0.40234166,0.82612348,0
-2.5454791,2.3033764,-0.1284101,-0.75840348,0.65019441,-0.045514226,0
-1.0038496,0.070969641,0.31376201,-0.39451393,-0.40234166,0.82612348,0
-2.5571747,2.6989424,0.087360144,-0.75840348,0.65019441,-0.045514226,0
0.11550486,1.1242523,0.099638224,0.51882863,0.64449084,0.56164807,0
-1.5579197,0.70945185,0.26261306,-0.39451393,-0.40234166,0.82612348,0
-2.3212233,2.5174193,0.34408689,-0.75840348,0.65019441,-0.045514226,0
0.44650218,0.6919589,-0.12393098,0.39451393,0.40234166,-0.82612348,0
2.0317185,-2.5694132,0.55987263,-0.39451393,-0.40234166,0.82612348,0
0.49262398,-0.34406352,0.79763144,-0.39451393,-0.40234166,0.82612348,0
1.733726,-2.6163807,-0.46479392,-0.51882863,-0.64449084,-0.56164807,0
-0.22365677,0.37811434,0.86613435,-0.39451393,-0.40234166,0.82612348,0
-0.55805814,2.0626512,0.26453364,0.51882863,0.64449084,0.56164807,0
-2.2058215,2.8262749,0.24096942,-0.75840348,0.65019441,-0.045514226,0
-2.6085503,2.5677021,-0.38048244,-0.75840348,0.65019441,-0.045514226,0
-0.42140299,-0.57636219,0.15956727,-0.39451393,-0.40234166,0.82612348,0
-0.1574471,1.3427507,0.052774131,0.51882863,0.64449084,0.56164807,0
-1.3278177,1.5131737,0.84283805,-0.39451393,-0.40234166,0.82612348,0
2.1902237,-3.0291228,0.0015535355,0.75840348,-0.65019441,0.045514226,0
2.1088529,-3.0155752,-0.28881884,0.75840348,-0.65019441,0.045514226,0
0.18480164,0.82475674,-0.087767653,0.39451393,0.40234166,-0.82612348,0
-2.9437394,1.9661019,-0.94396925,-0.75840348,0.65019441,-0.045514226,0
0.92322135,0.3070038,0.39097285,0.51882863,0.64449084,0.56164807,0
-2.24474,2.9395621,0.1293025,-0.75840348,0.65019441,-0.045514226,0
2.2808986,-2.4522209,0.37219214,0.75840348,-0.65019441,0.045514226,0
-1.5333416,-0.091171443,-0.61283863,-0.51882863,-0.64449084,-0.56164807,0
1.8714392,-0.6404832,0.73562467,0.51882863,0.64449084,0.56164807,0
-0.20669949,-1.0996976,-0.12769201,-0.39451393,-0.40234166,0.82612348,0
0.40279159,-0.23549268,-0.51247954,0.39451393,0.40234166,-0.82612348,0
1.0298483,-0.014132693,0.94417459,0.51882863,0.64449084,0.56164807,0
-2.9330359,1.6652867,-0.37065601,-0.75840348,0.65019441,-0.045514226,0
-0.21492684,1.3455291,0.57128882,0.51882863,0.64449084,0.56164807,0
1.4950079,-0.48043296,0.88405001,0.51882863,0.64449084,0.56164807,0
-2.9081616,1.9651411,-1.1392725,-0.75840348,0.65019441,-0.045514226,0
0.22272944,-1.6175647,-0.087571561,-0.51882863,-0.64449084,-0.56164807,0
0.24890828,-1.0198668,-0.90507138,-0.51882863,-0.64449084,-0.56164807,0
-2.4150157,2.7918742,0.5434885,0.51882863,0.64449084,0.56164807,0
-0.40833521,1.4221668,0.62550926,0.51882863,0.64449084,0.56164807,0
0.9775449,-2.3006873,-0.20288515,-0.51882863,-0.64449084,-0.56164807,0
2.1148806,-2.7141707,-0.48949313,0.75840348,-0.65019441,0.045514226,0
2.618597,-2.3157454,-0.393466,0.39451393,0.40234166,-0.82612348,0
1.7150471,-1.8583126,-0.79684663,0.39451393,0.40234166,-0.82612348,0
2.5578523,-1.2979168,-0.12286806,0.39451393,0.40234166,-0.82612348,0
-1.0838951,0.31367755,0.37335169,-0.39451393,-0.40234166,0.82612348,0
-0.4133265,1.3514307,0.79744649,0.51882863,0.64449084,0.56164807,0
2.3367686,-2.7803769,0.10328341,0.75840348,-0.65019441,0.045514226,0
0.75092125,0.40577644,0.37200111,0.51882863,0.64449084,0.56164807,0
0.098082185,-1.2943189,-0.13920408,-0.51882863,-0.64449084,-0.56164807,0
2.215457,-0.98581904,0.8148365,0.51882863,0.64449084,0.56164807,0
-2.9882445,1.8191366,-0.25259757,-0.75840348,0.65019441,-0.045514226,0
-0.059251666,1.1797186,0.56549406,0.51882863,0.64449084,0.56164807,0
-2.283226,0.98874795,-0.91460133,-0.51882863,-0.64449084,-0.56164807,0
-2.9646683,2.1416876,-0.85192227,-0.75840348,0.65019441,-0.045514226,0
-2.2874861,2.5908277,0.11597753,-0.75840348,0.65019441,-0.045514226,0
0.00058299303,-0.18663833,-0.47544003,0.39451393,0.40234166,-0.82612348,0
1.6998369,-2.8366983,0.039911747,-0.51882863,-0.64449084,-0.56164807,0
-0.3644937,0.38830471,-0.42532694,0.39451393,0.40234166,-0.82612348,0
-1.9502498,2.9737496,0.11092854,-0.75840348,0.65019441,-0.045514226,0
2.2261791,-1.8172246,-0.36430597,0.39451393,0.40234166,-0.82612348,0
2.7772498,-2.0583961,0.45240116,0.75840348,-0.65019441,0.045514226,0
-0.28983551,0.068753093,0.35877016,-0.39451393,-0.40234166,0.82612348,0
-0.95032722,0.3641215,0.34905219,-0.39451393,-0.40234166,0.82612348,0
2.2273417,-2.6522615,-0.13209224,0.75840348,-0.65019441,0.045514226,0
3.0069942,-1.7039763,0.012740612,0.75840348,-0.65019441,0.045514226,0
-0.3368389,0.32229605,0.81499249,-0.39451393,-0.40234166,0.82612348,0
0.52981424,0.64034593,0.44874227,0.51882863,0.64449084,0.56164807,0
1.3119851,-2.1999483,-0.73317099,-0.51882863,-0.64449084,-0.56164807,0
-2.0321593,1.0532801,-0.76196551,-0.51882863,-0.64449084,-0.56164807,0
2.4391401,-2.3861244,0.11472178,0.75840348,-0.65019441,0.045514226,0
-0.83341187,-0.58981264,-0.16899806,-0.39451393,-0.40234166,0.82612348,0
-2.7376037,1.9321766,-0.97952199,-0.75840348,0.65019441,-0.045514226,0
0.25463903,-1.5233173,-0.27970016,-0.51882863,-0.64449084,-0.56164807,0
0.5737493,0.43211541,-0.036922604,0.39451393,0.40234166,-0.82612348,0
-2.9620695,1.9426756,0.023073435,-0.39451393,-0.40234166,0.82612348,0
2.973381,-1.5874627,0.62523508,0.75840348,-0.65019441,0.045514226,0
2.7487423,-1.365577,0.52667761,0.51882863,0.64449084,0.56164807,0
0.0023295879,-0.23253997,-0.61829042,0.39451393,0.40234166,-0.82612348,0
0.48114109,-2.0069067,-0.11855066,-0.51882863,-0.64449084,-0.56164807,0
-2.4641829,2.5574448,0.060986042,-0.75840348,0.65019441,-0.045514226,0
-3.2579861,1.5799921,-0.7280724,-0.75840348,0.65019441,-0.045514226,0
2.5887582,-2.1825714,0.73895764,0.75840348,-0.65019441,0.045514226,0
-1.8043343,2.6339254,0.15320039,0.51882863,0.64449084,0.56164807,0
-0.53409261,-0.58373678,-0.32233968,-0.51882863,-0.64449084,-0.56164807,0
-2.8809159,2.3318512,0.39816594,-0.75840348,0.65019441,-0.045514226,0
3.3056026,-1.4106289,0.12482548,0.51882863,0.64449084,0.56164807,0
0.020906985,-1.0486197,-0.013512671,-0.39451393,-0.40234166,0.82612348,0
0.85170835,0.093630791,0.69652599,0.51882863,0.64449084,0.56164807,0
-1.2611321,1.7834069,-0.28854394,0.39451393,0.40234166,-0.82612348,0
-2.709276,2.4233475,-0.35346985,-0.75840348,0.65019441,-0.045514226,0
-1.5670587,2.7041731,0.26885962,0.51882863,0.64449084,0.56164807,0
1.4651071,-2.1954844,0.39033222,-0.39451393,-0.40234166,0.82612348,0
1.843711,-0.17967343,0.26497376,0.51882863,0.64449084,0.56164807,0
-3.0965295,1.7408588,-0.91174889,-0.51882863,-0.64449084,-0.56164807,0
2.7012372,-2.2121661,-0.54641795,0.75840348,-0.65019441,0.045514226,0
-1.5557067,2.033643,0.61981571,0.51882863,0.64449084,0.56164807,0
-2.3230948,2.6132114,0.29299569,-0.75840348,0.65019441,-0.045514226,0
-2.4102335,2.7868056,0.032778978,-0.75840348,0.65019441,-0.045514226,0
2.7779031,-1.2661388,0.047760725,0.39451393,0.40234166,-0.82612348,0
2.3638361,-2.3775597,0.74561429,-0.39451393,-0.40234166,0.82612348,0
-2.97142,1.2987555,-0.31812739,-0.39451393,-0.40234166,0.82612348,0
0.26849651,-1.3548368,-0.67126817,-0.51882863,-0.64449084,-0.56164807,0
-1.4064612,0.18720934,-0.9934119,-0.51882863,-0.64449084,-0.56164807,0
-1.3661838,0.23658168,-0.43425429,-0.51882863,-0.64449084,-0.56164807,0
-2.4924736,2.4227273,0.058785439,-0.75840348,0.65019441,-0.045514226,0
0.37596917,0.58770925,0.97694266,0.51882863,0.64449084,0.56164807,0
2.3332324,-2.6202197,-0.83002305,0.75840348,-0.65019441,0.045514226,0
-2.5066848,2.2914703,0.63792133,-0.75840348,0.65019441,-0.045514226,0
-2.3325729,2.6281116,0.49995828,-0.75840348,0.65019441,-0.045514226,0
2.4896228,-2.4497328,0.46462655,0.75840348,-0.65019441,0.045514226,0
-0.46893287,-0.60274041,-0.8220737,-0.51882863,-0.64449084,-0.56164807,0
2.1647947,-3.1234846,0.029402971,0.75840348,-0.65019441,0.045514226,0
-2.1595597,1.819118,-0.75179172,0.39451393,0.40234166,-0.82612348,0
-0.85766506,0.4644098,0.30338597,-0.39451393,-0.40234166,0.82612348,0
-2.6763875,1.8651522,-1.0109115,0.39451393,0.40234166,-0.82612348,0
0.78149438,-1.4012663,-0.69424027,-0.51882863,-0.64449084,-0.56164807,0
-2.5478542,2.1396537,-0.35663056,-0.75840348,0.65019441,-0.045514226,0
-3.1400402,1.9192784,-0.55584478,-0.75840348,0.65019441,-0.045514226,0
0.66680229,-0.042348295,-0.066271603,0.39451393,0.40234166,-0.82612348,0
-0.67401785,1.489203,-0.14761817,0.39451393,0.40234166,-0.82612348,0
3.0749164,-1.5571897,0.62685037,0.75840348,-0.65019441,0.045514226,0
1.1253643,-1.1700644,-0.52862561,0.39451393,0.40234166,-0.82612348,0
-2.5644,1.4368091,-0.80790973,-0.51882863,-0.64449084,-0.56164807,0
3.0280657,-1.9700809,0.27443266,0.75840348,-0.65019441,0.045514226,0
3.2490516,-1.4603587,0.1868515,0.75840348,-0.65019441,0.045514226,0
-1.1834161,-0.40168318,-0.53309745,-0.51882863,-0.64449084,-0.56164807,0
-0.75759935,0.017766833,0.42963564,-0.39451393,-0.40234166,0.82612348,0
-2.628643,2.07638,-0.34888697,-0.75840348,0.65019441,-0.045514226,0
-2.2855718,2.799334,0.60905719,-0.75840348,0.65019441,-0.045514226,0
-2.3468838,2.7635581,0.18153334,-0.75840348,0.65019441,-0.045514226,0
2.2929959,-2.5189879,-0.42042303,0.75840348,-0.65019441,0.045514226,0
2.4132693,-2.7718785,-0.47665834,0.75840348,-0.65019441,0.045514226,0
-1.051692,-0.47960603,0.087087691,-0.39451393,-0.40234166,0.82612348,0
-0.84374809,0.94007176,-0.69538051,0.39451393,0.40234166,-0.82612348,0
-1.1713121,0.063288748,-0.91073316,-0.51882863,-0.64449084,-0.56164807,0
0.43080449,-1.5416145,0.10896993,-0.39451393,-0.40234166,0.82612348,0
-3.0706782,2.0828359,-0.15417457,-0.75840348,0.65019441,-0.045514226,0
2.6504853,-2.5769191,-0.46039152,0.75840348,-0.65019441,0.045514226,0
0.38034567,0.83024961,-0.25733647,0.39451393,0.40234166,-0.82612348,0
-2.0436163,2.5478024,0.49472594,0.51882863,0.64449084,0.56164807,0
-0.24629295,-0.54190606,-0.87347364,-0.51882863,-0.64449084,-0.56164807,0
0.063145638,-1.0141101,-0.4404214,-0.51882863,-0.64449084,-0.56164807,0
3.2531924,-1.393412,0.55925035,0.75840348,-0.65019441,0.045514226,0
0.12431031,0.099598646,-0.69320321,0.39451393,0.40234166,-0.82612348,0
0.64230192,-0.91657823,0.57862705,-0.39451393,-0.40234166,0.82612348,0
-0.77847409,-0.24427786,-1.0527928,0.39451393,0.40234166,-0.82612348,0
-0.66406041,1.4635522,-0.18261147,0.39451393,0.40234166,-0.82612348,0
-1.9135671,1.2392693,0.20002198,-0.39451393,-0.40234166,0.82612348,0
-2.9618087,1.9616308,-0.28052616,-0.75840348,0.65019441,-0.045514226,0
1.0194204,-2.106658,0.027453184,-0.39451393,-0.40234166,0.82612348,0
-2.3060441,2.7304628,0.51962209,-0.75840348,0.65019441,-0.045514226,0
0.93336105,-1.639411,0.42815244,-0.39451393,-0.40234166,0.82612348,0
1.7662588,-1.7655218,0.60169029,-0.39451393,-0.40234166,0.82612348,0
-2.0419877,0.71392071,-0.8922317,-0.51882863,-0.64449084,-0.56164807,0
2.2702472,-2.8734837,0.045581341,0.75840348,-0.65019441,0.045514226,0
1.7784197,-0.51690429,0.96014595,0.51882863,0.64449084,0.56164807,0
-0.84640968,-0.1480999,-0.79221654,-0.51882863,-0.64449084,-0.56164807,0
1.9446926,-3.1043077,0.075366974,0.75840348,-0.65019441,0.045514226,0
-2.7768099,2.0276055,0.08110857,-0.75840348,0.65019441,-0.045514226,0
-1.1137528,-0.249834,-0.65438855,-0.51882863,-0.64449084,-0.56164807,0
-1.3197228,2.4793665,0.34410453,0.51882863,0.64449084,0.56164807,0
1.0567161,-0.21127373,-0.39234048,0.39451393,0.40234166,-0.82612348,0
-0.27393305,1.072636,0.52898163,0.51882863,0.64449084,0.56164807,0
-0.53141928,1.5268196,-0.087519825,0.39451393,0.40234166,-0.82612348,0
-1.647748,2.0072868,0.63921094,-0.39451393,-0.40234166,0.82612348,0
-1.4460068,1.1158569,0.43204522,-0.39451393,-0.40234166,0.82612348,0
-0.18743673,0.7152527,-0.47690934,0.39451393,0.40234166,-0.82612348,0
2.8498638,-2.3484535,-0.23610425,0.75840348,-0.65019441,0.045514226,0
-2.2976217,1.5878812,-0.92448187,0.39451393,0.40234166,-0.82612348,0
0.17900288,-0.81568921,-0.65499932,-0.51882863,-0.64449084,-0.56164807,0
1.5162888,-0.68386966,-0.039676666,0.39451393,0.40234166,-0.82612348,0
0.66659641,-1.902612,0.0090048313,-0.39451393,-0.40234166,0.82612348,0
-2.33464,0.86531949,-0.56224585,-0.51882863,-0.64449084,-0.56164807,0
2.556442,-2.1326964,-0.03806138,0.75840348,-0.65019441,0.045514226,0
1.3178737,-2.1025178,-0.65362155,-0.51882863,-0.64449084,-0.56164807,0
-0.043055058,-1.4329079,-0.27777386,-0.51882863,-0.64449084,-0.56164807,0
0.74092853,-1.6057043,-0.83309305,-0.51882863,-0.64449084,-0.56164807,0
-0.19597816,-0.81082058,-0.64520466,-0.51882863,-0.64449084,-0.56164807,0
1.117002,-0.92764127,-0.2866683,0.39451393,0.40234166,-0.82612348,0
-1.1195974,2.3785977,-0.033366799,0.39451393,0.40234166,-0.82612348,0
-2.8270454,1.3598707,-0.77645969,-0.51882863,-0.64449084,-0.56164807,0
-1.5089258,1.9372678,-0.2471503,0.39451393,0.40234166,-0.82612348,0
-2.458704,1.365864,0.33800292,-0.39451393,-0.40234166,0.82612348,0
2.3493893,-1.1803566,0.81342578,0.51882863,0.64449084,0.56164807,0
2.5164785,-0.99317992,0.70845532,0.51882863,0.64449084,0.56164807,0
-2.3901682,2.6446462,0.51045442,-0.75840348,0.65019441,-0.045514226,0
-2.236289,3.0129557,0.094647884,-0.75840348,0.65019441,-0.045514226,0
1.4103475,-0.085845888,0.88249683,0.51882863,0.64449084,0.56164807,0
-2.0977056,2.830929,-0.20644665,-0.75840348,0.65019441,-0.045514226,0
-0.79498047,1.5986981,-0.20649445,0.39451393,0.40234166,-0.82612348,0
0.60767567,-1.0971854,0.19067699,-0.39451393,-0.40234166,0.82612348,0
-0.031232387,0.074735731,0.45143187,-0.39451393,-0.40234166,0.82612348,0
2.0805516,-2.7971084,0.043638229,0.75840348,-0.65019441,0.045514226,0
-2.3463027,2.6915274,0.21321774,-0.75840348,0.65019441,-0.045514226,0
0.057135463,-0.90725702,-0.47742683,-0.51882863,-0.64449084,-0.56164807,0
-2.9220657,1.8601614,-0.76784444,-0.75840348,0.65019441,-0.045514226,0
1.9553239,-1.8449914,0.70231462,-0.39451393,-0.40234166,0.82612348,0
0.019657582,-0.40600199,0.61404502,-0.39451393,-0.40234166,0.82612348,0
1.1346641,-0.44053978,-0.31961226,0.39451393,0.40234166,-0.82612348,0
1.3015244,-0.52205908,-0.2077868,0.39451393,0.40234166,-0.82612348,0
-2.2390356,1.1836969,-0.95829463,0.39451393,0.40234166,-0.82612348,0
2.087913,-2.9130507,-0.12210011,0.75840348,-0.65019441,0.045514226,0
1.5339096,-2.0410671,0.35561693,-0.39451393,-0.40234166,0.82612348,0
-0.61669391,0.45980203,0.31408644,-0.39451393,-0.40234166,0.82612348,0
-1.1047782,0.29163682,-0.83100575,-0.51882863,-0.64449084,-0.56164807,0
0.83883178,-2.0961959,-0.13014829,-0.51882863,-0.64449084,-0.56164807,0
2.4007392,-0.84060562,0.79534912,0.51882863,0.64449084,0.56164807,0
1.9832851,-2.7922349,-0.29242587,0.75840348,-0.65019441,0.045514226,0
-0.26361978,-0.15053172,-0.5680117,0.39451393,0.40234166,-0.82612348,0
-0.395684,1.1984745,0.43911868,0.51882863,0.64449084,0.56164807,0
2.5701561,-0.85002434,0.38619614,0.51882863,0.64449084,0.56164807,0
-2.4716659,2.6308146,-0.37512779,-0.75840348,0.65019441,-0.045514226,0
-2.1416166,0.40422595,-0.36674237,-0.51882863,-0.64449084,-0.56164807,0
-1.3797451,2.6647651,0.25190163,0.51882863,0.64449084,0.56164807,0
0.31596273,-0.14268328,0.8807559,-0.39451393,-0.40234166,0.82612348,0
2.0633802,-2.9117489,0.20321512,0.75840348,-0.65019441,0.045514226,0
1.3546165,-2.2853775,-0.61560106,-0.51882863,-0.64449084,-0.56164807,0
2.9639635,-1.6185193,0.41948986,0.75840348,-0.65019441,0.045514226,0
-2.5670099,2.4316714,-0.54617095,-0.75840348,0.65019441,-0.045514226,0
0.089722931,0.086989731,0.87371778,-0.39451393,-0.40234166,0.82612348,0
-2.9785087,1.7153926,-0.4436996,-0.75840348,0.65019441,-0.045514226,0
-0.42796862,-1.2014712,-0.32798052,-0.51882863,-0.64449084,-0.56164807,0
2.216773,-0.90171689,0.072075844,0.39451393,0.40234166,-0.82612348,0
-1.2898457,2.4375379,-0.18599415,0.39451393,0.40234166,-0.82612348,0
-2.9347491,2.1733255,-0.74795103,-0.75840348,0.65019441,-0.045514226,0
1.5003791,-2.2131186,-0.79800463,-0.51882863,-0.64449084,-0.56164807,0
-2.6283412,2.2339978,-0.23759913,-0.75840348,0.65019441,-0.045514226,0
1.7949823,-0.018571138,0.13560081,0.51882863,0.64449084,0.56164807,0
-1.8721652,1.4085288,-0.8921808,0.39451393,0.40234166,-0.82612348,0
0.41040123,-1.6967032,-0.058818579,-0.39451393,-0.40234166,0.82612348,0
0.60825503,-1.8486686,-0.060140371,-0.39451393,-0.40234166,0.82612348,0
2.1772826,-1.5784063,1.0320675,-0.39451393,-0.40234166,0.82612348,0
0.16772604,1.4035008,0.36800417,0.51882863,0.64449084,0.56164807,0
2.6381998,-2.4345636,0.41838145,0.75840348,-0.65019441,0.045514226,0
2.2498631,-2.6023524,-0.47236943,0.75840348,-0.65019441,0.045514226,0
-2.7224188,1.3716075,-0.12244534,-0.39451393,-0.40234166,0.82612348,0
2.527178,-2.7652175,-0.51201844,0.75840348,-0.65019441,0.045514226,0
1.7056997,-1.6818755,-0.75878787,0.39451393,0.40234166,-0.82612348,0
1.0875651,-1.7406617,-0.76521325,0.39451393,0.40234166,-0.82612348,0
-0.24179649,1.1854931,0.79636383,0.51882863,0.64449084,0.56164807,0
2.1532965,-2.5308516,-0.80506396,0.39451393,0.40234166,-0.82612348,0
-0.60897791,-0.38385734,-0.43911275,-0.51882863,-0.64449084,-0.56164807,0
1.8807294,-1.236375,0.82684028,-0.39451393,-0.40234166,0.82612348,0
0.39241576,-0.085824698,-0.39730087,0.39451393,0.40234166,-0.82612348,0
-1.9902844,2.897501,-0.057120562,0.39451393,0.40234166,-0.82612348,0
-0.94764483,1.8843496,0.18287992,0.51882863,0.64449084,0.56164807,0
2.3182781,-2.819325,-0.38970017,-0.51882863,-0.64449084,-0.56164807,0
-2.675313,1.5234377,0.094721317,-0.39451393,-0.40234166,0.82612348,0
-2.1359975,0.92509639,-0.56606817,-0.51882863,-0.64449084,-0.56164807,0
-0.023715138,-1.1562395,-0.044277251,-0.39451393,-0.40234166,0.82612348,0
0.51091623,-1.2925549,-0.58657497,-0.51882863,-0.64449084,-0.56164807,0
2.8249438,-1.8700802,0.43551874,0.75840348,-0.65019441,0.045514226,0
1.7823699,-0.82083416,0.76397049,0.51882863,0.64449084,0.56164807,0
1.9868619,-0.43157685,0.20879674,0.51882863,0.64449084,0.56164807,0
-2.1107311,2.7749243,0.22256804,0.51882863,0.64449084,0.56164807,0
-2.5554466,2.1731741,-0.013621569,-0.75840348,0.65019441,-0.045514226,0
-2.9828968,2.048543,0.10247874,-0.75840348,0.65019441,-0.045514226,0
1.0221084,-0.30533403,-0.21516955,0.39451393,0.40234166,-0.82612348,0
-1.9877294,3.0592365,0.16656399,-0.75840348,0.65019441,-0.045514226,0
-1.3972489,2.0611258,0.79614127,0.51882863,0.64449084,0.56164807,0
-3.0270982,1.2778409,-0.33090734,-0.51882863,-0.64449084,-0.56164807,0
3.1002541,-2.0002379,0.70018697,0.75840348,-0.65019441,0.045514226,0
-0.60386932,-0.059673712,-0.8890897,-0.51882863,-0.64449084,-0.56164807,0
1.8594892,-1.7613709,0.59663272,-0.39451393,-0.40234166,0.82612348,0
2.1151145,-2.4036644,-0.67927194,0.39451393,0.40234166,-0.82612348,0
-2.0598044,0.42323065,-0.6937207,-0.51882863,-0.64449084,-0.56164807,0
2.0580208,-2.9032557,0.33581161,0.75840348,-0.65019441,0.045514226,0
2.3395956,-2.4339037,0.17297959,0.75840348,-0.65019441,0.045514226,0
0.82770777,0.71362978,0.46265042,0.51882863,0.64449084,0.56164807,0
2.3480852,-2.5691149,0.16461492,0.75840348,-0.65019441,0.045514226,0
-2.8495567,2.0371771,-0.84031701,-0.75840348,0.65019441,-0.045514226,0
2.6459773,-2.2481883,0.31173563,0.75840348,-0.65019441,0.045514226,0
-2.508904,1.2409209,0.19121051,-0.39451393,-0.40234166,0.82612348,0
0.84195226,-0.058452904,-0.24453449,0.39451393,0.40234166,-0.82612348,0
-2.4952278,2.4040098,-0.058459997,-0.75840348,0.65019441,-0.045514226,0
2.8656068,-1.8974481,0.52239585,0.75840348,-0.65019441,0.045514226,0
2.2678957,-1.35607,-0.14846778,0.39451393,0.40234166,-0.82612348,0
-1.0586118,2.4839365,0.2492274,0.51882863,0.64449084,0.56164807,0
2.8705325,-1.8534467,0.15499568,0.75840348,-0.65019441,0.045514226,0
0.059504509,-1.2273407,-0.21014896,-0.51882863,-0.64449084,-0.56164807,0
3.1032772,-1.4331579,0.71217752,0.51882863,0.64449084,0.56164807,0
1.1802136,-1.1735065,0.38519645,-0.39451393,-0.40234166,0.82612348,0
-1.5248584,2.9351633,0.071934938,0.51882863,0.64449084,0.56164807,0
2.5752676,-2.4200835,-0.29237723,0.75840348,-0.65019441,0.045514226,0
0.52503824,-1.1047108,-0.65311038,0.39451393,0.40234166,-0.82612348,0
2.2170587,-2.4258232,-0.5292201,0.39451393,0.40234166,-0.82612348,0
0.92321277,-1.9858841,-0.61521602,-0.51882863,-0.64449084,-0.56164807,0
3.0715363,-1.7307572,0.62867522,0.75840348,-0.65019441,0.045514226,0
-2.9790916,1.8886118,-0.36015916,-0.75840348,0.65019441,-0.045514226,0
-1.826805,0.1048274,-0.39441621,-0.51882863,-0.64449084,-0.56164807,0
-2.3500881,1.5439817,-1.0772192,-0.51882863,-0.64449084,-0.56164807,0
1.7342228,-2.1016984,-0.71648455,-0.51882863,-0.64449084,-0.56164807,0
-2.9363165,1.8986938,-0.35283232,-0.75840348,0.65019441,-0.045514226,0
2.4529536,-2.3076334,0.46467495,0.75840348,-0.65019441,0.045514226,0
0.35355908,0.67665267,-0.32842091,0.39451393,0.40234166,-0.82612348,0
1.1460357,-0.41696262,1.1284512,-0.39451393,-0.40234166,0.82612348,0
-1.6193142,0.38158542,-0.66442776,-0.51882863,-0.64449084,-0.56164807,0
1.0976784,-1.2898512,0.29833198,-0.39451393,-0.40234166,0.82612348,0
2.1847589,-2.7033663,-0.065024614,0.75840348,-0.65019441,0.045514226,0
0.11469859,0.33643651,-0.33615738,0.39451393,0.40234166,-0.82612348,0
-0.42061365,-0.59649372,-0.81051797,-0.51882863,-0.64449084,-0.56164807,0
-1.5040431,1.9973321,-0.51916194,0.39451393,0.40234166,-0.82612348,0
-2.6430914,2.5169828,0.42721581,-0.75840348,0.65019441,-0.045514226,0
2.9317174,-2.2123809,-0.04574132,0.75840348,-0.65019441,0.045514226,0
2.2774298,-2.9098282,-0.026472092,0.75840348,-0.65019441,0.045514226,0
0.030752063,1.2982032,-0.074716061,0.39451393,0.40234166,-0.82612348,0
-2.8548355,1.9663961,-0.50326228,-0.75840348,0.65019441,-0.045514226,0
2.6690404,-1.2178733,0.84702349,0.51882863,0.64449084,0.56164807,0
-2.1638994,2.9018495,0.28642225,-0.75840348,0.65019441,-0.045514226,0
-1.7475305,0.082496405,-0.17624187,-0.39451393,-0.40234166,0.82612348,0
-0.11815951,-0.28069648,0.18671335,-0.39451393,-0.40234166,0.82612348,0
-2.4234653,2.8114445,0.81422067,-0.75840348,0.65019441,-0.045514226,0
0.88999522,-0.089322627,-0.31442958,0.39451393,0.40234166,-0.82612348,0
-1.7056404,2.7638018,-0.16897011,0.39451393,0.40234166,-0.82612348,0
2.1002915,-0.56547582,-0.07117486,0.39451393,0.40234166,-0.82612348,0
-2.5497656,2.2562954,-0.39857316,-0.75840348,0.65019441,-0.045514226,0
2.5013833,-2.2682445,-0.41281414,0.75840348,-0.65019441,0.045514226,0
2.6463349,-2.1098104,-0.0053305626,0.75840348,-0.65019441,0.045514226,0
-2.9479446,2.180465,-0.25483084,-0.75840348,0.65019441,-0.045514226,0
-1.4964806,1.9355929,0.65570116,-0.39451393,-0.40234166,0.82612348,0
3.0243707,-1.5591202,0.4191587,0.75840348,-0.65019441,0.045514226,0
1.874465,-1.6981139,-0.75694752,0.39451393,0.40234166,-0.82612348,0
-2.3430791,2.0443795,0.69586873,-0.39451393,-0.40234166,0.82612348,0
0.44689262,-0.67916501,-0.84556007,0.39451393,0.40234166,-0.82612348,0
-1.1481819,1.2083199,-0.33865321,0.39451393,0.40234166,-0.82612348,0
2.1213109,-2.646935,0.099400043,0.75840348,-0.65019441,0.045514226,0
3.1957431,-1.3530307,0.65546417,0.51882863,0.64449084,0.56164807,0
-3.2994361,1.7089874,-0.2841351,-0.75840348,0.65019441,-0.045514226,0
-2.5669923,2.209938,0.31084609,-0.75840348,0.65019441,-0.045514226,0
2.1528974,-2.7909396,-0.11742806,0.75840348,-0.65019441,0.045514226,0
-1.2705119,1.8801776,0.85235286,0.51882863,0.64449084,0.56164807,0
-1.8560243,1.1006629,0.15537882,-0.39451393,-0.40234166,0.82612348,0
0.080248833,-1.2186277,-0.45143282,-0.51882863,-0.64449084,-0.56164807,0
-0.816495,-0.5860821,-0.53130728,-0.51882863,-0.64449084,-0.56164807,0
2.3808122,-2.6273391,0.33342528,0.75840348,-0.65019441,0.045514226,0
0.43722057,-1.3300991,-0.61755383,-0.51882863,-0.64449084,-0.56164807,0
0.12823778,-0.87936258,0.40257919,-0.39451393,-0.40234166,0.82612348,0
-2.7867165,2.3370016,-0.31603694,-0.75840348,0.65019441,-0.045514226,0
2.3533659,-2.4438853,0.090540409,0.75840348,-0.65019441,0.045514226,0
-2.0307322,3.1157441,0.040212393,-0.75840348,0.65019441,-0.045514226,0
-2.555382,2.5544622,0.43825364,-0.75840348,0.65019441,-0.045514226,0
-2.0916066,3.139019,0.22879481,0.51882863,0.64449084,0.56164807,0
2.4675949,-2.6589251,-0.33599091,0.75840348,-0.65019441,0.045514226,0
-1.0723797,-0.54712886,-0.49300629,-0.51882863,-0.64449084,-0.56164807,0
1.8018303,-2.2536986,-0.76040792,0.39451393,0.40234166,-0.82612348,0
1.9507501,-2.9493899,-0.098410606,-0.51882863,-0.64449084,-0.56164807,0
-1.8026649,1.1260512,-0.72909665,0.39451393,0.40234166,-0.82612348,0
2.4230039,-2.4757135,-0.33341479,0.75840348,-0.65019441,0.045514226,0
0.9725498,0.4674041,0.24408156,0.51882863,0.64449084,0.56164807,0
-2.8512144,2.0862269,-1.0971587,-0.75840348,0.65019441,-0.045514226,0
0.34327865,-1.5894171,-0.036445141,-0.51882863,-0.64449084,-0.56164807,0
-2.2487483,2.7008832,0.12268877,-0.75840348,0.65019441,-0.045514226,0
-1.304868,-0.1981281,-0.61370242,-0.51882863,-0.64449084,-0.56164807,0
-1.5262622,0.10293144,-0.69506454,-0.51882863,-0.64449084,-0.56164807,0
-2.3709617,2.3876762,-0.72458005,-0.75840348,0.65019441,-0.045514226,0
1.9961956,-1.2194712,1.0550861,0.51882863,0.64449084,0.56164807,0
-3.1749363,1.8834163,-0.63914871,-0.75840348,0.65019441,-0.045514226,0
1.8342897,0.15052807,0.20108652,0.51882863,0.64449084,0.56164807,0
-2.8425982,1.3336006,-0.33606529,-0.51882863,-0.64449084,-0.56164807,0
0.18084604,-0.085915893,-0.62643224,0.39451393,0.40234166,-0.82612348,0
0.30285615,1.0751145,0.11270048,0.51882863,0.64449084,0.56164807,0
0.052464008,-1.16292,-0.37665987,-0.51882863,-0.64449084,-0.56164807,0
2.9903247,-1.7889167,0.59570885,0.75840348,-0.65019441,0.045514226,0
0.36115146,1.0755751,-0.11340623,0.51882863,0.64449084,0.56164807,0
-2.1208739,2.4725649,0.86837435,0.51882863,0.64449084,0.56164807,0
3.1635933,-1.5155687,0.62069488,0.75840348,-0.65019441,0.045514226,0
0.17506313,-1.2484043,-0.58087361,-0.51882863,-0.64449084,-0.56164807,0
-2.6822259,2.1489325,-0.09791708,-0.75840348,0.65019441,-0.045514226,0
1.2306941,-0.047526956,0.65802622,0.51882863,0.64449084,0.56164807,0
1.4268157,-0.732225,-0.51293874,0.39451393,0.40234166,-0.82612348,0
1.4527928,-2.4029031,0.24010611,-0.39451393,-0.40234166,0.82612348,0
2.9610333,-1.8267583,0.5454247,0.75840348,-0.65019441,0.045514226,0
2.7530386,-0.89888954,0.15550995,0.39451393,0.40234166,-0.82612348,0
1.6075509,-2.665859,0.12183762,-0.39451393,-0.40234166,0.82612348,0
2.0300901,-0.77758712,0.15926504,0.39451393,0.40234166,-0.82612348,0
-2.6901639,1.9254729,-0.69416904,-0.75840348,0.65019441,-0.045514226,0
-1.2739469,1.9696047,-0.10270405,0.39451393,0.40234166,-0.82612348,0
-1.9469872,1.9145489,0.43252635,-0.39451393,-0.40234166,0.82612348,0
1.5685289,0.14123976,0.045790076,0.39451393,0.40234166,-0.82612348,0
-1.5207866,-0.034400463,-0.42115498,-0.51882863,-0.64449084,-0.56164807,0
-1.0363138,2.0113578,0.75130105,0.51882863,0.64449084,0.56164807,0
-1.3366077,2.5330558,0.32764852,0.51882863,0.64449084,0.56164807,0
0.54914427,-1.1768656,0.14159179,-0.39451393,-0.40234166,0.82612348,0
2.7613902,-2.1046555,0.032912493,0.75840348,-0.65019441,0.045514226,0
0.84295779,-0.77723038,-0.50082576,0.39451393,0.40234166,-0.82612348,0
-0.5883168,-0.54524177,-0.92902684,-0.51882863,-0.64449084,-0.56164807,0
-0.17616171,0.30558968,-0.75443542,0.39451393,0.40234166,-0.82612348,0
0.36766863,-1.408644,-0.17264247,-0.51882863,-0.64449084,-0.56164807,0
-2.59407,2.162977,-0.67971396,-0.75840348,0.65019441,-0.045514226,0
-0.54476887,-0.35353029,-0.67619872,-0.51882863,-0.64449084,-0.56164807,0
-2.897861,2.1244841,-0.37856841,-0.75840348,0.65019441,-0.045514226,0
2.5376658,-2.6654859,0.49523258,0.75840348,-0.65019441,0.045514226,0
2.231195,-2.9151342,-0.13889766,0.75840348,-0.65019441,0.045514226,0
-1.0141113,-0.35054654,-0.70980293,-0.51882863,-0.64449084,-0.56164807,0
1.0562689,0.094327137,1.0039868,0.51882863,0.64449084,0.56164807,0
-2.9597085,1.8409679,-0.0034484863,-0.75840348,0.65019441,-0.045514226,0
-1.2048565,2.5350227,-0.10239351,0.51882863,0.64449084,0.56164807,0
-2.9780743,1.8932171,-0.44412041,-0.75840348,0.65019441,-0.045514226,0
2.8204374,-1.8332744,0.014414787,0.39451393,0.40234166,-0.82612348,0
0.93498111,-1.6033888,-0.83041489,-0.51882863,-0.64449084,-0.56164807,0
2.5626614,-2.3084691,-0.12189412,0.75840348,-0.65019441,0.045514226,0
-0.55746043,1.471434,0.35526556,0.51882863,0.64449084,0.56164807,0
2.2410891,-2.1129465,-0.60357881,0.39451393,0.40234166,-0.82612348,0
3.2742605,-1.6204693,0.5902884,0.75840348,-0.65019441,0.045514226,0
0.10955358,1.0125805,0.26213616,0.51882863,0.64449084,0.56164807,0
2.6277089,-1.7170289,-0.14824319,0.39451393,0.40234166,-0.82612348,0
0.38225138,-1.8447493,-0.050968647,-0.51882863,-0.64449084,-0.56164807,0
2.2157333,-0.87712628,0.59223151,0.51882863,0.64449084,0.56164807,0
-0.10501027,0.92884976,0.86211318,0.51882863,0.64449084,0.56164807,0
-2.1498644,1.8275554,-0.75936961,0.39451393,0.40234166,-0.82612348,0
0.77554607,-1.8512738,-0.56146145,-0.51882863,-0.64449084,-0.56164807,0
-0.90232211,0.72577465,-0.54008532,0.39451393,0.40234166,-0.82612348,0
-2.9486563,1.9301341,-0.97565889,-0.75840348,0.65019441,-0.045514226,0
-0.037716128,0.2214399,-0.28627154,0.39451393,0.40234166,-0.82612348,0
-2.1931231,2.9514914,0.010555983,-0.75840348,0.65019441,-0.045514226,0
2.1814122,-1.0100329,0.78111386,0.51882863,0.64449084,0.56164807,0
2.2658818,-2.5670695,-0.67460465,0.75840348,-0.65019441,0.045514226,0
-2.6650484,0.98175359,-0.030697584,-0.39451393,-0.40234166,0.82612348,0
-0.7792179,0.46652633,-0.97496265,0.39451393,0.40234166,-0.82612348,0
2.8167107,-1.8648641,0.24347997,0.75840348,-0.65019441,0.045514226,0
0.041226327,-0.97351575,0.15188734,-0.39451393,-0.40234166,0.82612348,0
-2.5130534,2.6072049,-0.3020978,-0.75840348,0.65019441,-0.045514226,0
-2.5980976,2.5132639,0.39394975,-0.75840348,0.65019441,-0.045514226,0
2.3918295,-2.330219,0.2968328,0.75840348,-0.65019441,0.045514226,0
0.12657392,0.58788472,0.7476908,0.51882863,0.64449084,0.56164807,0
-2.5319428,0.89139521,-0.014227867,-0.39451393,-0.40234166,0.82612348,0
-3.0334508,1.7613004,0.078336716,-0.75840348,0.65019441,-0.045514226,0
1.1579462,-2.314836,-0.099449515,-0.39451393,-0.40234166,0.82612348,0
2.67489,-1.5616376,0.85053587,0.51882863,0.64449084,0.56164807,0
2.696341,-2.1484768,-0.2471242,0.75840348,-0.65019441,0.045514226,0
-1.2352036,2.0391471,0.29257166,0.51882863,0.64449084,0.56164807,0
-1.5519406,2.0515082,-0.30769539,0.39451393,0.40234166,-0.82612348,0
2.3411298,-2.4634809,0.15331054,0.75840348,-0.65019441,0.045514226,0
-2.8916006,1.7884276,-0.65991759,-0.75840348,0.65019441,-0.045514226,0
-0.62335461,0.56659371,-0.44013506,0.39451393,0.40234166,-0.82612348,0
-2.3863385,0.87294424,-0.24989271,-0.39451393,-0.40234166,0.82612348,0
0.44858998,0.63753861,-0.2696842,0.39451393,0.40234166,-0.82612348,0
1.1143919,-0.060230032,1.163456,0.51882863,0.64449084,0.56164807,0
0.6710763,-0.78214818,-0.47140801,0.39451393,0.40234166,-0.82612348,0
-2.5215521,2.087368,0.48194599,-0.39451393,-0.40234166,0.82612348,0
-2.7553215,1.3080981,-0.99574161,-0.51882863,-0.64449084,-0.56164807,0
-1.9447823,1.5420301,0.41934919,-0.39451393,-0.40234166,0.82612348,0
-1.6621369,1.8878818,0.80621064,0.51882863,0.64449084,0.56164807,0
2.6436467,-1.6257319,0.057666779,0.39451393,0.40234166,-0.82612348,0
-1.3858008,0.08190459,-0.83510113,-0.51882863,-0.64449084,-0.56164807,0
0.16330051,0.11712953,0.92846864,-0.39451393,-0.40234166,0.82612348,0
-1.5483598,0.17569035,-0.25197947,-0.51882863,-0.64449084,-0.56164807,0
2.8281662,-0.76824462,0.18880558,0.51882863,0.64449084,0.56164807,0
-1.2770467,0.019838631,-0.67510664,-0.51882863,-0.64449084,-0.56164807,0
-2.6811845,0.91560709,-0.3474803,-0.39451393,-0.40234166,0.82612348,0
2.5409336,-2.1663597,-0.50202799,0.75840348,-0.65019441,0.045514226,0
-1.6869125,1.4989896,-0.82450581,0.39451393,0.40234166,-0.82612348,0
1.0000761,-1.5051621,-0.66478956,-0.51882863,-0.64449084,-0.56164807,0
-3.0543675,1.7770704,-0.43402719,-0.75840348,0.65019441,-0.045514226,0
-0.20244718,0.83207589,1.1460397,-0.39451393,-0.40234166,0.82612348,0
2.3607175,-1.9826807,-0.59641671,0.39451393,0.40234166,-0.82612348,0
-0.81072778,-0.34283179,-0.84725666,-0.51882863,-0.64449084,-0.56164807,0
-2.2101598,0.76747108,-0.47008276,-0.51882863,-0.64449084,-0.56164807,0
-1.4804412,0.36272347,-0.73894072,-0.51882863,-0.64449084,-0.56164807,0
2.5990236,-2.5694392,-0.51016927,0.75840348,-0.65019441,0.045514226,0
0.261271,0.81214726,0.66761994,0.51882863,0.64449084,0.56164807,0
-1.3110386,2.3833735,0.18330967,0.51882863,0.64449084,0.56164807,0
-2.2085938,3.0530014,0.22697234,-0.75840348,0.65019441,-0.045514226,0
0.9804275,-0.25442803,-0.38485384,0.39451393,0.40234166,-0.82612348,0
-0.88259232,0.30461326,0.10382885,-0.39451393,-0.40234166,0.82612348,0
1.0249875,-1.8924543,-0.57217097,-0.51882863,-0.64449084,-0.56164807,0
1.0092878,-0.28356293,0.84962046,0.51882863,0.64449084,0.56164807,0
-1.2261697,0.17210215,-0.49671483,-0.51882863,-0.64449084,-0.56164807,0
-1.1821003,2.4297576,-0.11739397,0.39451393,0.40234166,-0.82612348,0
2.8816423,-1.9972064,0.36283588,0.75840348,-0.65019441,0.045514226,0
2.2041571,-2.6094933,0.5874505,-0.39451393,-0.40234166,0.82612348,0
2.5004539,-2.5157917,-0.65260148,0.75840348,-0.65019441,0.045514226,0
3.0522175,-1.7236682,0.17577481,0.39451393,0.40234166,-0.82612348,0
-0.035622954,-0.10876179,0.74824584,-0.39451393,-0.40234166,0.82612348,0
2.6845582,-1.9441371,0.47837615,0.75840348,-0.65019441,0.045514226,0
0.99655139,-0.1641413,0.88332605,-0.39451393,-0.40234166,0.82612348,0
0.5328747,-0.35063243,0.64232183,-0.39451393,-0.40234166,0.82612348,0
0.86359072,-0.17436466,0.75105,-0.39451393,-0.40234166,0.82612348,0
-2.2840838,2.2436368,-0.4069798,0.39451393,0.40234166,-0.82612348,0
0.094533741,-0.023451358,-0.68138069,0.39451393,0.40234166,-0.82612348,0
-2.3487258,2.7118926,-0.13145971,-0.75840348,0.65019441,-0.045514226,0
-2.3884027,2.7070031,-0.089723349,-0.75840348,0.65019441,-0.045514226,0
-0.38187528,1.0554255,0.80691147,0.51882863,0.64449084,0.56164807,0
0.95057404,-0.92059445,0.78733432,-0.39451393,-0.40234166,0.82612348,0
-0.32158327,0.76669955,0.6430428,-0.39451393,-0.40234166,0.82612348,0
0.34495139,1.0336984,0.39137477,0.51882863,0.64449084,0.56164807,0
-0.40394431,-0.87030959,-0.022078633,-0.39451393,-0.40234166,0.82612348,0
-2.7820551,2.192806,0.027390957,-0.75840348,0.65019441,-0.045514226,0
2.7290428,-2.4350364,-0.014358997,0.75840348,-0.65019441,0.045514226,0
-2.8239484,1.7735865,-0.20303273,-0.75840348,0.65019441,-0.045514226,0
0.42009062,-0.20953476,-0.71408063,0.39451393,0.40234166,-0.82612348,0
-1.0963168,0.043616354,0.3132391,-0.39451393,-0.40234166,0.82612348,0
2.5270715,-2.5785336,-0.20793247,0.75840348,-0.65019441,0.045514226,0
-0.17589617,1.1206837,0.78979576,0.51882863,0.64449084,0.56164807,0
-2.4509065,2.744807,0.44379187,-0.75840348,0.65019441,-0.045514226,0
2.4725275,-2.6655891,-0.52451563,0.75840348,-0.65019441,0.045514226,0
2.2375267,-2.7271924,-0.079314947,0.75840348,-0.65019441,0.045514226,0
-2.5653791,2.6425862,0.42813063,-0.75840348,0.65019441,-0.045514226,0
3.2704682,-1.6726251,0.91394806,0.75840348,-0.65019441,0.045514226,0
1.7306834,-2.6547356,-0.65198588,-0.51882863,-0.64449084,-0.56164807,0
-1.2682614,2.2299118,-0.36128163,0.39451393,0.40234166,-0.82612348,0
-0.44922733,-0.9237448,-0.65057862,-0.51882863,-0.64449084,-0.56164807,0
-0.19973063,1.231854,0.46585619,0.51882863,0.64449084,0.56164807,0
0.95645618,-2.0005398,-0.14815891,-0.51882863,-0.64449084,-0.56164807,0
0.49674368,-1.1940086,-1.156333,-0.51882863,-0.64449084,-0.56164807,0
0.94023907,-0.12326403,1.1347837,0.51882863,0.64449084,0.56164807,0
2.7580187,-2.4247608,-0.41189218,0.75840348,-0.65019441,0.045514226,0
-0.0070048571,0.9492172,0.96541589,0.51882863,0.64449084,0.56164807,0
-1.2523103,2.0196278,0.45673513,0.51882863,0.64449084,0.56164807,0
-0.37706578,-0.74403381,-0.59498543,-0.51882863,-0.64449084,-0.56164807,0
2.3832214,-2.6377661,-0.011554241,0.75840348,-0.65019441,0.045514226,0
-0.92719144,2.0028932,-0.29908597,0.39451393,0.40234166,-0.82612348,0
1.4582279,-2.0079162,-0.75155091,-0.51882863,-0.64449084,-0.56164807,0
1.650813,-2.289371,-0.67956376,-0.51882863,-0.64449084,-0.56164807,0
-2.658942,2.2943325,0.20786715,-0.75840348,0.65019441,-0.045514226,0
-2.2200651,0.60830951,-0.17793322,-0.39451393,-0.40234166,0.82612348,0
1.0563612,0.57648063,0.26637149,0.51882863,0.64449084,0.56164807,0
-3.4080579,1.5977974,-0.47770238,-0.75840348,0.65019441,-0.045514226,0
1.7273544,-2.5211728,-0.38101697,-0.51882863,-0.64449084,-0.56164807,0
2.2521033,-0.92947066,-0.091351032,0.39451393,0.40234166,-0.82612348,0
1.1884348,0.16646296,0.42346454,0.51882863,0.64449084,0.56164807,0
1.9757556,-2.707026,-0.47438574,-0.51882863,-0.64449084,-0.56164807,0
1.9980117,-0.074009061,0.18736792,0.51882863,0.64449084,0.56164807,0
-2.2944376,2.4966917,-0.222332,-0.75840348,0.65019441,-0.045514226,0
2.3098161,-2.5782559,0.46998501,-0.39451393,-0.40234166,0.82612348,0
-0.38979411,-0.25735167,-0.88901329,0.39451393,0.40234166,-0.82612348,0
-0.82932985,1.9751496,0.60031784,0.51882863,0.64449084,0.56164807,0
2.4767294,-2.6090136,-0.48508263,0.39451393,0.40234166,-0.82612348,0
-2.7765067,2.4263911,-0.036114693,-0.75840348,0.65019441,-0.045514226,0
0.66707236,-0.29378703,-0.25269884,0.39451393,0.40234166,-0.82612348,0
2.8677747,-1.9646498,-0.046327353,0.75840348,-0.65019441,0.045514226,0
