1.184733,1.9206372,-0.75121999,0.70454931,0.48993874,0.5133909,0
1.0760286,-0.30859601,2.0781782,0.70454931,0.48993874,0.5133909,0
0.18733233,-0.9382233,1.806746,0.053003713,-0.75774652,0.65039253,0
-0.94500196,0.52699733,-0.560256,-0.70767283,0.43102193,0.55983835,0
-0.2148867,-1.690354,0.84787703,0.053003713,-0.75774652,0.65039253,0
-0.76489908,0.95632595,-1.9656912,-0.053003713,0.75774652,-0.65039253,0
1.1217566,1.7658496,-0.93295825,-0.053003713,0.75774652,-0.65039253,0
-1.4421916,0.73614484,-1.4889923,-0.70454931,-0.48993874,-0.5133909,0
-1.1051152,0.85177392,-2.1411126,-0.053003713,0.75774652,-0.65039253,0
-0.65558791,-2.4007618,0.1215353,-0.70454931,-0.48993874,-0.5133909,0
1.1595745,-1.3143443,1.6489487,0.053003713,-0.75774652,0.65039253,0
-1.062003,-1.5721847,0.67913973,-0.70767283,0.43102193,0.55983835,0
-1.1975133,0.59524739,-1.7208352,-0.70454931,-0.48993874,-0.5133909,0
-1.176439,-1.1435522,-0.36158442,-0.70454931,-0.48993874,-0.5133909,0
-0.70552582,-1.4604006,1.0251485,-0.70767283,0.43102193,0.55983835,0
0.98634171,1.9850039,-0.74291468,-0.053003713,0.75774652,-0.65039253,0
0.29516664,-1.6553385,1.3930285,0.053003713,-0.75774652,0.65039253,0
0.25125387,1.9200835,-0.64898443,-0.053003713,0.75774652,-0.65039253,0
-0.8536675,-0.24442469,-0.043701544,-0.70767283,0.43102193,0.55983835,0
0.1362644,1.9090179,-1.1674337,-0.053003713,0.75774652,-0.65039253,0
-1.3018479,0.50492567,-1.9097221,-0.70454931,-0.48993874,-0.5133909,0
-0.79842722,-1.8549557,1.1347771,0.053003713,-0.75774652,0.65039253,0
0.53783977,2.1925621,-0.29521608,-0.70767283,0.43102193,0.55983835,0
1.3789709,0.90264988,0.48390195,0.70454931,0.48993874,0.5133909,0
0.66531467,1.7273138,0.19462657,0.70454931,0.48993874,0.5133909,0
-0.21954392,-2.2300858,0.6488533,0.053003713,-0.75774652,0.65039253,0
1.291693,0.19611906,0.73717451,0.70454931,0.48993874,0.5133909,0
0.40803248,1.6474007,-1.0260113,-0.053003713,0.75774652,-0.65039253,0
-0.68442285,-1.6007022,1.281269,0.053003713,-0.75774652,0.65039253,0
-0.44367993,-0.81889373,-0.77774113,0.70767283,-0.43102193,-0.55983835,0
0.73967487,-1.0840261,1.5524858,0.053003713,-0.75774652,0.65039253,0
0.6250478,2.0079679,-0.71273422,-0.053003713,0.75774652,-0.65039253,0
1.2941039,-0.78998184,1.8703413,0.70454931,0.48993874,0.5133909,0
0.17267823,0.14242864,1.264694,-0.70767283,0.43102193,0.55983835,0
0.6853773,0.63754654,-0.19419795,0.70767283,-0.43102193,-0.55983835,0
1.1607478,-1.087164,1.5682371,0.053003713,-0.75774652,0.65039253,0
-0.8557207,-0.37704182,-1.0473137,-0.70454931,-0.48993874,-0.5133909,0
-1.1783547,-1.7032547,0.23923016,-0.70454931,-0.48993874,-0.5133909,0
-0.15311348,1.0991374,-1.4853877,-0.053003713,0.75774652,-0.65039253,0
0.9985587,1.6199855,0.34017956,0.70454931,0.48993874,0.5133909,0
-0.24454047,-2.0021863,0.87633491,0.053003713,-0.75774652,0.65039253,0
-0.59670961,-2.430409,-0.0053064823,-0.70454931,-0.48993874,-0.5133909,0
-0.78511775,0.8985498,-1.7521169,-0.053003713,0.75774652,-0.65039253,0
-1.1716982,0.73051631,-2.2362204,-0.053003713,0.75774652,-0.65039253,0
0.83994746,2.3269875,-0.32188916,-0.053003713,0.75774652,-0.65039253,0
-0.71968317,-1.0276705,-1.1745327,-0.70454931,-0.48993874,-0.5133909,0
0.42660949,-1.380031,0.58256805,0.70767283,-0.43102193,-0.55983835,0
0.50288337,-0.64782953,0.15431315,0.70767283,-0.43102193,-0.55983835,0
0.96212828,1.4795723,-1.1254005,0.70767283,-0.43102193,-0.55983835,0
-0.54524815,-2.2234015,0.4978435,0.053003713,-0.75774652,0.65039253,0
0.14684138,-1.6088706,1.2834268,0.053003713,-0.75774652,0.65039253,0
-1.3533869,0.17943799,-1.559167,-0.70454931,-0.48993874,-0.5133909,0
1.1704394,-0.63926947,1.9036279,0.70454931,0.48993874,0.5133909,0
0.61979085,-0.13772178,-0.13053808,0.70767283,-0.43102193,-0.55983835,0
-0.57895541,0.031728208,0.32009771,-0.70767283,0.43102193,0.55983835,0
0.060761631,-1.6911658,1.0988693,0.053003713,-0.75774652,0.65039253,0
1.3413759,1.3167584,0.090807796,0.70454931,0.48993874,0.5133909,0
-0.087207526,-1.5191096,0.0071108341,0.70767283,-0.43102193,-0.55983835,0
-1.4386991,0.81776524,-1.714239,-0.70454931,-0.48993874,-0.5133909,0
0.96470368,-0.68408072,2.1889589,0.70454931,0.48993874,0.5133909,0
-0.38593346,1.0883069,-1.936914,-0.053003713,0.75774652,-0.65039253,0
1.2327473,2.2012084,-0.82170248,-0.053003713,0.75774652,-0.65039253,0
-0.32036713,-1.8753048,0.1470468,0.70767283,-0.43102193,-0.55983835,0
0.94460016,2.1317649,-0.1556654,0.70454931,0.48993874,0.5133909,0
-0.82135844,0.073889732,-1.8896656,-0.70454931,-0.48993874,-0.5133909,0
-0.88758385,-1.6775675,0.8678,-0.70767283,0.43102193,0.55983835,0
1.3765527,2.2345653,-0.76611948,0.70454931,0.48993874,0.5133909,0
0.74736947,2.3245687,-0.038351297,0.70454931,0.48993874,0.5133909,0
0.16886979,1.0426311,-1.3338015,0.70767283,-0.43102193,-0.55983835,0
0.73068994,1.7242326,-1.056866,-0.053003713,0.75774652,-0.65039253,0
1.2970102,0.65731812,0.34959865,0.70767283,-0.43102193,-0.55983835,0
-0.93423092,-1.448756,-0.052791476,-0.70454931,-0.48993874,-0.5133909,0
-0.54009861,0.99331456,-1.8641858,-0.053003713,0.75774652,-0.65039253,0
0.18502533,1.9913272,-0.31324625,-0.70767283,0.43102193,0.55983835,0
0.13854472,-1.8969989,1.0485439,0.053003713,-0.75774652,0.65039253,0
1.0716419,-0.91597831,1.175631,0.70767283,-0.43102193,-0.55983835,0
0.61346328,2.3602991,-0.24892902,0.70454931,0.48993874,0.5133909,0
0.29266739,0.42260936,-0.55989635,0.70767283,-0.43102193,-0.55983835,0
-0.91010273,0.91213131,-2.1556401,-0.053003713,0.75774652,-0.65039253,0
0.88333493,-0.85939604,2.1085896,0.053003713,-0.75774652,0.65039253,0
0.86279011,-0.46519601,1.9131763,0.70454931,0.48993874,0.5133909,0
-1.3637171,0.52139306,-1.4598336,-0.70454931,-0.48993874,-0.5133909,0
1.2195874,-0.05691883,0.33544809,0.70767283,-0.43102193,-0.55983835,0
0.76237851,0.3509129,-0.056529477,0.70767283,-0.43102193,-0.55983835,0
-0.66058218,-1.8848689,1.1228023,0.053003713,-0.75774652,0.65039253,0
-1.3736485,-1.2428125,0.32497871,-0.70767283,0.43102193,0.55983835,0
0.4340483,0.26886034,1.2751056,-0.70767283,0.43102193,0.55983835,0
-1.3303823,-0.31814101,-1.1804886,-0.70454931,-0.48993874,-0.5133909,0
0.4506456,-0.7131176,0.23852229,0.70767283,-0.43102193,-0.55983835,0
-1.5391569,0.27320996,-1.4479107,-0.70454931,-0.48993874,-0.5133909,0
0.35541061,-1.9213561,1.0854819,0.053003713,-0.75774652,0.65039253,0
0.22705634,1.7667756,-0.18049192,-0.70767283,0.43102193,0.55983835,0
-0.70129013,-2.0559821,0.43940997,0.053003713,-0.75774652,0.65039253,0
-0.9766742,-0.75950474,-0.96114129,-0.70454931,-0.48993874,-0.5133909,0
-1.146523,-1.2277857,0.020420313,-0.70454931,-0.48993874,-0.5133909,0
-0.32856661,1.4847319,-1.0050441,-0.70767283,0.43102193,0.55983835,0
0.12716427,1.8075373,-1.2837555,-0.053003713,0.75774652,-0.65039253,0
-0.45390123,-1.404349,1.1894569,-0.70767283,0.43102193,0.55983835,0
0.1147638,1.4851742,0.096312881,-0.70767283,0.43102193,0.55983835,0
-0.25479478,-0.20280528,-1.3774624,0.70767283,-0.43102193,-0.55983835,0
-0.8971287,-0.61427951,-0.92613274,-0.70454931,-0.48993874,-0.5133909,0
-0.47780776,-0.96435475,0.92730749,-0.70767283,0.43102193,0.55983835,0
0.91846532,-0.35712713,1.6451079,0.70454931,0.48993874,0.5133909,0
-0.3691318,-1.814476,0.69759989,0.053003713,-0.75774652,0.65039253,0
0.87197477,-0.34538734,1.791872,0.70454931,0.48993874,0.5133909,0
-0.67984295,0.48149589,-0.055321515,-0.70767283,0.43102193,0.55983835,0
0.27807173,1.4577639,-1.379958,-0.053003713,0.75774652,-0.65039253,0
0.9553889,1.4505402,0.040675282,0.70454931,0.48993874,0.5133909,0
1.0457876,0.8183499,-0.3703739,0.70767283,-0.43102193,-0.55983835,0
-1.0744925,-1.8347383,0.93240952,0.053003713,-0.75774652,0.65039253,0
-0.1461429,-1.2860849,1.8139948,0.053003713,-0.75774652,0.65039253,0
1.0580956,1.1409177,0.084593832,0.70454931,0.48993874,0.5133909,0
0.63187015,1.6576898,0.35131538,0.70454931,0.48993874,0.5133909,0
-0.16072935,-1.1925747,1.5066991,0.053003713,-0.75774652,0.65039253,0
-1.2922139,0.70702702,-1.8796574,-0.70454931,-0.48993874,-0.5133909,0
-1.1597605,0.021070004,-1.6574283,-0.70454931,-0.48993874,-0.5133909,0
0.31836823,0.99310338,0.28438038,-0.70767283,0.43102193,0.55983835,0
0.40045655,0.097153425,-0.66004908,0.70767283,-0.43102193,-0.55983835,0
0.040509835,1.5540735,-0.96105731,-0.053003713,0.75774652,-0.65039253,0
-0.37397298,-0.29579806,0.36305049,-0.70767283,0.43102193,0.55983835,0
1.2263325,0.43062311,0.66458052,0.70454931,0.48993874,0.5133909,0
-1.3967009,-0.50779295,-0.89524961,-0.70454931,-0.48993874,-0.5133909,0
-0.54290181,1.265908,-0.74041557,-0.70767283,0.43102193,0.55983835,0
0.24698101,2.0904932,-0.57961726,-0.053003713,0.75774652,-0.65039253,0
-0.16043526,-1.926863,0.69536257,0.053003713,-0.75774652,0.65039253,0
1.2018481,1.33252,-0.067675591,0.70454931,0.48993874,0.5133909,0
0.79120773,-1.1906812,0.93439746,0.70767283,-0.43102193,-0.55983835,0
-1.448352,0.42029649,-1.6363581,-0.70454931,-0.48993874,-0.5133909,0
1.1698706,-1.0488956,1.323835,0.70767283,-0.43102193,-0.55983835,0
-0.075378597,-1.5588694,0.95958185,0.053003713,-0.75774652,0.65039253,0
0.35838065,1.5075475,-1.1272305,-0.053003713,0.75774652,-0.65039253,0
-1.3358074,0.14713886,-1.1625655,-0.70454931,-0.48993874,-0.5133909,0
1.0701387,0.99809659,0.78282267,0.70454931,0.48993874,0.5133909,0
-0.53197408,0.98480368,-1.8421564,-0.053003713,0.75774652,-0.65039253,0
0.54413712,-1.6630585,1.1002097,0.053003713,-0.75774652,0.65039253,0
1.091501,-1.0459363,1.3520758,0.70767283,-0.43102193,-0.55983835,0
0.55465168,0.63181627,1.1336281,-0.70767283,0.43102193,0.55983835,0
0.12939858,1.3255818,-1.5053153,-0.053003713,0.75774652,-0.65039253,0
-0.94244337,-0.047062874,-1.4014566,-0.70454931,-0.48993874,-0.5133909,0
0.77903569,0.77800584,0.74219322,0.70454931,0.48993874,0.5133909,0
-0.99030781,-1.9074545,0.35154283,-0.70454931,-0.48993874,-0.5133909,0
0.0078226924,-1.3373467,1.2999294,0.053003713,-0.75774652,0.65039253,0
0.11659005,1.8968664,-0.93903255,-0.053003713,0.75774652,-0.65039253,0
-0.55412143,-0.86294866,1.1311005,-0.70767283,0.43102193,0.55983835,0
-0.89319766,-0.75744581,0.48357195,-0.70767283,0.43102193,0.55983835,0
0.35323173,2.2194202,-0.55112028,-0.053003713,0.75774652,-0.65039253,0
-0.20907265,-1.8171608,0.33133173,0.70767283,-0.43102193,-0.55983835,0
-0.27772179,-1.745764,-0.092509151,0.70767283,-0.43102193,-0.55983835,0
0.5896107,-0.76911438,2.1049371,-0.70767283,0.43102193,0.55983835,0
-1.025682,-0.80576307,-0.61651814,-0.70454931,-0.48993874,-0.5133909,0
-0.2234668,-2.131062,0.90744972,0.053003713,-0.75774652,0.65039253,0
-0.86407018,-1.9898026,0.77166843,0.053003713,-0.75774652,0.65039253,0
-0.20930323,-2.0822709,0.68978763,0.053003713,-0.75774652,0.65039253,0
-0.62560475,1.0621872,-1.4887038,-0.053003713,0.75774652,-0.65039253,0
-0.76789534,-2.2884679,0.73045254,0.053003713,-0.75774652,0.65039253,0
-1.1055248,-0.91688824,0.13993108,-0.70767283,0.43102193,0.55983835,0
-0.86707389,-1.0396481,-0.6280458,-0.70454931,-0.48993874,-0.5133909,0
-1.1102141,-0.94696426,-0.16261208,-0.70454931,-0.48993874,-0.5133909,0
-1.0275735,-0.491826,-0.86509532,-0.70454931,-0.48993874,-0.5133909,0
-0.83090609,-1.2571898,-0.84590864,-0.70454931,-0.48993874,-0.5133909,0
0.73657465,-0.13207029,0.41016385,0.70767283,-0.43102193,-0.55983835,0
0.31505847,-0.077614725,-0.2150609,0.70767283,-0.43102193,-0.55983835,0
1.0444112,1.2737589,0.57838321,0.70454931,0.48993874,0.5133909,0
0.24512672,0.28047889,1.011072,-0.70767283,0.43102193,0.55983835,0
-0.89316416,1.1052499,-1.5038668,-0.053003713,0.75774652,-0.65039253,0
-1.2647605,0.46074581,-1.9275295,-0.70454931,-0.48993874,-0.5133909,0
-1.38981,-0.31860632,-0.63726598,-0.70454931,-0.48993874,-0.5133909,0
0.75188166,-0.85030222,2.018302,0.053003713,-0.75774652,0.65039253,0
-0.56302381,-1.6690962,-0.47322464,-0.70454931,-0.48993874,-0.5133909,0
1.0969813,-1.2397052,1.6687512,0.053003713,-0.75774652,0.65039253,0
-1.4768459,0.54351062,-1.4725335,-0.70454931,-0.48993874,-0.5133909,0
-0.30379659,-1.6179444,1.197179,0.053003713,-0.75774652,0.65039253,0
0.60270274,-1.0828303,1.9498776,0.053003713,-0.75774652,0.65039253,0
-1.1502733,-1.4446669,0.10923445,-0.70454931,-0.48993874,-0.5133909,0
-0.49947214,0.0099214315,-1.5682232,0.70767283,-0.43102193,-0.55983835,0
-1.0767164,1.0174481,-1.8501054,-0.053003713,0.75774652,-0.65039253,0
1.263469,2.0554528,-0.96166158,-0.053003713,0.75774652,-0.65039253,0
-0.18505634,0.57922137,0.26914421,-0.70767283,0.43102193,0.55983835,0
0.559407,-0.9473927,2.0953944,0.053003713,-0.75774652,0.65039253,0
0.55150139,-1.1042783,1.4812616,0.053003713,-0.75774652,0.65039253,0
-0.3887496,-1.4025233,1.230075,-0.70767283,0.43102193,0.55983835,0
0.88960928,0.91010869,0.98673004,0.70454931,0.48993874,0.5133909,0
-1.3787296,0.68376714,-2.0474446,-0.70454931,-0.48993874,-0.5133909,0
0.1901466,1.9724946,-0.82017064,-0.053003713,0.75774652,-0.65039253,0
1.158152,-0.23245722,1.6088688,0.70454931,0.48993874,0.5133909,0
-1.2573385,-0.49993056,-0.69600189,-0.70454931,-0.48993874,-0.5133909,0
0.99623907,1.6727228,0.038653255,0.70454931,0.48993874,0.5133909,0
0.21491337,-1.6441321,0.65071249,0.70767283,-0.43102193,-0.55983835,0
-0.36877835,-1.8942206,1.0755384,0.053003713,-0.75774652,0.65039253,0
-0.19025284,1.2386613,-1.3846508,-0.053003713,0.75774652,-0.65039253,0
0.12616767,-0.56838173,0.035089135,0.70767283,-0.43102193,-0.55983835,0
-0.35419577,-2.2372499,0.21476841,0.70767283,-0.43102193,-0.55983835,0
0.37298432,1.5833896,-0.96098876,-0.053003713,0.75774652,-0.65039253,0
-0.91826695,1.064799,-1.7807268,-0.053003713,0.75774652,-0.65039253,0
1.1736021,-0.96156859,1.5612062,0.053003713,-0.75774652,0.65039253,0
1.409313,0.67460173,0.70760417,0.70454931,0.48993874,0.5133909,0
0.83872402,1.4323961,0.69416982,0.70454931,0.48993874,0.5133909,0
0.94924974,-0.16107917,1.7383621,0.70454931,0.48993874,0.5133909,0
0.11750287,-1.8511864,0.50011897,0.70767283,-0.43102193,-0.55983835,0
0.23805979,0.23055434,-1.0775077,0.70767283,-0.43102193,-0.55983835,0
0.36688828,-1.5020437,1.3764894,0.053003713,-0.75774652,0.65039253,0
-1.1885256,-0.3340618,-0.63911623,-0.70454931,-0.48993874,-0.5133909,0
0.84426737,-0.060432792,1.7857132,0.70454931,0.48993874,0.5133909,0
0.69695687,1.842375,0.10869932,0.70454931,0.48993874,0.5133909,0
-0.40433317,-2.1059637,0.33242846,0.70767283,-0.43102193,-0.55983835,0
-1.0824726,-0.66662359,-0.89130449,-0.70454931,-0.48993874,-0.5133909,0
1.1150329,-0.010967016,1.2238512,0.70454931,0.48993874,0.5133909,0
1.1869298,0.63793874,0.53749108,0.70454931,0.48993874,0.5133909,0
-0.17682342,2.1148758,-0.85554481,-0.053003713,0.75774652,-0.65039253,0
0.50920373,2.3593693,-0.22944307,0.70454931,0.48993874,0.5133909,0
0.68225539,1.7289238,-0.96316826,-0.053003713,0.75774652,-0.65039253,0
-0.8224442,0.26455331,-1.6962765,-0.70454931,-0.48993874,-0.5133909,0
-0.58155996,-0.86676157,0.75296676,-0.70767283,0.43102193,0.55983835,0
0.91384149,-0.38608283,1.8116579,0.70454931,0.48993874,0.5133909,0
-0.40122265,-1.8001405,1.1102788,0.053003713,-0.75774652,0.65039253,0
-0.82044458,-2.1798563,0.19200277,-0.70454931,-0.48993874,-0.5133909,0
-1.135717,-1.9319888,1.0507383,0.053003713,-0.75774652,0.65039253,0
-0.29459536,1.2468454,-1.3971446,-0.053003713,0.75774652,-0.65039253,0
0.28357095,-1.502823,1.1521022,0.053003713,-0.75774652,0.65039253,0
0.35728282,2.1035242,-0.76878881,-0.053003713,0.75774652,-0.65039253,0
1.1312516,0.76321447,0.77741778,0.70454931,0.48993874,0.5133909,0
-0.39885473,-1.7027406,1.39957,0.053003713,-0.75774652,0.65039253,0
0.66061765,2.0502954,-0.99567914,-0.053003713,0.75774652,-0.65039253,0
0.21535362,-0.63959795,0.095455945,0.70767283,-0.43102193,-0.55983835,0
0.63279486,2.3522964,-0.17931128,0.70454931,0.48993874,0.5133909,0
-0.63215709,-1.6231277,-0.37585604,-0.70454931,-0.48993874,-0.5133909,0
0.17147395,-1.5293442,1.3143122,0.053003713,-0.75774652,0.65039253,0
0.38888937,1.9005575,-0.61941838,-0.053003713,0.75774652,-0.65039253,0
-0.88579923,-0.82322919,-0.96437454,-0.70454931,-0.48993874,-0.5133909,0
1.2409348,1.3102709,-0.055461168,0.70454931,0.48993874,0.5133909,0
-0.022907019,-1.0535117,1.7621415,0.053003713,-0.75774652,0.65039253,0
1.2822416,-0.44945118,1.4255313,0.70454931,0.48993874,0.5133909,0
-1.3571612,-0.37986627,-0.35203186,-0.70454931,-0.48993874,-0.5133909,0
-0.83734989,-1.6431212,0.9928416,-0.70767283,0.43102193,0.55983835,0
-0.46106678,-1.7725155,0.87205124,0.053003713,-0.75774652,0.65039253,0
-0.7106151,-1.3227495,-0.8954097,0.70767283,-0.43102193,-0.55983835,0
-0.093501806,1.5773067,-1.4805348,-0.053003713,0.75774652,-0.65039253,0
-0.036928773,1.0703712,-1.5825698,-0.053003713,0.75774652,-0.65039253,0
1.0895729,0.26934418,1.0996941,0.70454931,0.48993874,0.5133909,0
-1.5021768,-1.4565494,0.37129176,-0.70454931,-0.48993874,-0.5133909,0
-0.855923,0.80310112,-2.069149,-0.053003713,0.75774652,-0.65039253,0
1.293855,2.0062516,-0.9310019,-0.053003713,0.75774652,-0.65039253,0
0.3505215,-1.5550919,0.6987431,0.70767283,-0.43102193,-0.55983835,0
1.1460116,2.1820478,-0.77727771,-0.053003713,0.75774652,-0.65039253,0
-0.31419533,-2.0085168,0.57206321,0.053003713,-0.75774652,0.65039253,0
0.40464756,1.5249201,-1.0751191,-0.053003713,0.75774652,-0.65039253,0
-0.79619402,-1.7243313,0.8844285,0.053003713,-0.75774652,0.65039253,0
0.35164627,-0.69155025,-0.18290961,0.70767283,-0.43102193,-0.55983835,0
-0.66104108,1.1101999,-0.68873227,-0.70767283,0.43102193,0.55983835,0
0.83486998,0.72555292,1.2356052,0.70454931,0.48993874,0.5133909,0
-0.96777821,0.78265834,-2.2579579,-0.053003713,0.75774652,-0.65039253,0
0.55792844,-0.7836228,1.8788999,0.053003713,-0.75774652,0.65039253,0
1.2421334,-0.0072109699,1.4291313,0.70454931,0.48993874,0.5133909,0
-0.83318788,-0.3958199,-1.3668948,-0.70454931,-0.48993874,-0.5133909,0
0.862831,-0.95280278,0.97062206,0.70767283,-0.43102193,-0.55983835,0
0.85061562,2.1986368,-0.32327294,-0.053003713,0.75774652,-0.65039253,0
0.92314899,1.6180472,-0.84079468,0.70767283,-0.43102193,-0.55983835,0
0.95760041,0.034582153,0.29719782,0.70767283,-0.43102193,-0.55983835,0
0.9309392,0.95076001,0.87138581,0.70454931,0.48993874,0.5133909,0
-0.20101801,-0.86529648,1.1641711,-0.70767283,0.43102193,0.55983835,0
1.2094097,-0.80252492,1.8160018,0.053003713,-0.75774652,0.65039253,0
0.37958655,-1.2649306,1.269478,0.053003713,-0.75774652,0.65039253,0
1.5032748,1.1032932,0.0081134439,0.70454931,0.48993874,0.5133909,0
0.81194723,-1.0728632,2.0052261,0.053003713,-0.75774652,0.65039253,0
0.75093144,1.1185648,0.94931149,0.70454931,0.48993874,0.5133909,0
-1.068349,-1.5449305,0.2359699,-0.70454931,-0.48993874,-0.5133909,0
-0.53052074,0.4082312,-0.40986454,-0.70767283,0.43102193,0.55983835,0
-1.1593626,1.4118855,-1.3393819,-0.70767283,0.43102193,0.55983835,0
1.224946,1.2703376,0.11772025,0.70454931,0.48993874,0.5133909,0
0.97400951,0.77091336,0.68184042,0.70454931,0.48993874,0.5133909,0
-0.10682255,-0.066948295,-1.3196822,0.70767283,-0.43102193,-0.55983835,0
0.55061805,1.5775604,-1.4648595,-0.053003713,0.75774652,-0.65039253,0
-0.11940591,-1.8794799,0.56284547,0.70767283,-0.43102193,-0.55983835,0
-0.10160923,1.4123578,-1.4577299,-0.053003713,0.75774652,-0.65039253,0
1.2313551,1.902563,-0.24168527,0.70454931,0.48993874,0.5133909,0
-0.94369346,-2.2069037,0.22698832,-0.70454931,-0.48993874,-0.5133909,0
-1.0886507,-0.37217638,-1.0848564,-0.70454931,-0.48993874,-0.5133909,0
0.21543509,-1.7053082,1.3251443,0.053003713,-0.75774652,0.65039253,0
0.98634589,1.0434132,0.41609386,0.70454931,0.48993874,0.5133909,0
-1.2132635,-0.3135668,-0.72151917,-0.70767283,0.43102193,0.55983835,0
1.0589826,0.40999269,1.0983952,0.70454931,0.48993874,0.5133909,0
-0.97225851,1.0258135,-1.5242718,-0.053003713,0.75774652,-0.65039253,0
0.94219202,2.282269,-0.58844256,-0.053003713,0.75774652,-0.65039253,0
0.33700758,-0.27728605,1.7629771,-0.70767283,0.43102193,0.55983835,0
0.73140287,1.6635983,0.29539025,0.70454931,0.48993874,0.5133909,0
-0.80170691,1.3492463,-1.563735,-0.053003713,0.75774652,-0.65039253,0
-0.8877598,1.2867174,-1.1766907,-0.70767283,0.43102193,0.55983835,0
0.68468434,1.0511906,0.62806427,0.70454931,0.48993874,0.5133909,0
-0.15628815,-2.1504145,0.85411525,0.053003713,-0.75774652,0.65039253,0
-0.82424754,1.4076972,-1.5781264,-0.053003713,0.75774652,-0.65039253,0
0.37767196,-0.34616482,1.7302775,-0.70767283,0.43102193,0.55983835,0
-0.92961943,-1.5208448,-0.0079233646,-0.70454931,-0.48993874,-0.5133909,0
0.36583501,0.60231131,-0.98648989,0.70767283,-0.43102193,-0.55983835,0
0.0091697276,-0.1081031,-0.56444079,0.70767283,-0.43102193,-0.55983835,0
0.65232587,-0.59764689,0.71942377,0.70767283,-0.43102193,-0.55983835,0
-0.8081758,-2.4805479,0.37141252,0.053003713,-0.75774652,0.65039253,0
1.1468573,1.6162114,-0.81889415,0.70767283,-0.43102193,-0.55983835,0
-1.0168636,0.82924396,-1.8858829,-0.053003713,0.75774652,-0.65039253,0
-0.75801927,-1.9475734,0.69640708,0.053003713,-0.75774652,0.65039253,0
1.346113,0.71533656,0.5874936,0.70767283,-0.43102193,-0.55983835,0
1.3253961,-0.84411597,1.8429866,0.053003713,-0.75774652,0.65039253,0
0.80335033,1.7681994,-0.99200535,-0.053003713,0.75774652,-0.65039253,0
0.39397344,2.0150809,-0.76723599,-0.053003713,0.75774652,-0.65039253,0
-0.055734158,-0.17338622,-1.0589824,0.70767283,-0.43102193,-0.55983835,0
-0.40163785,1.319592,-1.6051921,-0.053003713,0.75774652,-0.65039253,0
-0.54513139,-1.9109213,0.86477733,0.053003713,-0.75774652,0.65039253,0
-0.33024091,-1.7566333,1.1335974,0.053003713,-0.75774652,0.65039253,0
0.10738307,-0.73614305,1.5592897,-0.70767283,0.43102193,0.55983835,0
0.58095032,-1.3052129,1.5246565,0.053003713,-0.75774652,0.65039253,0
0.71388936,1.8898088,0.0015552044,-0.70767283,0.43102193,0.55983835,0
-0.075764269,1.5270507,-1.3296969,-0.053003713,0.75774652,-0.65039253,0
-0.026406348,1.7086535,-0.2746067,-0.70767283,0.43102193,0.55983835,0
-1.1777868,-1.9645818,0.54519081,-0.70454931,-0.48993874,-0.5133909,0
-0.074937731,-1.5331086,1.1703897,0.053003713,-0.75774652,0.65039253,0
-1.18311,-0.070252717,-0.93744123,-0.70454931,-0.48993874,-0.5133909,0
-0.80776751,-0.90115631,0.69578165,-0.70767283,0.43102193,0.55983835,0
0.69435978,1.2138697,0.56459159,-0.70767283,0.43102193,0.55983835,0
-0.77866513,-1.7449331,1.0560976,0.053003713,-0.75774652,0.65039253,0
-0.27911949,-1.0435482,1.610736,0.053003713,-0.75774652,0.65039253,0
-1.1475365,1.176123,-1.8378906,-0.053003713,0.75774652,-0.65039253,0
-1.1506475,-2.0879247,0.75484967,0.053003713,-0.75774652,0.65039253,0
-0.84534049,-1.1726921,-0.33757448,-0.70454931,-0.48993874,-0.5133909,0
1.0224245,0.22138989,0.46983814,0.70767283,-0.43102193,-0.55983835,0
-1.4978125,0.35088438,-1.3171088,-0.70454931,-0.48993874,-0.5133909,0
-0.10055278,-2.059,0.41193151,0.053003713,-0.75774652,0.65039253,0
1.2010968,1.9779084,-0.74536133,0.70454931,0.48993874,0.5133909,0
0.64499611,-1.2780706,0.88507068,0.70767283,-0.43102193,-0.55983835,0
-0.86747181,-0.11869282,0.22838646,-0.70767283,0.43102193,0.55983835,0
0.13638967,-1.9148927,1.1280909,0.053003713,-0.75774652,0.65039253,0
-0.622168,-1.7452682,-0.20728064,0.70767283,-0.43102193,-0.55983835,0
-0.098150611,-1.3881423,1.5434101,0.053003713,-0.75774652,0.65039253,0
1.2574283,-0.89816338,1.8270699,0.70454931,0.48993874,0.5133909,0
-1.1815176,0.84765005,-0.98566926,-0.70767283,0.43102193,0.55983835,0
-0.8222028,-1.5878065,1.040684,0.053003713,-0.75774652,0.65039253,0
0.89698088,1.7535487,-0.94372141,-0.053003713,0.75774652,-0.65039253,0
-0.59240592,0.90159088,-2.0187206,-0.053003713,0.75774652,-0.65039253,0
0.4203862,-1.0083547,2.1705141,0.053003713,-0.75774652,0.65039253,0
0.63950861,-0.80615771,2.1737928,0.053003713,-0.75774652,0.65039253,0
0.7750805,1.2163889,0.84688938,0.70454931,0.48993874,0.5133909,0
-0.41552207,-0.69300413,-0.56023085,0.70767283,-0.43102193,-0.55983835,0
-0.52430314,-2.4392586,0.12040687,-0.70454931,-0.48993874,-0.5133909,0
-0.74362338,1.0433888,-1.849816,-0.053003713,0.75774652,-0.65039253,0
-0.66430998,0.026070893,0.3346968,-0.70767283,0.43102193,0.55983835,0
0.048807085,1.5167177,-1.123835,-0.053003713,0.75774652,-0.65039253,0
0.56097651,2.1043715,-0.62644458,-0.053003713,0.75774652,-0.65039253,0
-0.92588186,0.9305076,-1.7808805,-0.053003713,0.75774652,-0.65039253,0
0.96206456,-0.1397934,0.098758519,0.70767283,-0.43102193,-0.55983835,0
-0.38855708,-1.8802338,0.90782499,0.053003713,-0.75774652,0.65039253,0
-0.66558123,-2.0639894,0.24927211,-0.70454931,-0.48993874,-0.5133909,0
-1.2449565,0.9964956,-1.8869449,-0.053003713,0.75774652,-0.65039253,0
-0.93899274,-0.14914715,-1.6741683,-0.70454931,-0.48993874,-0.5133909,0
0.82189041,-0.56302917,1.9708014,0.70454931,0.48993874,0.5133909,0
-0.36875024,-1.9799018,1.0859802,0.053003713,-0.75774652,0.65039253,0
-0.63166201,-1.9458816,0.79148889,0.053003713,-0.75774652,0.65039253,0
-0.41496256,-2.1633949,0.77269101,0.053003713,-0.75774652,0.65039253,0
-0.35381621,-1.1195554,1.1310359,-0.70767283,0.43102193,0.55983835,0
-0.13333578,-1.7981441,0.76493144,0.053003713,-0.75774652,0.65039253,0
0.46650353,-1.546895,0.60192776,0.70767283,-0.43102193,-0.55983835,0
0.54262125,2.2813611,-0.40626121,-0.053003713,0.75774652,-0.65039253,0
0.16020602,-1.5288032,1.4845898,0.053003713,-0.75774652,0.65039253,0
-1.1353924,-0.38506573,-1.2258191,-0.70454931,-0.48993874,-0.5133909,0
-0.58452958,-2.3922811,0.62905264,0.053003713,-0.75774652,0.65039253,0
-0.54406911,1.2950453,-1.4112414,-0.053003713,0.75774652,-0.65039253,0
1.214499,-0.0625453,1.6036566,0.70454931,0.48993874,0.5133909,0
-1.3970094,0.44703701,-1.1612084,-0.70454931,-0.48993874,-0.5133909,0
-1.2988175,-0.80876935,-0.23756188,-0.70454931,-0.48993874,-0.5133909,0
-0.61716509,-1.8848563,-0.075155735,-0.70454931,-0.48993874,-0.5133909,0
-1.0137419,-1.8544731,0.00616467,-0.70454931,-0.48993874,-0.5133909,0
0.13648988,1.5376174,-0.18157363,-0.70767283,0.43102193,0.55983835,0
1.3648155,1.8635452,-0.5250833,0.70454931,0.48993874,0.5133909,0
0.10665131,-0.9016462,1.7946182,-0.70767283,0.43102193,0.55983835,0
-0.52835828,-0.2379595,0.60702902,-0.70767283,0.43102193,0.55983835,0
-1.3330159,0.85354233,-2.0447676,-0.053003713,0.75774652,-0.65039253,0
0.87090743,-0.23439321,0.40187365,0.70767283,-0.43102193,-0.55983835,0
-0.58434486,1.0856891,-0.50839627,-0.70767283,0.43102193,0.55983835,0
0.68044293,-0.68885934,2.1299098,0.053003713,-0.75774652,0.65039253,0
0.15972301,-1.7041583,0.53094792,0.70767283,-0.43102193,-0.55983835,0
1.0351834,0.10603568,1.0598289,0.70454931,0.48993874,0.5133909,0
0.98850751,-0.43980253,0.74421161,0.70767283,-0.43102193,-0.55983835,0
0.60367763,-1.0819288,1.7698762,0.053003713,-0.75774652,0.65039253,0
-1.4494767,-0.56241035,-0.27206984,-0.70767283,0.43102193,0.55983835,0
0.52870339,1.5927578,-1.2530206,-0.053003713,0.75774652,-0.65039253,0
-0.91648597,-0.93410712,0.63192695,-0.70767283,0.43102193,0.55983835,0
0.75499988,2.2837245,-0.53909588,-0.053003713,0.75774652,-0.65039253,0
-0.65517956,-1.4558843,-0.50402081,-0.70454931,-0.48993874,-0.5133909,0
0.49332857,0.14014077,1.4993941,-0.70767283,0.43102193,0.55983835,0
-1.0473039,-1.8399115,-0.097437859,-0.70454931,-0.48993874,-0.5133909,0
-1.2766358,0.62094092,-1.5584304,-0.70454931,-0.48993874,-0.5133909,0
1.1391689,-0.68463552,1.8192493,0.70454931,0.48993874,0.5133909,0
0.88733947,-1.336699,1.3966267,0.053003713,-0.75774652,0.65039253,0
-0.17126516,0.43084002,0.55658984,-0.70767283,0.43102193,0.55983835,0
-0.34184158,-1.7731667,1.2903042,0.053003713,-0.75774652,0.65039253,0
1.0902014,-0.7679916,2.0187259,0.053003713,-0.75774652,0.65039253,0
0.023969412,-0.051234365,1.3162539,-0.70767283,0.43102193,0.55983835,0
-0.96971822,-1.1451488,-0.67146146,-0.70454931,-0.48993874,-0.5133909,0
-0.28180748,1.6110165,-1.2414017,-0.053003713,0.75774652,-0.65039253,0
0.16444904,1.1203454,-1.7078488,-0.053003713,0.75774652,-0.65039253,0
-0.53387105,-1.3611816,-0.51371163,-0.70454931,-0.48993874,-0.5133909,0
-0.65116131,-0.10277712,-1.4947057,0.70767283,-0.43102193,-0.55983835,0
1.3426455,0.9496727,0.44191206,0.70454931,0.48993874,0.5133909,0
0.74901962,-0.96241522,1.0936115,0.70767283,-0.43102193,-0.55983835,0
0.90248263,1.8232614,0.057006001,0.70454931,0.48993874,0.5133909,0
-0.46126541,-1.8439282,1.0873473,0.053003713,-0.75774652,0.65039253,0
-0.54245538,-1.3414208,-0.52388185,-0.70454931,-0.48993874,-0.5133909,0
-1.0397768,1.1430782,-1.452206,-0.053003713,0.75774652,-0.65039253,0
0.84746236,-1.6563193,1.3772011,0.053003713,-0.75774652,0.65039253,0
-1.2330291,-1.3332078,-0.15536737,-0.70454931,-0.48993874,-0.5133909,0
0.75505769,0.1780256,1.5460491,0.70454931,0.48993874,0.5133909,0
-0.73115712,-1.0515041,-0.59701449,-0.70454931,-0.48993874,-0.5133909,0
-0.31042451,1.392756,-1.4182687,-0.053003713,0.75774652,-0.65039253,0
-0.062026143,-0.3806988,1.0392151,-0.70767283,0.43102193,0.55983835,0
-1.1009464,-2.2065647,0.56880474,0.053003713,-0.75774652,0.65039253,0
-0.66478479,-2.2898936,0.71276855,0.053003713,-0.75774652,0.65039253,0
0.6557225,1.6884387,0.14923573,-0.70767283,0.43102193,0.55983835,0
0.97447467,1.9430139,0.094946623,0.70454931,0.48993874,0.5133909,0
-1.0537131,-1.5364485,1.0677541,-0.70767283,0.43102193,0.55983835,0
1.0960785,1.1509366,0.0096310377,0.70454931,0.48993874,0.5133909,0
0.8912611,-0.58916748,2.1086173,0.70454931,0.48993874,0.5133909,0
-0.0017833412,-1.6950763,1.2308919,0.053003713,-0.75774652,0.65039253,0
0.023320317,0.38633466,-1.0583884,0.70767283,-0.43102193,-0.55983835,0
0.25666547,-0.82694757,1.8726984,-0.70767283,0.43102193,0.55983835,0
0.76788771,-0.53261697,2.2268503,0.70454931,0.48993874,0.5133909,0
1.0315142,-0.061571207,0.68452573,0.70767283,-0.43102193,-0.55983835,0
0.52579772,-0.7568925,0.16496992,0.70767283,-0.43102193,-0.55983835,0
-0.012383223,-1.6845534,0.84647274,0.053003713,-0.75774652,0.65039253,0
1.293113,1.0685771,-0.18893421,0.70454931,0.48993874,0.5133909,0
0.55691546,-0.65857208,0.053276956,0.70767283,-0.43102193,-0.55983835,0
-1.1358588,-0.35433334,-0.19134159,-0.70767283,0.43102193,0.55983835,0
-1.0916761,-0.90722865,0.41151559,-0.70767283,0.43102193,0.55983835,0
1.3045183,0.36304399,0.975977,0.70454931,0.48993874,0.5133909,0
0.33265233,-0.44474787,1.4057508,-0.70767283,0.43102193,0.55983835,0
-1.3135312,0.18492819,-0.9120177,-0.70454931,-0.48993874,-0.5133909,0
0.043168306,0.90585589,0.24581909,-0.70767283,0.43102193,0.55983835,0
-1.1155988,1.2300761,-1.4816289,-0.053003713,0.75774652,-0.65039253,0
-0.9076407,-1.5144765,1.2315278,0.053003713,-0.75774652,0.65039253,0
0.063302994,0.61546105,0.76927388,-0.70767283,0.43102193,0.55983835,0
0.3408196,0.43312961,0.80743837,-0.70767283,0.43102193,0.55983835,0
-0.34487593,1.2242274,-1.3310566,-0.053003713,0.75774652,-0.65039253,0
-1.1530378,-1.6767347,0.381809,-0.70767283,0.43102193,0.55983835,0
1.2573195,0.77040553,0.50746298,0.70454931,0.48993874,0.5133909,0
0.82824498,-0.90720463,2.0236878,0.053003713,-0.75774652,0.65039253,0
0.85375655,-0.83005428,0.89980721,0.70767283,-0.43102193,-0.55983835,0
1.3426235,-0.037480414,1.4060869,0.70454931,0.48993874,0.5133909,0
1.005258,1.1677899,0.086237907,0.70454931,0.48993874,0.5133909,0
-1.0344177,-0.39116082,-0.84164786,-0.70454931,-0.48993874,-0.5133909,0
-1.147557,-0.34326512,-0.87282479,-0.70454931,-0.48993874,-0.5133909,0
-0.35819665,-2.3079233,0.27828717,0.70767283,-0.43102193,-0.55983835,0
-0.39766091,-2.2065315,-0.009973526,0.70767283,-0.43102193,-0.55983835,0
-0.61200607,-1.6407031,-0.40681934,-0.70454931,-0.48993874,-0.5133909,0
0.92014599,0.0080617666,1.9248891,0.70454931,0.48993874,0.5133909,0
-0.20115757,-1.4548435,1.6101187,0.053003713,-0.75774652,0.65039253,0
0.96195149,0.31559217,1.3568603,0.70454931,0.48993874,0.5133909,0
-0.88062537,-2.1464577,0.0013673306,-0.70454931,-0.48993874,-0.5133909,0
1.1739531,2.1469345,-0.8151226,-0.053003713,0.75774652,-0.65039253,0
0.96559036,1.6101838,-1.0111291,-0.053003713,0.75774652,-0.65039253,0
-0.76467681,0.31019869,-0.34814799,-0.70767283,0.43102193,0.55983835,0
0.98069298,-0.25752342,2.0472393,0.70454931,0.48993874,0.5133909,0
0.92749822,-0.92702889,0.82551086,0.70767283,-0.43102193,-0.55983835,0
-0.25352049,-1.3070343,1.4669112,0.053003713,-0.75774652,0.65039253,0
-0.17455184,-0.4873029,-0.66131699,0.70767283,-0.43102193,-0.55983835,0
0.06632787,1.2839185,-1.3643689,-0.053003713,0.75774652,-0.65039253,0
-0.41941306,-0.44143718,0.90580398,-0.70767283,0.43102193,0.55983835,0
1.1540403,2.1465652,-0.54352522,-0.053003713,0.75774652,-0.65039253,0
0.23899004,1.4745078,-1.1614448,-0.053003713,0.75774652,-0.65039253,0
0.34248114,-1.0369692,1.6386731,0.053003713,-0.75774652,0.65039253,0
-0.011160612,-1.5734938,1.3691516,0.053003713,-0.75774652,0.65039253,0
-1.2420087,0.13246518,-1.3713622,-0.70454931,-0.48993874,-0.5133909,0
1.1151996,2.0103617,-0.98713994,-0.053003713,0.75774652,-0.65039253,0
0.55770731,-0.23885053,-0.03513357,0.70767283,-0.43102193,-0.55983835,0
-0.19101495,-0.62150812,-0.63563919,0.70767283,-0.43102193,-0.55983835,0
1.3722357,-0.54568166,1.5790955,0.70767283,-0.43102193,-0.55983835,0
1.1505942,-0.5186407,2.0583258,0.70454931,0.48993874,0.5133909,0
-1.373298,-1.0756173,0.10868114,-0.70454931,-0.48993874,-0.5133909,0
-0.45242447,-1.5685612,1.0193801,0.053003713,-0.75774652,0.65039253,0
1.0378215,-0.33168387,1.487416,0.70454931,0.48993874,0.5133909,0
0.86112601,1.3071694,0.6964488,0.70454931,0.48993874,0.5133909,0
0.83004951,2.2255926,-0.35068583,0.70454931,0.48993874,0.5133909,0
-1.1764736,0.21554291,-1.7902745,-0.70454931,-0.48993874,-0.5133909,0
0.90643251,-1.1110325,1.0563458,0.70767283,-0.43102193,-0.55983835,0
-1.4127083,0.20941341,-1.1859641,-0.70454931,-0.48993874,-0.5133909,0
1.2422206,1.7564392,-0.79772532,0.70767283,-0.43102193,-0.55983835,0
0.81914651,-0.063198566,1.742646,0.70454931,0.48993874,0.5133909,0
-0.34426039,1.0637791,-0.4418143,-0.70767283,0.43102193,0.55983835,0
-1.0837705,0.39345294,-1.5488254,-0.70454931,-0.48993874,-0.5133909,0
-0.97198492,-0.25520116,-1.0072424,-0.70454931,-0.48993874,-0.5133909,0
1.4307687,1.2641861,-0.17920601,0.70454931,0.48993874,0.5133909,0
-0.55479169,-2.1140718,0.89661026,0.053003713,-0.75774652,0.65039253,0
0.30005288,-1.511048,1.4790595,0.053003713,-0.75774652,0.65039253,0
-0.29161721,-2.1391389,0.40036321,0.053003713,-0.75774652,0.65039253,0
-0.35442924,-1.7051368,0.27817214,0.70767283,-0.43102193,-0.55983835,0
0.035310864,-0.94855887,1.8264003,0.053003713,-0.75774652,0.65039253,0
1.2467954,1.3602693,-0.59168446,0.70767283,-0.43102193,-0.55983835,0
-0.90632093,-0.0025418997,-1.9834597,-0.70454931,-0.48993874,-0.5133909,0
-0.94122064,-1.4317549,-0.56520993,-0.70454931,-0.48993874,-0.5133909,0
0.73029041,-1.090624,1.7428386,0.053003713,-0.75774652,0.65039253,0
1.0650507,-0.35562456,1.5404246,0.70454931,0.48993874,0.5133909,0
1.2449358,0.21128303,1.2067099,0.70454931,0.48993874,0.5133909,0
0.17484085,2.1108551,-0.81070709,-0.053003713,0.75774652,-0.65039253,0
-1.2887168,-0.35430238,-0.25141194,-0.70767283,0.43102193,0.55983835,0
-1.3133929,1.1005435,-1.4601628,-0.70767283,0.43102193,0.55983835,0
1.2627394,-0.42478573,1.9432561,0.70454931,0.48993874,0.5133909,0
0.01365152,1.6455951,-1.3551633,-0.053003713,0.75774652,-0.65039253,0
1.0171701,0.8949641,1.0381155,0.70454931,0.48993874,0.5133909,0
0.86247057,0.4883576,1.1115971,0.70454931,0.48993874,0.5133909,0
-0.99833238,-0.24587208,-1.4333348,-0.70454931,-0.48993874,-0.5133909,0
0.46618819,0.44742846,0.89202631,-0.70767283,0.43102193,0.55983835,0
0.99809909,1.1852202,0.5028792,0.70454931,0.48993874,0.5133909,0
0.75522745,-0.13041854,1.6921586,-0.70767283,0.43102193,0.55983835,0
0.61055321,1.5950646,-1.5499386,-0.053003713,0.75774652,-0.65039253,0
-0.098686755,1.3073009,-1.8123974,-0.053003713,0.75774652,-0.65039253,0
0.73809117,-1.4037697,1.2706678,0.053003713,-0.75774652,0.65039253,0
-0.27964917,1.7550632,-0.64218092,-0.70767283,0.43102193,0.55983835,0
-1.0343916,-0.071721792,-1.6711236,-0.70454931,-0.48993874,-0.5133909,0
0.48269117,2.0653203,-0.49719334,-0.053003713,0.75774652,-0.65039253,0
1.2164768,0.42226633,0.76363885,0.70454931,0.48993874,0.5133909,0
0.39660519,0.94647741,-0.84723425,0.70767283,-0.43102193,-0.55983835,0
0.40377009,-1.1482641,1.7419791,0.053003713,-0.75774652,0.65039253,0
0.23832762,-0.30744159,1.7728508,-0.70767283,0.43102193,0.55983835,0
-1.0630598,-0.68133664,-1.0227602,-0.70454931,-0.48993874,-0.5133909,0
1.1372788,-0.98029447,1.8950946,0.053003713,-0.75774652,0.65039253,0
-0.72357017,-2.1948345,0.41269732,-0.70454931,-0.48993874,-0.5133909,0
0.29445058,1.5872471,-1.3566844,-0.053003713,0.75774652,-0.65039253,0
0.41602528,0.82556576,0.91422081,-0.70767283,0.43102193,0.55983835,0
-0.73188376,1.3378234,-1.4688718,-0.053003713,0.75774652,-0.65039253,0
0.93769479,-0.89732826,1.8452151,0.053003713,-0.75774652,0.65039253,0
0.4146558,-0.1540693,1.4569261,-0.70767283,0.43102193,0.55983835,0
-0.72420043,-0.34380531,-1.4159181,-0.70454931,-0.48993874,-0.5133909,0
0.18658745,0.88447124,-1.3257807,0.70767283,-0.43102193,-0.55983835,0
-1.0915438,-0.69406372,-0.64881122,-0.70454931,-0.48993874,-0.5133909,0
-1.3779778,0.99621159,-1.9293244,-0.70454931,-0.48993874,-0.5133909,0
-1.2665925,-0.4803766,-0.71150172,-0.70454931,-0.48993874,-0.5133909,0
-0.96204138,-1.9612063,0.020499706,-0.70454931,-0.48993874,-0.5133909,0
0.8831445,1.6518583,-1.2073981,-0.053003713,0.75774652,-0.65039253,0
-0.22257757,0.14997935,-1.5159873,0.70767283,-0.43102193,-0.55983835,0
1.4530429,1.0377593,0.11078197,0.70767283,-0.43102193,-0.55983835,0
0.18857546,1.8942628,-0.59039211,-0.053003713,0.75774652,-0.65039253,0
0.2463935,1.3470848,0.49746543,-0.70767283,0.43102193,0.55983835,0
-0.6088295,0.73811436,-2.0385909,0.70767283,-0.43102193,-0.55983835,0
0.88784683,1.9214636,-0.2345016,0.70454931,0.48993874,0.5133909,0
-0.53559387,-2.0439606,0.91208577,0.053003713,-0.75774652,0.65039253,0
-0.56484854,-2.3694675,0.44014668,-0.70454931,-0.48993874,-0.5133909,0
-0.33388907,-1.7448997,1.2479377,0.053003713,-0.75774652,0.65039253,0
-0.74080127,-1.1242844,-0.64705807,-0.70454931,-0.48993874,-0.5133909,0
0.052671373,-1.0613923,1.8710958,0.053003713,-0.75774652,0.65039253,0
1.1054144,-0.86976808,1.8573791,0.053003713,-0.75774652,0.65039253,0
-0.89737612,1.1619512,-1.5352751,-0.053003713,0.75774652,-0.65039253,0
-0.67158306,-0.52284193,-1.4630811,0.70767283,-0.43102193,-0.55983835,0
0.041833341,-1.4112803,1.3712683,0.053003713,-0.75774652,0.65039253,0
0.19051051,1.7128584,-0.98866749,-0.053003713,0.75774652,-0.65039253,0
1.5214889,-0.13406552,1.1856529,0.70454931,0.48993874,0.5133909,0
-1.0971441,0.64956355,-1.7524492,-0.70454931,-0.48993874,-0.5133909,0
0.79886442,-1.5912521,1.0603166,0.053003713,-0.75774652,0.65039253,0
-0.13637662,-0.94400311,1.4548886,-0.70767283,0.43102193,0.55983835,0
-1.1938496,0.97439605,-1.5807731,-0.70767283,0.43102193,0.55983835,0
-0.78651357,-0.18069875,-1.8512235,-0.70454931,-0.48993874,-0.5133909,0
-1.0351739,0.9674769,-0.86282706,-0.70767283,0.43102193,0.55983835,0
0.79035962,1.9314049,0.22586656,0.70454931,0.48993874,0.5133909,0
-0.27658221,-1.3870299,1.3335578,0.053003713,-0.75774652,0.65039253,0
0.55584937,1.7597563,-1.1456094,-0.053003713,0.75774652,-0.65039253,0
-0.52567804,0.23532794,-0.080323517,-0.70767283,0.43102193,0.55983835,0
0.72775602,0.23405433,-0.16338187,0.70767283,-0.43102193,-0.55983835,0
-1.321862,0.78915286,-1.7062525,-0.70454931,-0.48993874,-0.5133909,0
-0.22104439,0.22811216,0.69512457,-0.70767283,0.43102193,0.55983835,0
1.4377201,0.078621514,0.67515028,0.70454931,0.48993874,0.5133909,0
1.1367873,-0.22829682,1.5403525,0.70454931,0.48993874,0.5133909,0
0.094295681,1.5726755,-0.94820952,-0.053003713,0.75774652,-0.65039253,0
-1.0056636,-1.1181079,-0.1990903,-0.70454931,-0.48993874,-0.5133909,0
0.84810281,-0.64210582,2.1803837,0.70454931,0.48993874,0.5133909,0
-1.0367113,-1.6183321,-0.1152302,-0.70454931,-0.48993874,-0.5133909,0
-0.40735459,-0.1770817,0.86246943,-0.70767283,0.43102193,0.55983835,0
1.0992292,1.5840199,-0.076260805,0.70454931,0.48993874,0.5133909,0
-0.65835714,-2.1491299,0.76223874,0.053003713,-0.75774652,0.65039253,0
0.3778742,1.9623832,-0.91140151,-0.053003713,0.75774652,-0.65039253,0
1.3979558,-0.57653201,1.4957933,0.70767283,-0.43102193,-0.55983835,0
-0.77157217,1.1468242,-1.5969337,-0.053003713,0.75774652,-0.65039253,0
-0.32336003,-1.4066368,1.5982596,0.053003713,-0.75774652,0.65039253,0
-0.94188249,-1.2540951,-0.35499436,-0.70454931,-0.48993874,-0.5133909,0
1.0035046,-1.2061549,1.5301055,0.70767283,-0.43102193,-0.55983835,0
-0.84785569,-2.3712342,0.30736756,-0.70454931,-0.48993874,-0.5133909,0
-1.3708044,-0.48785749,-0.6528796,-0.70454931,-0.48993874,-0.5133909,0
-0.17550159,0.61629522,0.11656529,-0.70767283,0.43102193,0.55983835,0
0.43819273,2.226234,-0.63231039,-0.053003713,0.75774652,-0.65039253,0
-0.072427243,-1.6931045,1.0027735,0.053003713,-0.75774652,0.65039253,0
0.6046555,2.3198156,-0.68033838,-0.053003713,0.75774652,-0.65039253,0
-0.99572587,-1.7692678,0.42320597,-0.70454931,-0.48993874,-0.5133909,0
-0.00090461969,1.2699856,-1.6068708,-0.053003713,0.75774652,-0.65039253,0
-1.1151569,-1.0329496,-0.49521554,-0.70454931,-0.48993874,-0.5133909,0
-0.51207817,-1.9516917,-0.30929089,-0.70454931,-0.48993874,-0.5133909,0
0.50604439,1.9348521,-0.2330091,-0.70767283,0.43102193,0.55983835,0
-0.35728008,-0.98022115,-0.2724604,0.70767283,-0.43102193,-0.55983835,0
0.82058764,1.1210222,1.0570776,-0.70767283,0.43102193,0.55983835,0
0.7153331,0.0090453476,0.31909785,0.70767283,-0.43102193,-0.55983835,0
-0.68682009,0.96528542,-1.8733003,-0.053003713,0.75774652,-0.65039253,0
0.66949654,0.30207932,1.450317,-0.70767283,0.43102193,0.55983835,0
-0.31832105,-1.1107223,-0.69083625,0.70767283,-0.43102193,-0.55983835,0
1.5764393,0.55565506,0.49474022,0.70454931,0.48993874,0.5133909,0
0.80793679,1.2322772,0.35012543,0.70454931,0.48993874,0.5133909,0
1.3597076,1.4522197,-0.50329995,0.70454931,0.48993874,0.5133909,0
-0.045911461,1.5098612,-1.0242283,-0.053003713,0.75774652,-0.65039253,0
-0.84593952,1.1418775,-1.3908681,-0.053003713,0.75774652,-0.65039253,0
0.37868857,2.2645478,-0.51086712,-0.70767283,0.43102193,0.55983835,0
0.10592346,-0.95880455,-0.039379358,0.70767283,-0.43102193,-0.55983835,0
-0.84937531,0.16248436,-0.31374216,-0.70767283,0.43102193,0.55983835,0
-0.70426899,-1.6302056,1.3057752,0.053003713,-0.75774652,0.65039253,0
1.2500024,0.98328376,0.65511465,0.70454931,0.48993874,0.5133909,0
-0.57442153,1.6843779,-0.90975118,-0.70767283,0.43102193,0.55983835,0
0.0074780136,2.1969252,-0.56136847,-0.053003713,0.75774652,-0.65039253,0
-1.3880401,0.27374411,-1.3454516,-0.70454931,-0.48993874,-0.5133909,0
1.0104773,1.2319345,0.65054464,0.70454931,0.48993874,0.5133909,0
-0.74175763,-0.50264114,-1.1450502,-0.70454931,-0.48993874,-0.5133909,0
0.63849264,2.008779,-0.88994956,-0.053003713,0.75774652,-0.65039253,0
0.8359741,-0.091801226,-0.024254799,0.70767283,-0.43102193,-0.55983835,0
0.45751333,0.15500411,-0.13987902,0.70767283,-0.43102193,-0.55983835,0
0.73309511,0.94025165,0.88333464,-0.70767283,0.43102193,0.55983835,0
-1.1959867,1.0237305,-2.0499454,-0.053003713,0.75774652,-0.65039253,0
0.99203962,1.9742944,-0.83808422,-0.053003713,0.75774652,-0.65039253,0
-0.56844121,-0.76454288,1.1172758,-0.70767283,0.43102193,0.55983835,0
-0.84087926,1.0375404,-1.9553699,-0.053003713,0.75774652,-0.65039253,0
1.1413794,1.3500026,0.38611031,0.70454931,0.48993874,0.5133909,0
0.91897488,0.91399336,0.83658463,0.70454931,0.48993874,0.5133909,0
0.50797933,0.05260551,1.3719498,-0.70767283,0.43102193,0.55983835,0
-0.77849126,-1.9486525,0.86731124,0.053003713,-0.75774652,0.65039253,0
-0.081759691,1.4904065,-1.5879476,-0.053003713,0.75774652,-0.65039253,0
0.96096814,-0.84557539,1.7739322,0.053003713,-0.75774652,0.65039253,0
1.0207075,-0.098821998,1.9287694,0.70454931,0.48993874,0.5133909,0
-0.47972196,-2.0638988,0.82237625,0.053003713,-0.75774652,0.65039253,0
-1.3456829,-0.87678486,-0.41096687,-0.70454931,-0.48993874,-0.5133909,0
-1.1848649,0.45285487,-1.7393492,-0.70454931,-0.48993874,-0.5133909,0
-0.77955019,1.5882212,-1.4339707,-0.053003713,0.75774652,-0.65039253,0
0.6375851,-1.3302749,0.97150564,0.70767283,-0.43102193,-0.55983835,0
0.73030901,1.6651084,-1.0508476,-0.053003713,0.75774652,-0.65039253,0
0.0020807385,-1.2475947,0.056803107,0.70767283,-0.43102193,-0.55983835,0
-0.1312905,-1.9008274,0.6882689,0.053003713,-0.75774652,0.65039253,0
-0.23896706,-1.8652058,0.57045221,0.70767283,-0.43102193,-0.55983835,0
1.345894,1.5275242,-0.078961253,0.70454931,0.48993874,0.5133909,0
-0.046918571,-1.9057715,0.50335765,0.70767283,-0.43102193,-0.55983835,0
-1.505918,0.30677217,-0.95073408,-0.70767283,0.43102193,0.55983835,0
0.43305141,-1.5333651,1.3420064,0.053003713,-0.75774652,0.65039253,0
-0.18180341,0.51193261,0.3110162,-0.70767283,0.43102193,0.55983835,0
0.94809854,0.38537049,1.5464387,0.70454931,0.48993874,0.5133909,0
0.16144449,-0.0088008642,1.2344614,-0.70767283,0.43102193,0.55983835,0
0.59870559,2.2126064,-0.039843082,0.70454931,0.48993874,0.5133909,0
-0.42091233,1.3245214,-1.3998393,-0.053003713,0.75774652,-0.65039253,0
-0.62852812,0.16362572,-2.0793278,0.70767283,-0.43102193,-0.55983835,0
1.2451581,0.71990561,-0.10001072,0.70767283,-0.43102193,-0.55983835,0
0.76612139,2.3159921,-0.67213154,-0.053003713,0.75774652,-0.65039253,0
1.0392926,1.9238336,-0.67289996,0.70454931,0.48993874,0.5133909,0
-1.3554125,0.0046972409,-0.72788858,-0.70767283,0.43102193,0.55983835,0
0.6083746,2.6290174,-0.22943687,0.70454931,0.48993874,0.5133909,0
-1.5017977,0.52144909,-1.20925,-0.70454931,-0.48993874,-0.5133909,0
-0.29815286,-1.8819546,0.77046895,0.053003713,-0.75774652,0.65039253,0
0.83739549,2.4069426,-0.58259583,-0.053003713,0.75774652,-0.65039253,0
-1.3481654,0.88348526,-1.5299218,-0.70767283,0.43102193,0.55983835,0
-0.47988954,1.5498197,-1.283206,-0.053003713,0.75774652,-0.65039253,0
-0.17492622,-0.30829847,-1.1831686,0.70767283,-0.43102193,-0.55983835,0
1.0261127,-0.34560609,1.8130488,0.70454931,0.48993874,0.5133909,0
-0.093429893,-1.7077999,0.92249036,0.053003713,-0.75774652,0.65039253,0
-1.093241,0.21584338,-1.5433741,-0.70454931,-0.48993874,-0.5133909,0
0.34208339,-1.3587333,1.1964564,0.053003713,-0.75774652,0.65039253,0
0.32384437,-1.344462,1.7275168,0.053003713,-0.75774652,0.65039253,0
0.63547915,-0.92587322,1.6909945,0.053003713,-0.75774652,0.65039253,0
0.35208666,-0.96894312,0.50337553,0.70767283,-0.43102193,-0.55983835,0
-0.85394681,-0.035188198,-1.6928476,-0.70454931,-0.48993874,-0.5133909,0
-0.118222,-1.5742884,1.2342163,0.053003713,-0.75774652,0.65039253,0
-0.088915944,-1.3015163,1.8087991,0.053003713,-0.75774652,0.65039253,0
-1.3202327,0.49418786,-1.6695714,-0.70454931,-0.48993874,-0.5133909,0
0.80215102,-1.1171991,1.4931782,0.053003713,-0.75774652,0.65039253,0
-0.97549951,-0.15287411,-1.2484517,-0.70454931,-0.48993874,-0.5133909,0
0.43305761,0.98679543,0.667377,-0.70767283,0.43102193,0.55983835,0
-1.0629013,0.64707774,-1.2555574,-0.70767283,0.43102193,0.55983835,0
0.1964082,2.2823095,-0.52863026,-0.053003713,0.75774652,-0.65039253,0
-1.1912398,-1.0668782,-0.37367317,-0.70454931,-0.48993874,-0.5133909,0
-0.68451524,-2.1910071,0.61615801,0.053003713,-0.75774652,0.65039253,0
0.86486244,0.36007226,1.563876,0.70454931,0.48993874,0.5133909,0
0.21208388,1.2929862,-1.8070084,-0.053003713,0.75774652,-0.65039253,0
0.30890208,-1.2741398,1.3246853,0.053003713,-0.75774652,0.65039253,0
0.74204791,-0.89008677,2.012485,0.053003713,-0.75774652,0.65039253,0
-0.15770829,-1.7001364,1.264698,0.053003713,-0.75774652,0.65039253,0
-0.1474978,-1.5572681,1.2317597,0.053003713,-0.75774652,0.65039253,0
-0.17973566,0.88147795,-2.1532459,0.70767283,-0.43102193,-0.55983835,0
0.019842505,1.7234703,-1.1248457,-0.053003713,0.75774652,-0.65039253,0
0.6796813,-0.13119623,0.13785198,0.70767283,-0.43102193,-0.55983835,0
-0.70742857,-1.5262908,1.0803763,-0.70767283,0.43102193,0.55983835,0
-0.011414707,1.0882152,-1.5498641,-0.053003713,0.75774652,-0.65039253,0
-0.52830517,-0.57593638,0.88953125,-0.70767283,0.43102193,0.55983835,0
-1.0447853,0.18978322,-1.8781049,-0.70454931,-0.48993874,-0.5133909,0
-0.75919831,1.0608137,-0.57237375,-0.70767283,0.43102193,0.55983835,0
-0.46503162,-2.0980964,0.89884758,0.053003713,-0.75774652,0.65039253,0
-0.073836088,1.2428148,-1.3630642,-0.053003713,0.75774652,-0.65039253,0
