2.9092917,0.29794034,-1.6965566,0.60290927,-0.16300024,-0.78098094,0
-2.7893825,-0.056959622,1.6470213,-0.60290927,0.16300024,0.78098094,0
-3.1142888,-0.35158616,0.036473513,-0.79777867,-0.13181299,-0.58836597,0
-3.642854,0.15498587,0.36414129,-0.79777867,-0.13181299,-0.58836597,0
-2.1710968,-0.52412295,0.69299549,0.0070396326,-0.9777813,0.20950939,0
-3.6096334,0.058450371,0.89285666,-0.60290927,0.16300024,0.78098094,0
2.0728598,0.32687411,1.2212327,0.79777867,0.13181299,0.58836597,0
0.27635846,0.13262634,-2.2681079,-0.0070396326,0.9777813,-0.20950939,0
-2.5860755,0.021627203,2.0121536,-0.60290927,0.16300024,0.78098094,0
3.5389435,-0.011420161,-0.7807675,0.79777867,0.13181299,0.58836597,0
2.7756987,0.23593935,0.11557944,0.79777867,0.13181299,0.58836597,0
1.9886203,0.68825662,1.5130948,0.79777867,0.13181299,0.58836597,0
1.6382127,-0.79324669,-0.67173505,0.0070396326,-0.9777813,0.20950939,0
2.9083343,-0.1864204,0.43719107,0.79777867,0.13181299,0.58836597,0
0.7095294,-1.0589312,-2.8223357,0.60290927,-0.16300024,-0.78098094,0
-1.9529774,-0.6864146,-0.095882997,0.0070396326,-0.9777813,0.20950939,0
1.2886103,-0.40439042,-2.6244609,0.60290927,-0.16300024,-0.78098094,0
1.214274,-0.4168815,0.30692118,0.0070396326,-0.9777813,0.20950939,0
-2.2204828,0.31731087,-1.1041725,-0.0070396326,0.9777813,-0.20950939,0
-3.3154023,0.47700852,0.99397016,-0.60290927,0.16300024,0.78098094,0
0.26509994,0.070463613,-1.7357241,-0.0070396326,0.9777813,-0.20950939,0
-3.2998097,0.60003561,1.3617337,-0.60290927,0.16300024,0.78098094,0
2.9965277,-0.32644218,-1.6402829,0.60290927,-0.16300024,-0.78098094,0
-1.2364746,0.2186113,2.9957194,-0.60290927,0.16300024,0.78098094,0
2.3078055,-0.19274542,-1.9925771,0.60290927,-0.16300024,-0.78098094,0
-2.1630445,0.79075962,1.8809943,-0.60290927,0.16300024,0.78098094,0
0.46851563,-0.39398968,0.2476729,0.0070396326,-0.9777813,0.20950939,0
1.730028,-0.22065878,-2.6951218,0.60290927,-0.16300024,-0.78098094,0
-1.0182204,0.69486403,0.49450195,-0.0070396326,0.9777813,-0.20950939,0
-0.62598109,0.51030648,0.90188026,-0.0070396326,0.9777813,-0.20950939,0
2.3079591,-0.78326416,-1.5562463,0.0070396326,-0.9777813,0.20950939,0
3.5962927,-0.74342573,-0.79041845,0.60290927,-0.16300024,-0.78098094,0
-0.53498185,-0.9748835,-2.5246758,0.0070396326,-0.9777813,0.20950939,0
0.76030803,0.13925427,-1.5292284,-0.0070396326,0.9777813,-0.20950939,0
-1.4278581,-0.76923871,-1.5983739,0.0070396326,-0.9777813,0.20950939,0
-0.6954515,-0.41522938,-3.0141063,-0.79777867,-0.13181299,-0.58836597,0
1.173955,0.32010737,2.4758005,0.79777867,0.13181299,0.58836597,0
-3.8857594,0.52676094,0.75870138,-0.60290927,0.16300024,0.78098094,0
0.46036884,-1.1905566,-3.2026043,0.0070396326,-0.9777813,0.20950939,0
1.6905034,0.89892477,0.88706881,-0.0070396326,0.9777813,-0.20950939,0
-0.70351684,-0.52957767,-3.3807249,-0.79777867,-0.13181299,-0.58836597,0
0.701882,0.58432728,1.1105124,-0.0070396326,0.9777813,-0.20950939,0
0.92141426,0.21585515,2.7988276,0.79777867,0.13181299,0.58836597,0
-1.6937597,0.59990829,2.1794796,-0.60290927,0.16300024,0.78098094,0
-3.6249342,0.56474769,0.68840498,-0.79777867,-0.13181299,-0.58836597,0
-0.086210519,-0.29156631,0.50956941,0.0070396326,-0.9777813,0.20950939,0
2.7269707,-0.014060438,-1.5199894,0.60290927,-0.16300024,-0.78098094,0
2.74016,-0.87687099,-0.99823821,0.0070396326,-0.9777813,0.20950939,0
-0.29200444,1.301188,3.4456749,-0.60290927,0.16300024,0.78098094,0
-2.4238646,0.30392271,-1.1742005,-0.79777867,-0.13181299,-0.58836597,0
-2.6880805,0.11702378,-0.4406234,-0.79777867,-0.13181299,-0.58836597,0
-0.94374567,-0.022185132,-2.8303263,-0.79777867,-0.13181299,-0.58836597,0
2.3876746,0.24510148,1.0830524,0.79777867,0.13181299,0.58836597,0
0.42752746,-0.48988289,-0.52104312,0.0070396326,-0.9777813,0.20950939,0
-0.10534647,-0.095061034,-2.7360375,-0.0070396326,0.9777813,-0.20950939,0
0.67665452,-0.49348593,0.22048064,0.0070396326,-0.9777813,0.20950939,0
2.999733,-0.037173778,-0.14647987,0.79777867,0.13181299,0.58836597,0
-1.4944127,0.23419611,2.4308703,-0.60290927,0.16300024,0.78098094,0
1.7095351,0.42875713,2.1105249,0.79777867,0.13181299,0.58836597,0
-2.3508134,-0.28216988,-1.2127255,-0.79777867,-0.13181299,-0.58836597,0
-2.1648352,0.64793336,1.8332926,-0.60290927,0.16300024,0.78098094,0
-1.7843938,0.36073661,2.3203931,-0.60290927,0.16300024,0.78098094,0
-3.3919158,0.46969914,0.67931765,-0.0070396326,0.9777813,-0.20950939,0
-2.4925013,-0.045107782,-0.66780245,-0.79777867,-0.13181299,-0.58836597,0
0.0011206567,-0.22712579,0.84414303,0.0070396326,-0.9777813,0.20950939,0
0.90831429,0.7939477,2.8817801,0.79777867,0.13181299,0.58836597,0
0.18200815,1.2550411,3.4196663,0.79777867,0.13181299,0.58836597,0
-0.23400497,-0.4500905,0.19476995,0.0070396326,-0.9777813,0.20950939,0
2.5431154,-0.59908068,-1.6242945,0.60290927,-0.16300024,-0.78098094,0
1.4975954,0.42052746,-0.53864413,-0.0070396326,0.9777813,-0.20950939,0
0.82707083,0.71766019,2.8788309,0.79777867,0.13181299,0.58836597,0
3.8359044,0.085464478,-0.74856561,0.79777867,0.13181299,0.58836597,0
-3.3068933,-0.0043962151,1.4285156,-0.60290927,0.16300024,0.78098094,0
-1.5238898,-0.74255359,-0.87794966,0.0070396326,-0.9777813,0.20950939,0
1.417069,0.81417352,2.3061306,0.79777867,0.13181299,0.58836597,0
-1.1000563,0.57233971,2.9263711,-0.60290927,0.16300024,0.78098094,0
3.3989038,-0.34277463,-0.92356306,0.60290927,-0.16300024,-0.78098094,0
-0.31577995,-1.123715,-3.4365489,-0.79777867,-0.13181299,-0.58836597,0
-2.6494167,0.62920791,1.4559216,-0.60290927,0.16300024,0.78098094,0
1.1889362,-1.2419751,-2.838469,0.60290927,-0.16300024,-0.78098094,0
0.13239589,1.0757705,2.6202826,-0.0070396326,0.9777813,-0.20950939,0
0.71553004,-0.20667972,-3.2389679,0.60290927,-0.16300024,-0.78098094,0
1.927223,0.14167655,1.4908336,0.79777867,0.13181299,0.58836597,0
-2.1315131,-0.14599971,-1.2891934,-0.79777867,-0.13181299,-0.58836597,0
1.0691695,0.47052383,2.8293514,0.79777867,0.13181299,0.58836597,0
-2.4279561,-0.66739762,-0.6775226,-0.79777867,-0.13181299,-0.58836597,0
-1.6722205,-0.1460142,-2.0536432,-0.79777867,-0.13181299,-0.58836597,0
-2.390173,0.70573813,0.83671868,-0.0070396326,0.9777813,-0.20950939,0
-2.3551142,-0.49343872,-1.1222602,-0.79777867,-0.13181299,-0.58836597,0
-2.7132883,-0.038102001,-0.60624695,-0.79777867,-0.13181299,-0.58836597,0
-2.7514403,0.78376269,1.4618598,-0.60290927,0.16300024,0.78098094,0
-2.0041077,1.0514013,2.2784476,-0.60290927,0.16300024,0.78098094,0
2.0345464,-0.86422122,-0.87486339,0.0070396326,-0.9777813,0.20950939,0
-0.85944116,-0.22938974,-3.1898327,-0.79777867,-0.13181299,-0.58836597,0
-0.68562937,-0.2092455,2.1824477,0.0070396326,-0.9777813,0.20950939,0
2.2834566,0.03028518,1.3041735,0.79777867,0.13181299,0.58836597,0
-2.4857249,0.83450174,1.8336323,-0.60290927,0.16300024,0.78098094,0
-1.5841168,-0.46926844,-2.3159759,-0.79777867,-0.13181299,-0.58836597,0
3.319593,-0.60900831,-0.068793714,0.0070396326,-0.9777813,0.20950939,0
-3.4527917,0.27672687,0.033171803,-0.79777867,-0.13181299,-0.58836597,0
2.8376997,0.29715258,0.45858961,0.79777867,0.13181299,0.58836597,0
-1.1259269,0.81371814,1.4964716,-0.0070396326,0.9777813,-0.20950939,0
1.3835146,-0.88601613,-2.5829449,0.60290927,-0.16300024,-0.78098094,0
-1.9819951,-0.84959376,-1.3850453,-0.79777867,-0.13181299,-0.58836597,0
-0.67877269,-0.91067106,-1.3066528,0.0070396326,-0.9777813,0.20950939,0
-1.459404,0.68209124,1.5441909,-0.0070396326,0.9777813,-0.20950939,0
0.81997567,0.099974617,2.7951412,0.79777867,0.13181299,0.58836597,0
1.7239052,0.57717597,2.0071254,0.79777867,0.13181299,0.58836597,0
-0.63019443,-0.38905936,-3.0882092,-0.79777867,-0.13181299,-0.58836597,0
2.2211604,0.7464211,1.3674338,0.79777867,0.13181299,0.58836597,0
-0.28934678,0.36299202,3.4241006,-0.60290927,0.16300024,0.78098094,0
-1.9421098,-0.090794951,-1.8638107,-0.79777867,-0.13181299,-0.58836597,0
0.59033966,-0.085344374,-2.2301419,-0.0070396326,0.9777813,-0.20950939,0
-2.1871967,-0.33216804,-1.4073852,-0.79777867,-0.13181299,-0.58836597,0
-2.8291972,0.4833113,-0.23751831,-0.79777867,-0.13181299,-0.58836597,0
0.082006276,0.52943832,3.8184705,-0.60290927,0.16300024,0.78098094,0
0.94529748,-0.96772426,-3.1601341,0.60290927,-0.16300024,-0.78098094,0
-0.9886995,0.61482912,2.9898028,-0.60290927,0.16300024,0.78098094,0
2.930268,-0.87283754,-1.4065585,0.60290927,-0.16300024,-0.78098094,0
1.8376877,-0.67200255,-2.421113,0.60290927,-0.16300024,-0.78098094,0
-0.89370382,-0.12929171,-3.2555237,-0.79777867,-0.13181299,-0.58836597,0
2.4546309,0.35139447,1.1467285,0.79777867,0.13181299,0.58836597,0
-1.980181,-0.80388385,-1.49403,-0.79777867,-0.13181299,-0.58836597,0
-0.14660442,-1.3767966,-3.893837,0.60290927,-0.16300024,-0.78098094,0
1.9686764,0.21264845,1.8059664,0.79777867,0.13181299,0.58836597,0
1.2873951,-0.19376267,-2.7645974,0.60290927,-0.16300024,-0.78098094,0
-0.31207091,-0.99261934,-1.5823522,0.0070396326,-0.9777813,0.20950939,0
-3.5501122,0.33254063,1.2166239,-0.60290927,0.16300024,0.78098094,0
-1.8443906,0.71479368,1.1902294,-0.0070396326,0.9777813,-0.20950939,0
1.478965,0.04174877,1.9100831,0.0070396326,-0.9777813,0.20950939,0
2.7184353,0.49611431,0.26440409,-0.0070396326,0.9777813,-0.20950939,0
-0.75471723,1.1406053,2.8410432,-0.60290927,0.16300024,0.78098094,0
-0.36224064,0.006744951,-1.9637663,-0.0070396326,0.9777813,-0.20950939,0
-1.1584607,0.033187751,2.9395213,-0.60290927,0.16300024,0.78098094,0
2.2488215,0.2907064,0.94335204,0.79777867,0.13181299,0.58836597,0
1.4725779,-0.96074283,-2.5136237,0.60290927,-0.16300024,-0.78098094,0
-1.9345155,0.084126279,2.4834089,-0.60290927,0.16300024,0.78098094,0
-2.7038221,0.99093276,1.4415936,-0.60290927,0.16300024,0.78098094,0
-1.3237226,-0.21711797,2.310508,0.0070396326,-0.9777813,0.20950939,0
2.5144367,-0.16636866,-2.0520391,0.60290927,-0.16300024,-0.78098094,0
0.10751802,0.82110518,3.8771577,-0.60290927,0.16300024,0.78098094,0
1.5695013,-0.75168782,-2.5175757,0.60290927,-0.16300024,-0.78098094,0
-2.7606926,0.088934764,-0.727799,-0.79777867,-0.13181299,-0.58836597,0
1.43054,0.44206643,-1.2186164,-0.0070396326,0.9777813,-0.20950939,0
-0.87900639,0.92394501,3.1364107,-0.60290927,0.16300024,0.78098094,0
-2.9077256,-0.069717586,-0.097247988,-0.79777867,-0.13181299,-0.58836597,0
-0.14935662,0.67529488,0.032500528,-0.0070396326,0.9777813,-0.20950939,0
-3.2496653,0.57867634,1.1027334,-0.60290927,0.16300024,0.78098094,0
-0.22019342,1.0002803,2.7644,-0.0070396326,0.9777813,-0.20950939,0
0.65305853,0.92931885,1.2950724,-0.0070396326,0.9777813,-0.20950939,0
0.054140925,-0.9107855,-3.6060216,0.60290927,-0.16300024,-0.78098094,0
0.089244783,0.54497164,3.8431692,0.79777867,0.13181299,0.58836597,0
-2.4056106,0.71255618,1.7145638,-0.60290927,0.16300024,0.78098094,0
2.8779347,-0.75761044,-1.5583121,0.60290927,-0.16300024,-0.78098094,0
1.774294,-0.86361808,-1.6611354,0.0070396326,-0.9777813,0.20950939,0
0.43474197,0.6823138,3.7347505,0.79777867,0.13181299,0.58836597,0
1.3612721,0.24905089,-1.8140132,-0.0070396326,0.9777813,-0.20950939,0
0.26782593,-0.56362301,-3.3244615,0.60290927,-0.16300024,-0.78098094,0
0.2328047,-0.62696528,-3.7118461,0.60290927,-0.16300024,-0.78098094,0
3.5907373,0.073725045,-1.2619586,0.60290927,-0.16300024,-0.78098094,0
-1.5277882,-0.57177997,-1.92902,-0.79777867,-0.13181299,-0.58836597,0
2.3142071,0.023818515,-2.038733,0.60290927,-0.16300024,-0.78098094,0
-2.1011035,0.3515968,-0.27927452,-0.0070396326,0.9777813,-0.20950939,0
2.5953896,0.19390856,0.39016479,0.79777867,0.13181299,0.58836597,0
1.1377008,0.22621526,2.7743394,0.0070396326,-0.9777813,0.20950939,0
1.987841,-0.045564927,-2.172848,-0.0070396326,0.9777813,-0.20950939,0
-0.86564952,0.0081532197,2.8253403,0.0070396326,-0.9777813,0.20950939,0
-0.12272078,-0.98925662,-3.7390718,-0.79777867,-0.13181299,-0.58836597,0
0.50178933,-1.2909284,-3.2015185,0.0070396326,-0.9777813,0.20950939,0
1.8934056,-0.88109857,-2.4403691,0.60290927,-0.16300024,-0.78098094,0
-0.84465986,0.65695071,0.047721699,-0.0070396326,0.9777813,-0.20950939,0
-0.063407488,-0.24118872,0.39251444,0.0070396326,-0.9777813,0.20950939,0
3.2765911,0.38842148,-0.89293712,-0.0070396326,0.9777813,-0.20950939,0
1.8631415,-0.94021511,-2.323807,0.60290927,-0.16300024,-0.78098094,0
1.1085393,0.55970502,2.4144416,0.79777867,0.13181299,0.58836597,0
0.73167574,-0.5727464,0.64252502,0.0070396326,-0.9777813,0.20950939,0
-3.5312459,0.091769412,0.28975767,-0.79777867,-0.13181299,-0.58836597,0
-0.23332685,-0.25982347,1.7980322,0.0070396326,-0.9777813,0.20950939,0
0.69769347,0.26133436,3.1063137,0.0070396326,-0.9777813,0.20950939,0
-0.64784312,0.41278654,3.1994967,-0.60290927,0.16300024,0.78098094,0
0.43174687,-0.018660922,-3.396831,-0.0070396326,0.9777813,-0.20950939,0
1.2234747,0.78246528,2.5574555,0.79777867,0.13181299,0.58836597,0
-2.6778369,0.21510278,-0.80360675,-0.79777867,-0.13181299,-0.58836597,0
2.4672899,-0.091223702,-1.9021132,0.60290927,-0.16300024,-0.78098094,0
1.3419816,-0.62069917,-0.63020813,0.0070396326,-0.9777813,0.20950939,0
2.3585272,0.054118194,1.0130674,0.79777867,0.13181299,0.58836597,0
0.058021218,1.1694596,3.7101045,0.79777867,0.13181299,0.58836597,0
0.31665868,-0.75706518,-3.5149322,0.60290927,-0.16300024,-0.78098094,0
3.7002811,-0.54943287,-0.70779747,0.79777867,0.13181299,0.58836597,0
1.0592759,-0.72416645,-1.1490645,0.0070396326,-0.9777813,0.20950939,0
2.9219122,0.56081045,0.24226473,-0.0070396326,0.9777813,-0.20950939,0
3.2403498,0.26034358,-0.3849524,0.79777867,0.13181299,0.58836597,0
-2.862498,-0.42638654,-0.2481066,-0.79777867,-0.13181299,-0.58836597,0
-0.90367746,-0.47263056,-2.6425524,-0.79777867,-0.13181299,-0.58836597,0
2.6053576,-0.29392248,0.89042675,0.79777867,0.13181299,0.58836597,0
-3.211889,0.32941717,0.15071464,-0.79777867,-0.13181299,-0.58836597,0
-1.2300601,-0.39650604,-2.7849131,-0.79777867,-0.13181299,-0.58836597,0
0.11542365,-0.46268541,-3.483506,0.60290927,-0.16300024,-0.78098094,0
-0.12850507,-0.39910963,0.67557192,0.0070396326,-0.9777813,0.20950939,0
0.62613887,1.0492649,2.4259255,-0.0070396326,0.9777813,-0.20950939,0
0.46503192,0.22677518,3.2121758,0.0070396326,-0.9777813,0.20950939,0
0.67456323,0.43994281,-0.61045092,-0.0070396326,0.9777813,-0.20950939,0
1.8302922,0.3955822,1.6347342,0.79777867,0.13181299,0.58836597,0
-2.5513501,-0.10249659,-0.53100425,-0.79777867,-0.13181299,-0.58836597,0
-3.4365454,-0.42015132,1.296083,-0.60290927,0.16300024,0.78098094,0
3.6995921,-0.16421774,-1.1598413,0.60290927,-0.16300024,-0.78098094,0
0.34140727,0.58652669,1.2305499,-0.0070396326,0.9777813,-0.20950939,0
2.6939836,-0.30028707,-1.671978,0.60290927,-0.16300024,-0.78098094,0
1.1053567,-0.021994134,-2.140075,-0.0070396326,0.9777813,-0.20950939,0
-2.6484303,0.076356664,-0.81184739,-0.79777867,-0.13181299,-0.58836597,0
0.18709403,-0.31697005,1.6656616,0.0070396326,-0.9777813,0.20950939,0
-0.70497185,-0.39689195,-3.5002284,-0.79777867,-0.13181299,-0.58836597,0
0.47588408,0.93842798,3.0669901,0.79777867,0.13181299,0.58836597,0
-2.1469316,-0.038983315,-1.2074795,-0.79777867,-0.13181299,-0.58836597,0
-2.4194748,0.39996001,-0.1925679,-0.0070396326,0.9777813,-0.20950939,0
1.2382331,0.23271465,2.3838921,0.79777867,0.13181299,0.58836597,0
3.5334005,0.27503982,-0.94238019,0.60290927,-0.16300024,-0.78098094,0
-2.1582046,0.67480618,1.7873363,-0.60290927,0.16300024,0.78098094,0
1.521516,0.94058102,1.979066,0.79777867,0.13181299,0.58836597,0
2.9573145,-0.18905394,-1.3351506,0.60290927,-0.16300024,-0.78098094,0
0.87791413,0.012321387,-2.597579,-0.0070396326,0.9777813,-0.20950939,0
-0.93649173,0.24067032,-0.54522645,-0.0070396326,0.9777813,-0.20950939,0
-2.6760838,0.42708433,0.63627243,-0.0070396326,0.9777813,-0.20950939,0
0.061536074,0.52886057,3.9428759,-0.60290927,0.16300024,0.78098094,0
-2.5691693,0.28418884,-0.81327069,-0.79777867,-0.13181299,-0.58836597,0
0.63781524,-0.07879395,2.0089898,0.0070396326,-0.9777813,0.20950939,0
-2.5898259,0.092328608,-0.70981741,-0.79777867,-0.13181299,-0.58836597,0
-2.6131368,-0.35432494,1.4458408,0.0070396326,-0.9777813,0.20950939,0
-3.1746573,0.75033522,1.1738179,-0.60290927,0.16300024,0.78098094,0
-0.31798112,0.33685145,3.302834,-0.60290927,0.16300024,0.78098094,0
0.39461279,0.77766341,3.2044077,0.79777867,0.13181299,0.58836597,0
-2.7801945,0.25397602,1.5962212,-0.60290927,0.16300024,0.78098094,0
1.0937787,0.045128614,1.8754188,0.0070396326,-0.9777813,0.20950939,0
-3.6543009,-0.27356818,0.77645594,-0.79777867,-0.13181299,-0.58836597,0
0.70040035,0.77387893,0.85612059,-0.0070396326,0.9777813,-0.20950939,0
1.379127,1.0820723,1.685647,-0.0070396326,0.9777813,-0.20950939,0
-2.3762982,0.79712826,1.7654711,-0.0070396326,0.9777813,-0.20950939,0
-2.0074859,0.48665315,-0.60158986,-0.0070396326,0.9777813,-0.20950939,0
-0.5713312,-0.32850918,0.073920302,0.0070396326,-0.9777813,0.20950939,0
0.015408128,1.2362921,2.5888472,-0.0070396326,0.9777813,-0.20950939,0
-1.8375556,-0.88273877,-1.0106314,0.0070396326,-0.9777813,0.20950939,0
-0.8162306,0.82508576,1.6520475,-0.0070396326,0.9777813,-0.20950939,0
1.4427695,-0.71142161,-0.85931361,0.0070396326,-0.9777813,0.20950939,0
-1.6093103,-0.81261045,-1.5331534,0.0070396326,-0.9777813,0.20950939,0
2.7173047,-0.51177746,-0.44572243,0.0070396326,-0.9777813,0.20950939,0
0.70024669,-0.8360762,-1.8295288,0.0070396326,-0.9777813,0.20950939,0
0.48814261,1.0611938,3.6133528,0.79777867,0.13181299,0.58836597,0
-1.9069197,0.11485284,2.2478647,0.0070396326,-0.9777813,0.20950939,0
2.2995908,0.48466063,1.2219772,0.79777867,0.13181299,0.58836597,0
-0.18747789,0.11030899,3.2462583,0.0070396326,-0.9777813,0.20950939,0
-2.5096645,1.0098197,1.7674553,-0.60290927,0.16300024,0.78098094,0
3.6472051,-0.27747944,-1.1996329,0.60290927,-0.16300024,-0.78098094,0
-0.52207452,0.57570672,3.2738566,-0.60290927,0.16300024,0.78098094,0
2.9675827,-0.086667851,0.024999857,0.79777867,0.13181299,0.58836597,0
1.4019823,-0.57667369,-2.5502901,0.60290927,-0.16300024,-0.78098094,0
-2.9156771,-0.018985108,1.752001,0.0070396326,-0.9777813,0.20950939,0
-0.57131946,1.0241958,3.2073693,-0.60290927,0.16300024,0.78098094,0
2.360085,-0.38484108,0.95156074,0.0070396326,-0.9777813,0.20950939,0
0.42388117,1.1482956,3.7349634,0.79777867,0.13181299,0.58836597,0
1.4900153,-0.32180947,-2.6368225,0.60290927,-0.16300024,-0.78098094,0
-1.2215455,0.46164915,0.44909185,-0.0070396326,0.9777813,-0.20950939,0
-1.4213576,0.27932772,2.4418464,-0.60290927,0.16300024,0.78098094,0
3.9622314,-0.40512466,-0.70000583,0.79777867,0.13181299,0.58836597,0
0.14986867,0.041424584,-1.7846582,-0.0070396326,0.9777813,-0.20950939,0
2.7505717,-0.031841874,-1.772272,0.60290927,-0.16300024,-0.78098094,0
-3.8463206,0.4344973,0.99551046,-0.60290927,0.16300024,0.78098094,0
-0.73651004,0.87227958,3.294816,-0.60290927,0.16300024,0.78098094,0
1.3377548,0.085818507,-1.977237,-0.0070396326,0.9777813,-0.20950939,0
0.10842678,0.22528906,3.5061054,0.0070396326,-0.9777813,0.20950939,0
0.16419452,0.58188528,3.7392693,0.79777867,0.13181299,0.58836597,0
0.15268476,-0.48680362,0.65359521,0.0070396326,-0.9777813,0.20950939,0
-2.2884846,0.8440789,1.9817395,-0.60290927,0.16300024,0.78098094,0
0.66102159,-0.79823226,-1.9894457,0.0070396326,-0.9777813,0.20950939,0
0.25124556,-0.2892817,0.70731264,0.0070396326,-0.9777813,0.20950939,0
-0.68311524,0.017509155,-2.0893016,-0.0070396326,0.9777813,-0.20950939,0
-1.8975482,-0.74288213,-0.9272179,0.0070396326,-0.9777813,0.20950939,0
3.3019335,0.29449803,-0.27292612,0.79777867,0.13181299,0.58836597,0
1.290884,-0.96475279,-2.851125,0.60290927,-0.16300024,-0.78098094,0
0.044171318,-0.29408181,1.6727296,0.0070396326,-0.9777813,0.20950939,0
-2.0196066,0.11198725,-1.2882326,-0.79777867,-0.13181299,-0.58836597,0
-0.57506096,1.1174139,2.8083084,-0.0070396326,0.9777813,-0.20950939,0
0.67354584,-0.83712709,-2.9905114,0.60290927,-0.16300024,-0.78098094,0
3.2134323,0.38784462,-0.26200071,0.79777867,0.13181299,0.58836597,0
0.70482206,-0.97967291,-2.8245478,0.0070396326,-0.9777813,0.20950939,0
1.0505495,-1.0544062,-2.1540089,0.0070396326,-0.9777813,0.20950939,0
-1.3426807,0.1604937,-1.4354516,-0.0070396326,0.9777813,-0.20950939,0
0.98182338,0.3090086,-1.3483238,-0.0070396326,0.9777813,-0.20950939,0
-0.43152994,1.0535308,3.183378,-0.60290927,0.16300024,0.78098094,0
-2.0896833,0.15226416,-1.1405088,-0.79777867,-0.13181299,-0.58836597,0
-1.0067542,-0.15451556,1.4538797,0.0070396326,-0.9777813,0.20950939,0
1.6369532,-0.67147571,-1.0137725,0.0070396326,-0.9777813,0.20950939,0
3.3615539,0.4607113,-0.44700837,0.79777867,0.13181299,0.58836597,0
-2.5513456,0.23186891,-0.9008227,-0.79777867,-0.13181299,-0.58836597,0
-2.3623271,-0.44137627,-1.0961549,-0.79777867,-0.13181299,-0.58836597,0
-0.39696336,-0.67123008,-3.5680633,-0.79777867,-0.13181299,-0.58836597,0
1.1311336,-0.38551089,-0.25758454,0.0070396326,-0.9777813,0.20950939,0
-2.8397629,-0.25348005,1.072485,0.0070396326,-0.9777813,0.20950939,0
2.2858996,-0.14052497,1.4326675,0.79777867,0.13181299,0.58836597,0
-1.3114128,-0.87045872,-2.4082258,-0.79777867,-0.13181299,-0.58836597,0
-3.230603,-0.031052426,1.5375934,-0.60290927,0.16300024,0.78098094,0
2.2136254,0.219033,1.4414979,0.79777867,0.13181299,0.58836597,0
-0.7936672,0.54913723,-0.34656876,-0.0070396326,0.9777813,-0.20950939,0
-3.6752889,0.11480492,1.091617,-0.60290927,0.16300024,0.78098094,0
2.4554145,0.16151191,-2.0531545,0.60290927,-0.16300024,-0.78098094,0
-0.66768247,0.67883211,2.9870784,-0.60290927,0.16300024,0.78098094,0
2.8094914,-0.3414557,0.77683347,0.79777867,0.13181299,0.58836597,0
-0.43278322,0.83502948,3.2884848,-0.60290927,0.16300024,0.78098094,0
-1.0468979,0.47594151,2.8598282,-0.60290927,0.16300024,0.78098094,0
-3.7265098,0.56719446,0.95172441,-0.79777867,-0.13181299,-0.58836597,0
-2.2816482,-0.56121385,-0.35796726,0.0070396326,-0.9777813,0.20950939,0
-2.022738,-0.68743038,-1.5629483,-0.79777867,-0.13181299,-0.58836597,0
-0.83466566,-1.0564561,-1.6247323,0.0070396326,-0.9777813,0.20950939,0
-1.7379693,-0.74053359,-0.7561965,0.0070396326,-0.9777813,0.20950939,0
-1.1392777,0.46537024,0.24593656,-0.0070396326,0.9777813,-0.20950939,0
1.9868889,-0.62539232,-1.9364829,0.60290927,-0.16300024,-0.78098094,0
-3.1242566,-0.26754132,1.5318725,0.0070396326,-0.9777813,0.20950939,0
3.0521924,-0.55596918,-1.1572599,0.0070396326,-0.9777813,0.20950939,0
3.3291676,-0.031556651,0.015990466,0.79777867,0.13181299,0.58836597,0
-0.34474745,-0.10476142,2.7085652,0.0070396326,-0.9777813,0.20950939,0
1.1726921,0.21017507,2.331382,0.79777867,0.13181299,0.58836597,0
-2.1372268,-0.016082548,2.2060423,-0.60290927,0.16300024,0.78098094,0
2.7156351,0.23580377,0.83283186,0.79777867,0.13181299,0.58836597,0
0.90729678,-0.53383201,-3.1807551,0.60290927,-0.16300024,-0.78098094,0
0.16314662,0.17463976,3.4876714,0.0070396326,-0.9777813,0.20950939,0
-3.5214016,-0.044738352,1.1839206,-0.60290927,0.16300024,0.78098094,0
0.61674386,-0.23452982,-3.030463,-0.0070396326,0.9777813,-0.20950939,0
-3.0938902,0.22094941,1.4056352,-0.60290927,0.16300024,0.78098094,0
-3.0825224,0.56397927,1.5785649,-0.60290927,0.16300024,0.78098094,0
-3.207927,-0.14662635,0.38692543,-0.79777867,-0.13181299,-0.58836597,0
2.6440914,0.18636176,0.48331481,0.79777867,0.13181299,0.58836597,0
-0.50999522,0.95107585,3.4701149,-0.60290927,0.16300024,0.78098094,0
3.3416131,-0.66492927,-1.2588469,0.60290927,-0.16300024,-0.78098094,0
-0.33352911,0.20176262,-0.68053943,-0.0070396326,0.9777813,-0.20950939,0
-0.16349006,-0.12557808,-3.6906636,-0.0070396326,0.9777813,-0.20950939,0
2.9421566,-0.42821631,-1.3580418,0.60290927,-0.16300024,-0.78098094,0
3.9012027,0.04792881,-1.0314493,0.60290927,-0.16300024,-0.78098094,0
0.32647544,0.56821507,3.7378092,0.79777867,0.13181299,0.58836597,0
0.50039893,0.20844221,3.3528359,0.79777867,0.13181299,0.58836597,0
-3.3038139,0.54098731,1.146117,-0.0070396326,0.9777813,-0.20950939,0
0.29235226,-0.53758985,-3.3715162,0.60290927,-0.16300024,-0.78098094,0
-2.8934751,0.072323367,-0.18109779,-0.79777867,-0.13181299,-0.58836597,0
-3.1132941,-0.17287272,0.23845184,-0.79777867,-0.13181299,-0.58836597,0
0.094546676,-0.03753791,2.9086607,0.0070396326,-0.9777813,0.20950939,0
0.65481144,-1.1213833,-3.264132,0.60290927,-0.16300024,-0.78098094,0
-0.36714101,-0.70859206,-1.298651,0.0070396326,-0.9777813,0.20950939,0
3.2714386,-0.40445089,-1.3331335,0.60290927,-0.16300024,-0.78098094,0
-3.0408356,-0.11311321,-0.0067894459,-0.79777867,-0.13181299,-0.58836597,0
-1.5835338,0.88485336,2.6187119,-0.60290927,0.16300024,0.78098094,0
-0.52793366,-0.21971399,-3.6016445,-0.79777867,-0.13181299,-0.58836597,0
1.5060236,0.87572122,2.2374136,0.79777867,0.13181299,0.58836597,0
2.6055031,0.58925986,0.26036951,0.79777867,0.13181299,0.58836597,0
2.2930043,0.39055517,0.78307867,0.79777867,0.13181299,0.58836597,0
1.8093519,0.5722369,-0.54299235,-0.0070396326,0.9777813,-0.20950939,0
-3.5527794,0.60012591,1.1564486,-0.60290927,0.16300024,0.78098094,0
0.89307892,1.0868379,2.1864908,-0.0070396326,0.9777813,-0.20950939,0
1.284319,0.037468206,-2.2192707,-0.0070396326,0.9777813,-0.20950939,0
-2.7205217,0.33887398,-0.57295734,-0.79777867,-0.13181299,-0.58836597,0
-3.2799773,0.38826162,0.16234624,-0.79777867,-0.13181299,-0.58836597,0
0.90835571,0.27285632,2.9753945,0.79777867,0.13181299,0.58836597,0
1.9372873,0.24204209,-1.1492931,-0.0070396326,0.9777813,-0.20950939,0
0.41364318,-0.51214182,-0.63619077,0.0070396326,-0.9777813,0.20950939,0
-2.4029317,0.3532812,-0.92509413,-0.0070396326,0.9777813,-0.20950939,0
2.1360893,0.64403534,0.92544973,0.79777867,0.13181299,0.58836597,0
0.2827304,-0.18744329,-3.4960523,0.60290927,-0.16300024,-0.78098094,0
-0.28838462,-1.0544297,-3.6947937,0.60290927,-0.16300024,-0.78098094,0
2.8131552,0.24021107,0.20121984,0.79777867,0.13181299,0.58836597,0
0.44729248,0.0065824836,-2.2115211,-0.0070396326,0.9777813,-0.20950939,0
2.5353315,-0.099849932,-2.0130219,0.60290927,-0.16300024,-0.78098094,0
-1.460572,-0.51041675,-2.1316285,-0.79777867,-0.13181299,-0.58836597,0
-3.6867592,-0.40507305,0.89943463,-0.79777867,-0.13181299,-0.58836597,0
-2.548326,0.23889688,-0.69275194,-0.0070396326,0.9777813,-0.20950939,0
-1.9779197,0.9189136,1.043106,-0.0070396326,0.9777813,-0.20950939,0
0.5664866,-0.11043726,-3.2862713,0.60290927,-0.16300024,-0.78098094,0
0.51637363,0.34341049,-1.5740926,-0.0070396326,0.9777813,-0.20950939,0
-2.1709931,-0.53016365,-0.9132157,-0.79777867,-0.13181299,-0.58836597,0
-2.7063117,-0.43242097,-0.32789573,-0.79777867,-0.13181299,-0.58836597,0
-1.0497468,-0.69095594,-2.8897171,-0.79777867,-0.13181299,-0.58836597,0
-1.679924,-0.84686911,-1.8401517,-0.79777867,-0.13181299,-0.58836597,0
-2.1349649,0.14485188,-0.72825664,-0.0070396326,0.9777813,-0.20950939,0
-0.10311046,1.0152603,3.4641247,-0.60290927,0.16300024,0.78098094,0
2.0588391,0.68919194,0.53940612,-0.0070396326,0.9777813,-0.20950939,0
1.5160463,-0.26359499,1.8715957,0.0070396326,-0.9777813,0.20950939,0
3.5176184,0.18026003,-0.51339805,0.79777867,0.13181299,0.58836597,0
-2.2758296,-0.63858652,-0.38719642,0.0070396326,-0.9777813,0.20950939,0
-2.7159123,0.49068385,1.6045604,-0.60290927,0.16300024,0.78098094,0
1.4886127,0.49546644,-0.15693033,-0.0070396326,0.9777813,-0.20950939,0
-3.1636355,0.52033317,1.5208683,-0.60290927,0.16300024,0.78098094,0
0.90799743,-0.47686791,-3.0422122,0.60290927,-0.16300024,-0.78098094,0
2.6511986,-0.47060263,-1.9482586,0.60290927,-0.16300024,-0.78098094,0
-0.80817616,0.11679202,-2.2090518,-0.0070396326,0.9777813,-0.20950939,0
-1.1903969,0.92021054,2.5718803,-0.60290927,0.16300024,0.78098094,0
-2.0513639,0.39362988,2.2082341,-0.60290927,0.16300024,0.78098094,0
0.66796917,1.0027819,3.2207742,0.79777867,0.13181299,0.58836597,0
2.3259296,0.53714263,1.1271358,0.79777867,0.13181299,0.58836597,0
-3.792074,0.37783739,0.76554519,-0.60290927,0.16300024,0.78098094,0
-0.76604503,0.10934772,3.4824629,-0.60290927,0.16300024,0.78098094,0
0.19875038,0.49883875,-0.44599694,-0.0070396326,0.9777813,-0.20950939,0
1.320502,0.84836793,2.3583915,0.79777867,0.13181299,0.58836597,0
-1.0948339,0.13708675,2.7599387,-0.60290927,0.16300024,0.78098094,0
-0.54187965,-1.2901059,-2.8275006,0.0070396326,-0.9777813,0.20950939,0
1.4999769,0.020657115,2.127013,0.79777867,0.13181299,0.58836597,0
0.57509679,0.27470729,-1.3482575,-0.0070396326,0.9777813,-0.20950939,0
-1.6201658,0.54938483,1.1516483,-0.0070396326,0.9777813,-0.20950939,0
1.3040119,-0.27683991,-2.8754885,0.60290927,-0.16300024,-0.78098094,0
2.3674018,0.25054625,0.95081443,0.79777867,0.13181299,0.58836597,0
2.2180305,0.61395723,1.3658819,0.79777867,0.13181299,0.58836597,0
0.70370936,0.60961294,0.46096531,-0.0070396326,0.9777813,-0.20950939,0
-2.0212421,-0.24604559,-1.2293923,-0.79777867,-0.13181299,-0.58836597,0
-3.4579039,-0.50856304,0.58127367,0.0070396326,-0.9777813,0.20950939,0
-2.278739,-0.30575228,-0.88254374,-0.79777867,-0.13181299,-0.58836597,0
1.0547264,-0.19194153,-2.749094,-0.0070396326,0.9777813,-0.20950939,0
-0.14520288,0.3401975,3.2885993,0.0070396326,-0.9777813,0.20950939,0
0.12575236,1.0811319,2.3095803,-0.0070396326,0.9777813,-0.20950939,0
-2.8125939,0.40059978,-0.45943576,-0.79777867,-0.13181299,-0.58836597,0
-2.4970286,0.3691169,1.9153981,-0.60290927,0.16300024,0.78098094,0
-3.607856,-0.050706074,0.67510861,-0.79777867,-0.13181299,-0.58836597,0
-0.37348008,-1.0661912,-3.301048,-0.79777867,-0.13181299,-0.58836597,0
-2.5395639,-0.59756398,0.16878784,0.0070396326,-0.9777813,0.20950939,0
2.874723,0.49519962,0.26586017,0.79777867,0.13181299,0.58836597,0
0.4934417,-0.60142994,-3.2212336,0.60290927,-0.16300024,-0.78098094,0
-0.53170466,-1.091886,-2.8097203,0.0070396326,-0.9777813,0.20950939,0
-0.50916219,0.27807146,-0.50388849,-0.0070396326,0.9777813,-0.20950939,0
3.1010532,-0.002285853,0.18580143,0.79777867,0.13181299,0.58836597,0
2.3629093,0.099329785,0.97597229,0.79777867,0.13181299,0.58836597,0
-0.59762108,-0.86559552,-3.4403238,-0.79777867,-0.13181299,-0.58836597,0
-2.3587658,0.39685193,1.7930502,-0.60290927,0.16300024,0.78098094,0
0.22345394,-0.718099,-3.3525395,0.60290927,-0.16300024,-0.78098094,0
-3.3908005,0.16052343,1.3197551,-0.60290927,0.16300024,0.78098094,0
3.5707963,0.30582756,-0.90835357,0.79777867,0.13181299,0.58836597,0
-0.078261077,-1.1881398,-3.5459619,0.60290927,-0.16300024,-0.78098094,0
-0.4867453,-1.1011051,-3.431819,-0.79777867,-0.13181299,-0.58836597,0
-0.69391525,0.74567372,3.2126875,-0.60290927,0.16300024,0.78098094,0
0.65276492,-0.075300239,2.5383434,0.0070396326,-0.9777813,0.20950939,0
3.756597,-0.27295262,-1.1317649,0.60290927,-0.16300024,-0.78098094,0
0.25102144,-1.26975,-3.4475548,0.60290927,-0.16300024,-0.78098094,0
1.6694863,0.81645352,2.0319824,0.79777867,0.13181299,0.58836597,0
0.77145875,0.81204504,2.1381083,-0.0070396326,0.9777813,-0.20950939,0
-1.7598239,-0.71588761,-1.4183363,-0.79777867,-0.13181299,-0.58836597,0
1.1463628,0.51689804,2.31183,0.79777867,0.13181299,0.58836597,0
0.3649385,0.64635599,3.4141464,0.79777867,0.13181299,0.58836597,0
-3.0170057,-0.27459359,1.5273219,-0.60290927,0.16300024,0.78098094,0
-1.1880815,-0.75555235,-2.2601507,-0.79777867,-0.13181299,-0.58836597,0
3.2399957,-0.045430541,-1.0829937,0.60290927,-0.16300024,-0.78098094,0
2.099679,0.020362839,1.1768967,0.79777867,0.13181299,0.58836597,0
0.30516446,-0.36744636,0.20144364,0.0070396326,-0.9777813,0.20950939,0
-2.5147815,-0.0093505085,1.7460074,-0.60290927,0.16300024,0.78098094,0
-1.2336215,-0.42437148,-2.1795666,-0.79777867,-0.13181299,-0.58836597,0
-0.46338087,1.1247262,2.7640331,-0.0070396326,0.9777813,-0.20950939,0
3.7796183,-0.71037263,-0.81149423,0.79777867,0.13181299,0.58836597,0
-2.6266031,-0.35912758,1.4697003,0.0070396326,-0.9777813,0.20950939,0
-2.6586478,-0.15102835,1.8232416,-0.60290927,0.16300024,0.78098094,0
-0.54078496,-1.2924534,-3.2488298,-0.79777867,-0.13181299,-0.58836597,0
0.44464964,0.11431325,-1.4956088,-0.0070396326,0.9777813,-0.20950939,0
-2.5461197,0.61254764,0.45868382,-0.0070396326,0.9777813,-0.20950939,0
2.4649529,0.7027204,0.2564081,-0.0070396326,0.9777813,-0.20950939,0
-1.5899644,0.68678409,2.3059282,-0.60290927,0.16300024,0.78098094,0
2.9169397,0.024522156,0.47470808,0.79777867,0.13181299,0.58836597,0
-2.7055697,-0.2449373,-0.51724297,-0.79777867,-0.13181299,-0.58836597,0
-1.1686354,-0.97223812,-2.6675475,-0.79777867,-0.13181299,-0.58836597,0
1.2188846,0.89805865,2.445399,0.79777867,0.13181299,0.58836597,0
-0.38092875,-0.57638758,-3.4404254,-0.79777867,-0.13181299,-0.58836597,0
1.4509853,-1.0653852,-2.6621664,0.60290927,-0.16300024,-0.78098094,0
-3.0764003,0.070276752,-0.25989494,-0.79777867,-0.13181299,-0.58836597,0
0.35989529,0.54813683,3.6480591,0.79777867,0.13181299,0.58836597,0
-1.1022313,-0.49572569,-2.9757628,-0.79777867,-0.13181299,-0.58836597,0
1.069052,-1.0669991,-2.5883167,0.60290927,-0.16300024,-0.78098094,0
2.5888076,0.49173182,0.47219104,0.79777867,0.13181299,0.58836597,0
-1.1561419,1.2757293,2.902364,-0.60290927,0.16300024,0.78098094,0
-2.6669433,0.19256009,1.8316171,-0.60290927,0.16300024,0.78098094,0
0.013886541,-1.0277755,-3.5130937,0.60290927,-0.16300024,-0.78098094,0
2.0930538,-1.0454178,-1.9687645,0.0070396326,-0.9777813,0.20950939,0
0.82874912,-0.0040525682,-2.6204233,-0.0070396326,0.9777813,-0.20950939,0
-3.5920417,0.62973845,1.1730734,-0.60290927,0.16300024,0.78098094,0
0.56146204,-1.030407,-2.9408283,0.60290927,-0.16300024,-0.78098094,0
1.4831711,0.1715451,-2.4885998,-0.0070396326,0.9777813,-0.20950939,0
1.187651,0.022494331,2.8775592,0.79777867,0.13181299,0.58836597,0
0.18817596,0.27971041,-1.6957667,-0.0070396326,0.9777813,-0.20950939,0
-3.3876655,0.34980378,0.14430138,-0.79777867,-0.13181299,-0.58836597,0
0.36286631,0.43159163,-0.50104487,-0.0070396326,0.9777813,-0.20950939,0
0.74772567,-1.0885688,-2.5517819,0.0070396326,-0.9777813,0.20950939,0
0.79447466,-1.2718827,-3.066359,0.60290927,-0.16300024,-0.78098094,0
-2.3552957,0.21601635,-0.55427963,-0.0070396326,0.9777813,-0.20950939,0
2.7118495,0.15035312,0.4068951,0.79777867,0.13181299,0.58836597,0
-1.5382171,-0.83296299,-1.7326201,-0.79777867,-0.13181299,-0.58836597,0
-0.062719971,-0.95162702,-3.5889282,0.60290927,-0.16300024,-0.78098094,0
-2.3527746,0.81388521,1.1509988,-0.0070396326,0.9777813,-0.20950939,0
-3.669858,-0.21454152,0.9025985,-0.60290927,0.16300024,0.78098094,0
3.749429,-0.11561473,-0.97139412,0.60290927,-0.16300024,-0.78098094,0
-0.83453959,0.69377512,3.3034208,-0.60290927,0.16300024,0.78098094,0
-0.10784036,-1.1786247,-3.4088774,0.0070396326,-0.9777813,0.20950939,0
-2.2862873,0.88900876,1.0223839,-0.0070396326,0.9777813,-0.20950939,0
-0.077673465,0.80889374,3.4289463,-0.60290927,0.16300024,0.78098094,0
3.3923116,-0.078719333,-0.22559261,0.79777867,0.13181299,0.58836597,0
-0.91719747,-0.96076727,-2.7835572,-0.79777867,-0.13181299,-0.58836597,0
-0.5557099,1.2140625,3.18012,-0.60290927,0.16300024,0.78098094,0
-0.99102497,0.73737288,1.5560265,-0.0070396326,0.9777813,-0.20950939,0
1.52321,0.96822178,1.7297295,0.79777867,0.13181299,0.58836597,0
0.88005233,0.87557554,2.8087401,0.79777867,0.13181299,0.58836597,0
-1.8554103,-0.11288205,2.2732646,-0.60290927,0.16300024,0.78098094,0
1.8593624,-1.1077151,-1.9936551,0.60290927,-0.16300024,-0.78098094,0
2.0456314,-0.16523829,1.2193629,0.79777867,0.13181299,0.58836597,0
2.9786737,0.02415891,-1.5840523,0.60290927,-0.16300024,-0.78098094,0
0.68594527,-0.87585431,-3.0499268,0.60290927,-0.16300024,-0.78098094,0
1.893304,-0.81937689,-2.3752482,0.60290927,-0.16300024,-0.78098094,0
-1.1722076,-0.50980031,0.78035235,0.0070396326,-0.9777813,0.20950939,0
1.4896078,-0.19288763,-2.8421109,0.60290927,-0.16300024,-0.78098094,0
0.5927372,-0.1684269,-3.1594586,0.60290927,-0.16300024,-0.78098094,0
0.40391505,-0.97442031,-2.3496006,0.0070396326,-0.9777813,0.20950939,0
-1.3163081,-0.46815228,-2.3260002,-0.79777867,-0.13181299,-0.58836597,0
-1.9667789,0.36403763,2.1764197,-0.60290927,0.16300024,0.78098094,0
1.0615741,0.44676432,2.4131978,0.79777867,0.13181299,0.58836597,0
-0.12779087,0.33712935,-0.84002149,-0.0070396326,0.9777813,-0.20950939,0
-3.884232,0.16204396,1.039327,-0.60290927,0.16300024,0.78098094,0
0.31097579,-0.44971469,-3.4096458,0.60290927,-0.16300024,-0.78098094,0
3.2880261,0.021261171,-0.37916395,0.79777867,0.13181299,0.58836597,0
-1.2633724,-0.23257518,-2.5793304,-0.79777867,-0.13181299,-0.58836597,0
-1.4930768,0.4769488,0.14499244,-0.0070396326,0.9777813,-0.20950939,0
2.9763258,-0.11197126,0.2103713,0.79777867,0.13181299,0.58836597,0
0.10761232,-0.9233461,-1.8596843,0.0070396326,-0.9777813,0.20950939,0
-1.6924733,0.41519558,2.2920151,-0.60290927,0.16300024,0.78098094,0
-0.88519126,-0.71843904,-3.0212023,-0.79777867,-0.13181299,-0.58836597,0
-1.1392994,-0.7282396,-0.48637831,0.0070396326,-0.9777813,0.20950939,0
1.2350243,-0.72001904,-2.6542447,0.60290927,-0.16300024,-0.78098094,0
0.47039294,0.45316473,3.8388975,0.79777867,0.13181299,0.58836597,0
-3.5915778,-0.51292551,0.5566411,-0.79777867,-0.13181299,-0.58836597,0
-0.05800271,-0.35440269,-3.7063978,0.60290927,-0.16300024,-0.78098094,0
0.34173861,1.059315,3.4701169,0.79777867,0.13181299,0.58836597,0
2.6724801,-0.31960481,-1.7837514,0.60290927,-0.16300024,-0.78098094,0
-1.4364485,-0.67599577,-0.2267199,0.0070396326,-0.9777813,0.20950939,0
-3.074307,0.62551385,0.88407207,-0.0070396326,0.9777813,-0.20950939,0
2.7700403,-0.79766446,-1.2884822,0.0070396326,-0.9777813,0.20950939,0
1.1122631,-0.72194266,-2.8265741,0.60290927,-0.16300024,-0.78098094,0
2.7565315,0.49528116,-0.027785361,-0.0070396326,0.9777813,-0.20950939,0
2.1432526,0.040449265,-2.3553419,0.60290927,-0.16300024,-0.78098094,0
-3.0060019,0.20702784,1.5753204,-0.60290927,0.16300024,0.78098094,0
2.7780981,-0.14578849,-1.4515648,0.60290927,-0.16300024,-0.78098094,0
1.4370514,0.31045225,-0.86596853,-0.0070396326,0.9777813,-0.20950939,0
0.82777655,0.76962346,3.1389947,0.79777867,0.13181299,0.58836597,0
-0.0090141594,0.97162759,2.5462861,-0.0070396326,0.9777813,-0.20950939,0
1.1867273,0.90691072,2.7182531,0.79777867,0.13181299,0.58836597,0
0.83394659,-0.91436762,-3.2129092,0.60290927,-0.16300024,-0.78098094,0
1.0082104,0.3849639,2.6195083,0.79777867,0.13181299,0.58836597,0
1.3906181,0.95440054,1.8196366,0.79777867,0.13181299,0.58836597,0
2.2314787,-0.054907769,1.0031791,0.79777867,0.13181299,0.58836597,0
-1.2782735,-0.99519461,-2.3215907,-0.79777867,-0.13181299,-0.58836597,0
2.5816674,-0.25865895,-1.9762917,0.60290927,-0.16300024,-0.78098094,0
-1.9530988,-0.13499674,-1.2348523,-0.79777867,-0.13181299,-0.58836597,0
0.74052286,-0.41313705,-3.1411517,0.60290927,-0.16300024,-0.78098094,0
-1.5761454,0.84668732,2.3746352,-0.60290927,0.16300024,0.78098094,0
-2.2296429,0.606264,2.0641131,-0.60290927,0.16300024,0.78098094,0
-0.74152672,0.61529893,2.9563167,-0.60290927,0.16300024,0.78098094,0
-3.6236498,-0.48954058,0.57342833,-0.79777867,-0.13181299,-0.58836597,0
3.1423042,-0.27744019,0.36937886,0.79777867,0.13181299,0.58836597,0
1.6558223,-0.1175857,-2.4517927,0.60290927,-0.16300024,-0.78098094,0
2.3144996,-0.77782816,-1.3039358,0.0070396326,-0.9777813,0.20950939,0
-2.5646868,-0.35935593,-0.89907223,-0.79777867,-0.13181299,-0.58836597,0
1.5514071,0.88175488,1.8066683,0.79777867,0.13181299,0.58836597,0
0.43442839,0.19065434,3.641634,0.79777867,0.13181299,0.58836597,0
-2.1304569,0.055088922,-1.0510348,-0.79777867,-0.13181299,-0.58836597,0
2.4199126,-0.27488428,-2.1580548,0.60290927,-0.16300024,-0.78098094,0
2.3995605,-0.18222275,-1.8845668,0.60290927,-0.16300024,-0.78098094,0
-0.875269,0.1893952,-1.4730136,-0.0070396326,0.9777813,-0.20950939,0
1.4073583,-0.33255556,1.0856471,0.0070396326,-0.9777813,0.20950939,0
1.2690023,-1.0218445,-2.8528709,0.60290927,-0.16300024,-0.78098094,0
3.7274463,0.093348004,-0.96497726,0.60290927,-0.16300024,-0.78098094,0
0.039213389,-0.9995411,-2.162437,0.0070396326,-0.9777813,0.20950939,0
-0.71288896,0.063488156,-1.9811795,-0.0070396326,0.9777813,-0.20950939,0
-0.76130986,0.5279085,0.32665342,-0.0070396326,0.9777813,-0.20950939,0
0.25516415,-0.59777194,-1.3143828,0.0070396326,-0.9777813,0.20950939,0
2.0816617,0.15572441,1.6993301,0.79777867,0.13181299,0.58836597,0
0.78370249,-0.6162045,-2.9317288,0.60290927,-0.16300024,-0.78098094,0
0.08183673,1.1410525,3.6017475,0.79777867,0.13181299,0.58836597,0
-1.8832239,0.87840515,1.2208661,-0.0070396326,0.9777813,-0.20950939,0
0.48507148,0.031440947,1.7392571,0.0070396326,-0.9777813,0.20950939,0
-3.0441334,-0.37521115,1.4665883,-0.60290927,0.16300024,0.78098094,0
-2.1379554,-0.29299343,-1.335233,-0.79777867,-0.13181299,-0.58836597,0
-0.63022882,-0.22294199,-2.780329,-0.0070396326,0.9777813,-0.20950939,0
-3.6211774,0.71094239,1.0394018,-0.60290927,0.16300024,0.78098094,0
0.11012685,0.91710204,3.7094491,-0.60290927,0.16300024,0.78098094,0
-2.5086884,0.37691051,-1.1434797,-0.79777867,-0.13181299,-0.58836597,0
2.5713267,0.36738765,0.36350471,0.79777867,0.13181299,0.58836597,0
1.2933261,0.69033664,2.3550684,0.79777867,0.13181299,0.58836597,0
0.44360441,0.57670915,3.2642384,0.79777867,0.13181299,0.58836597,0
0.26047134,0.72318232,3.6896858,-0.60290927,0.16300024,0.78098094,0
-1.0257137,0.43171465,3.1804361,-0.60290927,0.16300024,0.78098094,0
-2.9220188,-0.20489982,-0.2465232,-0.79777867,-0.13181299,-0.58836597,0
0.75472546,0.69889551,1.255512,-0.0070396326,0.9777813,-0.20950939,0
-1.8174529,0.87364483,1.6494026,-0.0070396326,0.9777813,-0.20950939,0
1.2839713,0.20333602,-2.2508285,-0.0070396326,0.9777813,-0.20950939,0
-0.53139865,0.43525645,3.2116411,-0.60290927,0.16300024,0.78098094,0
-0.52073056,-0.19605766,0.55829453,0.0070396326,-0.9777813,0.20950939,0
-2.7492652,-0.3108567,0.42082247,0.0070396326,-0.9777813,0.20950939,0
-2.1827531,-0.22660434,-1.3588084,-0.79777867,-0.13181299,-0.58836597,0
1.7280746,0.62120253,1.750296,0.79777867,0.13181299,0.58836597,0
2.4151881,-0.71018624,-1.7914858,0.60290927,-0.16300024,-0.78098094,0
2.4542699,-0.62162471,-1.5230074,0.0070396326,-0.9777813,0.20950939,0
0.92477453,-1.0471506,-2.6834464,0.60290927,-0.16300024,-0.78098094,0
2.6010182,-0.34059507,-1.8827276,0.60290927,-0.16300024,-0.78098094,0
0.98074323,-0.82112271,-2.1421177,0.0070396326,-0.9777813,0.20950939,0
3.5948567,0.18835834,-1.2612786,0.60290927,-0.16300024,-0.78098094,0
-3.8648136,0.53738719,0.94564754,-0.60290927,0.16300024,0.78098094,0
2.0575359,-0.78378576,-0.44650617,0.0070396326,-0.9777813,0.20950939,0
1.0885478,-0.97292101,-1.9408646,0.0070396326,-0.9777813,0.20950939,0
-1.9064425,0.26888567,2.2256706,-0.60290927,0.16300024,0.78098094,0
-0.55219448,0.076078154,-2.1584668,-0.0070396326,0.9777813,-0.20950939,0
-0.46695092,-0.29950631,0.87289643,0.0070396326,-0.9777813,0.20950939,0
-0.71210581,0.097336188,2.1731751,0.0070396326,-0.9777813,0.20950939,0
-0.3399148,-1.0346491,-3.809361,0.60290927,-0.16300024,-0.78098094,0
-0.38805336,-1.0995299,-3.4129033,-0.79777867,-0.13181299,-0.58836597,0
1.0219735,-0.71623307,-2.6865034,0.60290927,-0.16300024,-0.78098094,0
1.8101878,-0.43435413,0.94839281,0.0070396326,-0.9777813,0.20950939,0
1.2827703,0.4104867,2.3461847,0.79777867,0.13181299,0.58836597,0
-2.0824804,-0.21154334,-1.3486156,-0.79777867,-0.13181299,-0.58836597,0
-1.162196,0.35883939,2.8727174,-0.60290927,0.16300024,0.78098094,0
-2.3921015,-0.37532529,0.93477786,0.0070396326,-0.9777813,0.20950939,0
-1.2512646,-0.77309477,-2.6011474,-0.79777867,-0.13181299,-0.58836597,0
-1.6495179,-0.30169424,0.70001078,0.0070396326,-0.9777813,0.20950939,0
0.063887656,0.32191372,3.8646922,-0.60290927,0.16300024,0.78098094,0
-1.1528361,0.54490215,2.8544431,-0.60290927,0.16300024,0.78098094,0
-1.033244,-0.46230513,0.85292023,0.0070396326,-0.9777813,0.20950939,0
-0.10775223,0.38384485,3.4433939,-0.60290927,0.16300024,0.78098094,0
-0.30992159,-0.8983956,-1.1641558,0.0070396326,-0.9777813,0.20950939,0
-1.5111376,0.98797363,2.4216366,-0.60290927,0.16300024,0.78098094,0
2.374754,0.0043329,-1.6142244,-0.0070396326,0.9777813,-0.20950939,0
-1.9202468,0.17255156,-1.9045384,-0.79777867,-0.13181299,-0.58836597,0
-0.15775982,0.74640131,3.6219466,-0.60290927,0.16300024,0.78098094,0
-2.3708436,-0.18418044,1.0167511,0.0070396326,-0.9777813,0.20950939,0
-0.15081796,1.0760682,3.3790336,-0.60290927,0.16300024,0.78098094,0
0.32746238,0.86715055,3.5393426,0.79777867,0.13181299,0.58836597,0
0.22896409,1.1371994,3.6070147,-0.0070396326,0.9777813,-0.20950939,0
-2.3650839,0.39157954,2.1739132,-0.60290927,0.16300024,0.78098094,0
1.8740681,-0.58821535,-0.7429024,0.0070396326,-0.9777813,0.20950939,0
-0.82860196,0.94587147,1.9678253,-0.0070396326,0.9777813,-0.20950939,0
1.7318909,-0.43342173,0.77556503,0.0070396326,-0.9777813,0.20950939,0
-0.70567906,0.042820591,2.4882712,0.0070396326,-0.9777813,0.20950939,0
-1.6254716,-0.96157372,-1.6537774,-0.79777867,-0.13181299,-0.58836597,0
2.3855345,0.30387408,-0.71465075,-0.0070396326,0.9777813,-0.20950939,0
2.3100853,0.59734875,1.1303022,0.79777867,0.13181299,0.58836597,0
-3.112782,0.1904474,0.19736898,-0.79777867,-0.13181299,-0.58836597,0
-0.2998029,0.75996256,1.9349558,-0.0070396326,0.9777813,-0.20950939,0
-1.9477283,-0.47408018,-1.7854354,-0.79777867,-0.13181299,-0.58836597,0
1.4777471,0.53308541,-0.15836155,-0.0070396326,0.9777813,-0.20950939,0
-2.2823529,-0.32073495,-0.75260025,-0.79777867,-0.13181299,-0.58836597,0
0.50075561,-0.17925166,1.3440981,0.0070396326,-0.9777813,0.20950939,0
-0.42689779,-0.68642241,0.047370642,0.0070396326,-0.9777813,0.20950939,0
-0.46003723,0.1389745,2.48522,0.0070396326,-0.9777813,0.20950939,0
1.2618911,-0.74186945,-2.8844118,0.60290927,-0.16300024,-0.78098094,0
-2.5141971,-0.07225845,-0.63617086,-0.79777867,-0.13181299,-0.58836597,0
1.9657186,-0.4910087,-2.4026227,0.60290927,-0.16300024,-0.78098094,0
-0.57938147,-0.63083136,0.053244527,0.0070396326,-0.9777813,0.20950939,0
-1.3610837,-0.51231951,-2.6087687,-0.79777867,-0.13181299,-0.58836597,0
-3.1795301,0.27843446,1.3220184,-0.60290927,0.16300024,0.78098094,0
2.9314253,-0.65613079,-1.0186784,0.0070396326,-0.9777813,0.20950939,0
-2.855674,-0.062039256,1.6720413,-0.60290927,0.16300024,0.78098094,0
0.44688129,0.49802783,3.4012694,0.79777867,0.13181299,0.58836597,0
-1.2442852,-0.82190287,-0.88728809,0.0070396326,-0.9777813,0.20950939,0
-3.2921026,0.36030877,1.1270401,-0.60290927,0.16300024,0.78098094,0
-0.89952111,-1.1047833,-2.9161019,-0.79777867,-0.13181299,-0.58836597,0
-2.3067153,-0.25370508,2.0870743,-0.60290927,0.16300024,0.78098094,0
-0.40472081,-0.017470028,3.0747881,0.0070396326,-0.9777813,0.20950939,0
-0.73418599,-1.3091496,-3.21105,-0.79777867,-0.13181299,-0.58836597,0
1.7827362,-0.56458485,-2.1063995,0.60290927,-0.16300024,-0.78098094,0
1.8869379,-0.71591121,-1.7173288,0.0070396326,-0.9777813,0.20950939,0
0.77058196,1.0373797,2.9812832,0.79777867,0.13181299,0.58836597,0
-2.4411912,-0.12073676,-0.65769172,-0.79777867,-0.13181299,-0.58836597,0
-1.6413008,0.87967181,2.6343012,-0.60290927,0.16300024,0.78098094,0
-0.99243069,0.39072311,-0.53597546,-0.0070396326,0.9777813,-0.20950939,0
2.5373695,-0.12110823,1.0322667,0.79777867,0.13181299,0.58836597,0
0.56593454,-1.0256895,-3.0250561,0.60290927,-0.16300024,-0.78098094,0
3.1677182,0.26684144,-0.10759833,0.79777867,0.13181299,0.58836597,0
-1.9941689,0.50374073,2.0945039,-0.60290927,0.16300024,0.78098094,0
0.36191818,0.5653733,0.47822726,-0.0070396326,0.9777813,-0.20950939,0
-3.4623928,0.031313941,1.352124,-0.60290927,0.16300024,0.78098094,0
0.18988124,-1.2516785,-3.2399049,0.60290927,-0.16300024,-0.78098094,0
1.5461936,0.79780829,1.6442472,0.79777867,0.13181299,0.58836597,0
0.35945749,-0.15752661,1.294969,0.0070396326,-0.9777813,0.20950939,0
1.6851604,0.4349122,1.9446166,0.79777867,0.13181299,0.58836597,0
1.5142,-0.085290402,-2.1970372,-0.0070396326,0.9777813,-0.20950939,0
0.4264518,0.29029486,3.8074751,0.79777867,0.13181299,0.58836597,0
-0.3458271,-0.20273542,-3.8875732,-0.79777867,-0.13181299,-0.58836597,0
-0.70713878,-0.99252844,-2.8116703,0.0070396326,-0.9777813,0.20950939,0
1.4506222,0.70857722,0.93176532,-0.0070396326,0.9777813,-0.20950939,0
0.51490015,-0.95730788,-3.3734579,0.60290927,-0.16300024,-0.78098094,0
0.97860885,0.43998146,-0.24987942,-0.0070396326,0.9777813,-0.20950939,0
-3.3067672,0.13070755,1.2076235,-0.60290927,0.16300024,0.78098094,0
1.534387,0.82460237,0.5846256,-0.0070396326,0.9777813,-0.20950939,0
3.0952749,0.42115575,-0.55158114,-0.0070396326,0.9777813,-0.20950939,0
-0.21616989,-0.52949208,-3.7897096,0.60290927,-0.16300024,-0.78098094,0
-1.2823654,-0.90819681,-1.7773938,0.0070396326,-0.9777813,0.20950939,0
