-1.2359319,-3.340266,2.1842799,-0.41019005,-0.77419686,0.48204058,0
3.3733883,2.5905714,-0.03080821,-0.31794059,0.61678672,0.72006071,0
-0.14912379,2.6205997,-2.7579536,0.31794059,-0.61678672,-0.72006071,0
-0.21908063,1.3414377,-0.58204347,-0.31794059,0.61678672,0.72006071,0
2.4402564,0.18578771,0.59545016,0.85478497,-0.14210151,0.49914855,0
-2.4359286,-3.1338813,1.5584621,-0.41019005,-0.77419686,0.48204058,0
0.32833481,-3.1080806,3.2324917,0.85478497,-0.14210151,0.49914855,0
-1.6619544,-3.0622313,1.8974271,-0.41019005,-0.77419686,0.48204058,0
1.2408862,2.2299783,-2.1160548,0.31794059,-0.61678672,-0.72006071,0
-0.87381148,0.60055882,-0.23491681,-0.31794059,0.61678672,0.72006071,0
2.6796074,0.079132915,0.24428654,0.85478497,-0.14210151,0.49914855,0
-2.7959685,-3.1353381,1.214905,-0.41019005,-0.77419686,0.48204058,0
-0.35065961,3.5901668,-3.0432873,0.41019005,0.77419686,-0.48204058,0
-2.7573678,-1.6117976,-0.3507483,-0.85478497,0.14210151,-0.49914855,0
-2.5587547,-2.6748896,1.9367459,-0.41019005,-0.77419686,0.48204058,0
-2.3679388,-0.211438,-0.7980566,-0.85478497,0.14210151,-0.49914855,0
-3.6774931,-2.8076911,1.0204494,-0.41019005,-0.77419686,0.48204058,0
-3.3446527,-2.1818111,0.11569858,-0.85478497,0.14210151,-0.49914855,0
2.3247914,2.5831244,-0.33431458,-0.31794059,0.61678672,0.72006071,0
-1.2562866,0.32884347,-1.7942369,0.31794059,-0.61678672,-0.72006071,0
-3.1002667,-2.4959345,1.5612426,-0.41019005,-0.77419686,0.48204058,0
2.5646594,0.51610035,0.37084448,0.85478497,-0.14210151,0.49914855,0
-3.0512323,-1.4749367,-0.46437168,-0.85478497,0.14210151,-0.49914855,0
2.790978,1.2030039,0.80879283,0.85478497,-0.14210151,0.49914855,0
0.59233975,1.1259924,0.039316297,-0.31794059,0.61678672,0.72006071,0
3.4441452,1.508286,-0.31366611,0.31794059,-0.61678672,-0.72006071,0
-3.1964552,-2.203706,-0.38508415,-0.85478497,0.14210151,-0.49914855,0
-1.3497422,-0.022560388,-1.3748741,0.31794059,-0.61678672,-0.72006071,0
1.0401182,-2.7065194,2.0981286,0.85478497,-0.14210151,0.49914855,0
1.1001825,-2.4833529,2.1579323,0.85478497,-0.14210151,0.49914855,0
2.9418588,3.0832903,-0.85023952,0.41019005,0.77419686,-0.48204058,0
-2.1233671,-2.9142578,1.7049515,-0.41019005,-0.77419686,0.48204058,0
-1.407393,2.0079117,-2.0436468,-0.85478497,0.14210151,-0.49914855,0
-1.1613214,-3.335582,2.1243243,-0.41019005,-0.77419686,0.48204058,0
1.8167036,-1.5079387,1.5699695,0.85478497,-0.14210151,0.49914855,0
0.032938004,3.7544153,-2.421932,0.41019005,0.77419686,-0.48204058,0
-2.220844,-2.4403944,0.61365294,0.31794059,-0.61678672,-0.72006071,0
-0.22549725,-3.2753851,2.6249833,-0.41019005,-0.77419686,0.48204058,0
0.6152389,-3.3258123,3.0815272,-0.41019005,-0.77419686,0.48204058,0
0.7453444,3.1486933,-2.6207509,0.41019005,0.77419686,-0.48204058,0
-0.039276481,1.0961008,-1.7050743,0.31794059,-0.61678672,-0.72006071,0
-1.0300992,2.6507444,-2.1824646,-0.31794059,0.61678672,0.72006071,0
-1.6943047,0.074841395,-1.4304582,0.31794059,-0.61678672,-0.72006071,0
-1.0987461,1.7373828,-2.3781335,-0.85478497,0.14210151,-0.49914855,0
1.8134472,3.2470763,-1.7264042,0.41019005,0.77419686,-0.48204058,0
3.1933818,2.5290782,-1.441437,0.41019005,0.77419686,-0.48204058,0
3.3180397,2.8049519,-1.1083846,0.41019005,0.77419686,-0.48204058,0
-1.5297725,-3.1045909,2.1317286,-0.41019005,-0.77419686,0.48204058,0
-1.6947589,1.5999117,-1.8397608,-0.85478497,0.14210151,-0.49914855,0
0.94714069,3.1375804,-2.4997759,0.41019005,0.77419686,-0.48204058,0
0.57010865,-0.16779,1.3245101,-0.31794059,0.61678672,0.72006071,0
1.3277142,1.8211665,-0.44147432,-0.31794059,0.61678672,0.72006071,0
-1.4734902,1.3022354,-2.0184371,-0.85478497,0.14210151,-0.49914855,0
-2.0344784,0.91001135,-1.1603713,-0.85478497,0.14210151,-0.49914855,0
1.2322216,-1.1334084,0.78914714,0.31794059,-0.61678672,-0.72006071,0
-0.048939705,-3.5328836,2.7218914,-0.41019005,-0.77419686,0.48204058,0
-0.5568068,3.5750544,-2.7745903,0.41019005,0.77419686,-0.48204058,0
0.11291814,3.5979517,-2.6867726,0.41019005,0.77419686,-0.48204058,0
2.2274313,-0.21650347,1.4442579,0.85478497,-0.14210151,0.49914855,0
1.1061726,-1.4962873,2.5872602,0.85478497,-0.14210151,0.49914855,0
-0.33895382,0.5132854,0.03840673,-0.31794059,0.61678672,0.72006071,0
-2.8658056,-2.8318708,1.7256801,-0.41019005,-0.77419686,0.48204058,0
-3.1741362,-1.6454139,0.036041021,-0.85478497,0.14210151,-0.49914855,0
2.829613,0.4766551,0.63674462,0.85478497,-0.14210151,0.49914855,0
-0.40738606,3.355058,-3.2503772,-0.85478497,0.14210151,-0.49914855,0
-2.6043818,-0.68246341,-0.470662,-0.85478497,0.14210151,-0.49914855,0
-0.86099076,3.515439,-2.6729841,-0.85478497,0.14210151,-0.49914855,0
-0.91898155,-3.2265363,2.2341337,-0.41019005,-0.77419686,0.48204058,0
0.41967916,-3.0533624,3.0872042,0.85478497,-0.14210151,0.49914855,0
2.5292463,0.30315137,0.22275949,0.31794059,-0.61678672,-0.72006071,0
-0.024531841,-2.9506793,3.3605783,-0.31794059,0.61678672,0.72006071,0
-3.1512043,-1.9875097,0.19019699,-0.85478497,0.14210151,-0.49914855,0
1.8701012,-0.092374191,1.5866199,-0.31794059,0.61678672,0.72006071,0
3.5028069,3.0069263,-0.89999223,0.41019005,0.77419686,-0.48204058,0
-0.24543428,2.9729998,-3.3529932,-0.85478497,0.14210151,-0.49914855,0
2.1598465,-0.5048216,1.0317985,0.85478497,-0.14210151,0.49914855,0
1.8890505,3.0624049,-1.602144,0.41019005,0.77419686,-0.48204058,0
-2.1790361,-3.0073967,1.3903878,-0.41019005,-0.77419686,0.48204058,0
1.6328734,3.2294724,-1.8257005,0.41019005,0.77419686,-0.48204058,0
2.6703813,1.5412996,0.50790477,0.85478497,-0.14210151,0.49914855,0
-3.1381681,-1.7479914,-0.42486286,-0.85478497,0.14210151,-0.49914855,0
1.4039087,-1.7593341,1.493027,0.31794059,-0.61678672,-0.72006071,0
-2.8785887,-2.0479383,0.063988924,0.31794059,-0.61678672,-0.72006071,0
-1.0102608,-3.1620286,2.1091032,-0.41019005,-0.77419686,0.48204058,0
1.8473599,0.42275694,-0.046823144,0.31794059,-0.61678672,-0.72006071,0
1.4267923,3.0586855,-1.8014553,0.41019005,0.77419686,-0.48204058,0
-3.4226151,-2.9194214,0.082646847,-0.85478497,0.14210151,-0.49914855,0
0.16264008,1.5705202,-0.84436226,-0.31794059,0.61678672,0.72006071,0
-0.68332183,-1.25192,0.058717728,0.31794059,-0.61678672,-0.72006071,0
-0.82602668,2.754174,-3.1886952,-0.85478497,0.14210151,-0.49914855,0
3.4339645,2.7496428,-1.2367961,0.41019005,0.77419686,-0.48204058,0
2.5705619,3.2445619,-1.246356,0.41019005,0.77419686,-0.48204058,0
0.50596696,-1.7296035,0.87541288,0.31794059,-0.61678672,-0.72006071,0
-1.4986168,-3.1536114,2.1879702,-0.41019005,-0.77419686,0.48204058,0
-0.43118075,-0.39138985,0.86466265,-0.31794059,0.61678672,0.72006071,0
-0.84719872,2.0091379,-2.9496627,-0.85478497,0.14210151,-0.49914855,0
0.65870571,-3.2903771,2.7314391,0.85478497,-0.14210151,0.49914855,0
0.55694431,3.0615418,-2.7920575,0.41019005,0.77419686,-0.48204058,0
3.3427203,1.7594969,-0.71989489,0.31794059,-0.61678672,-0.72006071,0
-1.2660915,0.23922724,-1.3257223,0.31794059,-0.61678672,-0.72006071,0
-2.8256323,-2.2940936,0.080100298,0.31794059,-0.61678672,-0.72006071,0
2.3064053,-0.45789927,0.55879772,0.31794059,-0.61678672,-0.72006071,0
-3.0468063,-1.5368942,-0.023212671,-0.85478497,0.14210151,-0.49914855,0
-1.142226,2.5884781,-2.6957293,-0.85478497,0.14210151,-0.49914855,0
2.3972919,-0.54435134,0.62195957,0.31794059,-0.61678672,-0.72006071,0
0.62277645,3.234093,-2.9413505,0.41019005,0.77419686,-0.48204058,0
-2.6105194,-2.7995641,1.8782127,-0.41019005,-0.77419686,0.48204058,0
0.48530155,3.3527644,-2.3732209,0.41019005,0.77419686,-0.48204058,0
-0.24851632,3.4121866,-2.5443196,-0.31794059,0.61678672,0.72006071,0
-2.3505652,-2.1734822,0.30557537,0.31794059,-0.61678672,-0.72006071,0
-0.16582549,0.16445208,0.43067759,-0.31794059,0.61678672,0.72006071,0
3.570076,1.9288754,-0.19894958,0.85478497,-0.14210151,0.49914855,0
2.7360497,1.0567541,0.70175743,0.85478497,-0.14210151,0.49914855,0
0.052839398,1.7948093,-2.064728,0.31794059,-0.61678672,-0.72006071,0
-0.69066536,-2.2201376,2.0838821,-0.31794059,0.61678672,0.72006071,0
1.749933,-0.10228842,1.6138809,0.85478497,-0.14210151,0.49914855,0
1.5033617,-0.43250057,1.9566538,-0.31794059,0.61678672,0.72006071,0
1.6395943,-0.71990466,2.0873101,-0.31794059,0.61678672,0.72006071,0
-3.4540708,-1.8245552,0.073424816,-0.85478497,0.14210151,-0.49914855,0
0.5412879,0.12348551,-0.36165622,0.31794059,-0.61678672,-0.72006071,0
-0.026716113,0.01039499,-0.73675781,0.31794059,-0.61678672,-0.72006071,0
-2.0603704,0.27827752,-0.41310295,-0.31794059,0.61678672,0.72006071,0
-1.2536077,-3.1579244,1.7821469,-0.41019005,-0.77419686,0.48204058,0
0.027272642,0.41192198,0.42067379,-0.31794059,0.61678672,0.72006071,0
-2.178762,0.76886892,-1.2840422,-0.85478497,0.14210151,-0.49914855,0
3.0785224,1.7332864,0.18408322,0.85478497,-0.14210151,0.49914855,0
-2.616019,-0.25334638,-0.69382775,-0.85478497,0.14210151,-0.49914855,0
1.169559,-0.053748906,1.3242776,-0.31794059,0.61678672,0.72006071,0
-2.3402381,-3.1719632,0.9762764,-0.41019005,-0.77419686,0.48204058,0
2.4047127,2.9213016,-1.2963617,0.41019005,0.77419686,-0.48204058,0
3.1614184,2.3294144,-1.4087825,0.31794059,-0.61678672,-0.72006071,0
3.907038,2.394083,-0.64925241,0.85478497,-0.14210151,0.49914855,0
-1.3615034,-0.5946514,0.58189398,-0.31794059,0.61678672,0.72006071,0
1.1116214,-2.222116,2.1961203,0.85478497,-0.14210151,0.49914855,0
-1.0623374,-3.2671678,1.7534537,-0.41019005,-0.77419686,0.48204058,0
-0.9960165,1.9913437,-2.713558,-0.85478497,0.14210151,-0.49914855,0
1.5435183,-0.79674554,2.2979424,-0.31794059,0.61678672,0.72006071,0
1.5047233,-1.390841,2.0810261,0.85478497,-0.14210151,0.49914855,0
-2.3168359,-0.8262071,0.26355207,-0.31794059,0.61678672,0.72006071,0
-3.0906212,-2.5264626,1.5037973,-0.41019005,-0.77419686,0.48204058,0
-0.51769555,1.4365244,-2.0605943,0.31794059,-0.61678672,-0.72006071,0
-1.7161951,-3.4633632,1.6131458,-0.41019005,-0.77419686,0.48204058,0
-1.7143073,-3.1117933,2.2216725,-0.41019005,-0.77419686,0.48204058,0
1.1155932,-2.3760214,2.4945765,0.85478497,-0.14210151,0.49914855,0
-2.5048146,-2.9520824,1.5942602,-0.41019005,-0.77419686,0.48204058,0
1.9084272,-1.0823821,1.2834042,0.85478497,-0.14210151,0.49914855,0
-1.3038745,0.60323644,-1.875069,0.31794059,-0.61678672,-0.72006071,0
-2.4823747,-0.49943823,-0.79190862,-0.85478497,0.14210151,-0.49914855,0
-1.843021,-3.2342875,1.5359945,0.31794059,-0.61678672,-0.72006071,0
2.1849639,0.03462851,0.45657116,0.31794059,-0.61678672,-0.72006071,0
-1.4235638,-1.6901727,1.6602002,-0.31794059,0.61678672,0.72006071,0
0.57026482,3.3493783,-2.5979714,0.41019005,0.77419686,-0.48204058,0
2.3380389,2.7533379,-1.779242,0.41019005,0.77419686,-0.48204058,0
0.035771966,-3.0658484,3.1842444,-0.41019005,-0.77419686,0.48204058,0
-1.0563788,1.4104823,-2.3986444,-0.85478497,0.14210151,-0.49914855,0
-1.4794098,-2.9558027,1.0343096,0.31794059,-0.61678672,-0.72006071,0
-2.8547583,-2.5361767,0.24020004,0.31794059,-0.61678672,-0.72006071,0
2.4360967,0.53567982,1.1209656,0.85478497,-0.14210151,0.49914855,0
3.1346426,1.6573194,0.3590014,0.85478497,-0.14210151,0.49914855,0
-1.3417318,1.5429641,-2.436147,-0.85478497,0.14210151,-0.49914855,0
-3.0765941,-3.0159514,0.78852153,-0.41019005,-0.77419686,0.48204058,0
0.38682017,1.0504768,-0.20991337,-0.31794059,0.61678672,0.72006071,0
-1.1357436,-3.4728673,1.6929181,-0.41019005,-0.77419686,0.48204058,0
-2.6694794,-3.322598,1.0723755,-0.41019005,-0.77419686,0.48204058,0
1.2301338,-1.5513047,2.3491387,0.85478497,-0.14210151,0.49914855,0
2.0521846,0.22756159,0.19714111,0.31794059,-0.61678672,-0.72006071,0
-2.9634795,-1.2595146,-0.090016842,-0.85478497,0.14210151,-0.49914855,0
0.66208744,-3.6330607,3.2273214,0.85478497,-0.14210151,0.49914855,0
2.1141405,0.036635384,1.3368325,-0.31794059,0.61678672,0.72006071,0
-0.23159596,-1.3894594,1.5299042,-0.31794059,0.61678672,0.72006071,0
0.79983997,-2.81129,2.6043234,0.85478497,-0.14210151,0.49914855,0
1.9652956,-0.21416235,0.4477393,0.31794059,-0.61678672,-0.72006071,0
0.032420903,-1.5165726,0.66850847,0.31794059,-0.61678672,-0.72006071,0
0.15118897,3.0836689,-3.0256741,0.31794059,-0.61678672,-0.72006071,0
1.8178021,0.79336882,-0.36391532,0.31794059,-0.61678672,-0.72006071,0
-0.46514893,3.5081031,-3.1371791,-0.85478497,0.14210151,-0.49914855,0
0.91901934,1.5764457,-0.063999414,-0.31794059,0.61678672,0.72006071,0
1.1995782,3.2404308,-1.7957697,-0.31794059,0.61678672,0.72006071,0
-1.5902629,1.9526134,-1.9020427,-0.85478497,0.14210151,-0.49914855,0
-1.1477339,-0.10130513,0.31557712,-0.31794059,0.61678672,0.72006071,0
-0.71348608,1.7097847,-2.3780038,0.31794059,-0.61678672,-0.72006071,0
-2.4964988,-2.457104,0.15379333,0.31794059,-0.61678672,-0.72006071,0
0.64490187,3.1994939,-2.5659599,0.41019005,0.77419686,-0.48204058,0
1.639189,-1.4752734,1.1224856,0.31794059,-0.61678672,-0.72006071,0
3.838341,2.5131259,-0.5306251,0.85478497,-0.14210151,0.49914855,0
-1.5292649,0.86056763,-1.7700477,-0.85478497,0.14210151,-0.49914855,0
-1.1413329,0.38304913,-0.15917127,-0.31794059,0.61678672,0.72006071,0
-0.35153842,2.9215403,-3.2906256,-0.85478497,0.14210151,-0.49914855,0
2.4531374,2.9853783,-1.5398731,0.41019005,0.77419686,-0.48204058,0
0.80568385,-2.8542545,2.3075187,0.31794059,-0.61678672,-0.72006071,0
2.9181614,0.36742657,0.091813803,0.85478497,-0.14210151,0.49914855,0
-1.4764931,1.9571692,-2.1290314,-0.85478497,0.14210151,-0.49914855,0
-1.5569358,-3.2022543,1.5833094,-0.41019005,-0.77419686,0.48204058,0
0.42229795,0.077357769,0.68791765,-0.31794059,0.61678672,0.72006071,0
2.0476494,2.3942511,-1.6129061,0.31794059,-0.61678672,-0.72006071,0
2.8778477,3.142113,-1.1021707,0.41019005,0.77419686,-0.48204058,0
3.6929762,2.5204725,-0.93608165,0.41019005,0.77419686,-0.48204058,0
-1.2169154,1.4207668,-2.4304068,-0.85478497,0.14210151,-0.49914855,0
-1.3327339,-2.929054,2.1051466,-0.41019005,-0.77419686,0.48204058,0
-0.44401789,3.4851351,-3.0324521,0.41019005,0.77419686,-0.48204058,0
0.1621834,-3.5089478,2.8562522,-0.41019005,-0.77419686,0.48204058,0
-1.1246519,-0.55841619,-0.76808292,0.31794059,-0.61678672,-0.72006071,0
-0.98830509,2.7459714,-2.4709144,-0.85478497,0.14210151,-0.49914855,0
1.267776,-0.57471108,0.45199567,0.31794059,-0.61678672,-0.72006071,0
1.3079326,2.7916243,-1.2593668,-0.31794059,0.61678672,0.72006071,0
1.0683901,0.080096722,0.901869,-0.31794059,0.61678672,0.72006071,0
0.86512107,3.210037,-1.9932112,0.41019005,0.77419686,-0.48204058,0
-1.2568424,2.0637488,-2.0623794,-0.85478497,0.14210151,-0.49914855,0
3.2495511,2.814383,-0.42297959,-0.31794059,0.61678672,0.72006071,0
1.1010816,-2.8322806,2.6853333,0.85478497,-0.14210151,0.49914855,0
-1.6635567,-2.3419957,0.73428726,0.31794059,-0.61678672,-0.72006071,0
-1.4259702,-2.917187,2.3179321,-0.41019005,-0.77419686,0.48204058,0
1.6960254,-1.0523151,2.0501575,0.85478497,-0.14210151,0.49914855,0
-0.66109407,1.485393,-0.94676077,-0.31794059,0.61678672,0.72006071,0
-0.9394564,-0.59213746,0.71639627,-0.31794059,0.61678672,0.72006071,0
-0.95420408,3.5489163,-2.5962691,-0.85478497,0.14210151,-0.49914855,0
-0.89127499,-1.3891016,0.072497606,0.31794059,-0.61678672,-0.72006071,0
3.5784869,2.4840817,-0.69976425,0.85478497,-0.14210151,0.49914855,0
2.8822162,0.61265332,0.22655511,0.85478497,-0.14210151,0.49914855,0
0.95389462,0.15530455,0.93627369,-0.31794059,0.61678672,0.72006071,0
3.0134668,1.5628505,0.056794405,0.85478497,-0.14210151,0.49914855,0
-2.8908458,-3.0338221,0.84317207,-0.41019005,-0.77419686,0.48204058,0
-2.4804807,-2.4720602,0.22615147,0.31794059,-0.61678672,-0.72006071,0
2.863111,0.54861444,0.36530864,0.85478497,-0.14210151,0.49914855,0
3.6405182,3.0181191,-0.76132011,0.41019005,0.77419686,-0.48204058,0
2.1411831,-1.0622423,0.97850287,0.31794059,-0.61678672,-0.72006071,0
0.14672029,3.3034923,-3.0592496,0.41019005,0.77419686,-0.48204058,0
-0.87730098,2.904233,-2.5994306,-0.85478497,0.14210151,-0.49914855,0
-1.7142431,-0.66714835,-0.73052227,0.31794059,-0.61678672,-0.72006071,0
3.5534852,2.6608167,-0.65181613,0.85478497,-0.14210151,0.49914855,0
2.5718992,0.7469511,0.85118604,0.85478497,-0.14210151,0.49914855,0
-0.83735633,2.5384345,-3.223171,-0.85478497,0.14210151,-0.49914855,0
0.82094336,-3.1514204,2.8451703,0.85478497,-0.14210151,0.49914855,0
-2.3740659,-0.26525348,-1.206813,-0.85478497,0.14210151,-0.49914855,0
-1.5729051,1.2973263,-2.1693368,-0.85478497,0.14210151,-0.49914855,0
0.7433548,-2.8253891,2.9547546,0.85478497,-0.14210151,0.49914855,0
2.271126,3.3683925,-1.2703521,0.41019005,0.77419686,-0.48204058,0
-2.4494209,-0.47235519,-0.87648863,-0.85478497,0.14210151,-0.49914855,0
-3.5980403,-2.7987607,0.84527302,-0.41019005,-0.77419686,0.48204058,0
0.81863558,0.59446323,-0.67622757,0.31794059,-0.61678672,-0.72006071,0
2.1224997,-0.39430141,1.3841441,0.85478497,-0.14210151,0.49914855,0
-3.3371289,-1.4489415,0.018471956,-0.85478497,0.14210151,-0.49914855,0
1.7316718,-1.083129,1.6690936,0.85478497,-0.14210151,0.49914855,0
3.0040565,2.9943833,-1.29403,0.41019005,0.77419686,-0.48204058,0
-0.99425554,-3.1720576,2.513351,-0.41019005,-0.77419686,0.48204058,0
0.369977,-3.6130781,2.9951787,0.85478497,-0.14210151,0.49914855,0
-1.9884152,-2.8336213,1.9831142,-0.41019005,-0.77419686,0.48204058,0
2.2553577,2.0808392,-1.7408781,0.31794059,-0.61678672,-0.72006071,0
2.3198419,0.17334336,0.14450806,0.31794059,-0.61678672,-0.72006071,0
1.8646321,-0.99854898,1.6006458,0.85478497,-0.14210151,0.49914855,0
-1.8784908,-2.7829874,1.9120498,-0.41019005,-0.77419686,0.48204058,0
-2.4546244,-0.99626529,-0.76369321,-0.85478497,0.14210151,-0.49914855,0
-0.87475598,0.37397081,-0.11192712,-0.31794059,0.61678672,0.72006071,0
1.6513015,-0.5566358,0.78244972,0.31794059,-0.61678672,-0.72006071,0
-0.068514705,3.0946393,-3.010181,0.41019005,0.77419686,-0.48204058,0
1.9293809,-0.40193826,1.2322842,0.85478497,-0.14210151,0.49914855,0
3.5850708,2.6373034,-0.58749342,0.85478497,-0.14210151,0.49914855,0
0.55068851,-3.8012364,2.7810619,-0.41019005,-0.77419686,0.48204058,0
-0.77338034,-1.6945359,1.7546999,-0.31794059,0.61678672,0.72006071,0
1.4988101,-1.9433626,1.8922154,0.31794059,-0.61678672,-0.72006071,0
-1.3744477,0.25854945,-0.23990756,-0.31794059,0.61678672,0.72006071,0
0.51310199,3.415319,-2.7479057,0.41019005,0.77419686,-0.48204058,0
2.1055262,3.122822,-1.3137765,0.41019005,0.77419686,-0.48204058,0
0.88899869,3.4665852,-1.7907281,0.41019005,0.77419686,-0.48204058,0
1.8525287,2.7732618,-2.0441651,0.41019005,0.77419686,-0.48204058,0
3.6853628,2.78215,-0.93911695,0.41019005,0.77419686,-0.48204058,0
-1.8607423,-3.0515342,1.0991099,0.31794059,-0.61678672,-0.72006071,0
-2.2385702,-3.3124595,1.1804073,-0.41019005,-0.77419686,0.48204058,0
-1.2516792,2.0160444,-2.1979115,-0.85478497,0.14210151,-0.49914855,0
-1.221156,-1.2573891,1.1459384,-0.31794059,0.61678672,0.72006071,0
-3.062789,-2.874747,0.95101452,-0.41019005,-0.77419686,0.48204058,0
-1.4622103,-3.4867756,1.435463,-0.41019005,-0.77419686,0.48204058,0
1.7452986,1.5696036,-1.5048305,0.31794059,-0.61678672,-0.72006071,0
1.422385,-0.77939796,0.56683731,0.31794059,-0.61678672,-0.72006071,0
0.33356026,1.481674,-1.8210344,0.31794059,-0.61678672,-0.72006071,0
1.1693287,-1.529296,2.4960368,0.85478497,-0.14210151,0.49914855,0
1.3028405,2.7187819,-2.5343795,0.41019005,0.77419686,-0.48204058,0
-1.2215319,2.0979743,-2.3577209,-0.85478497,0.14210151,-0.49914855,0
1.8006724,2.9166484,-1.7489004,0.41019005,0.77419686,-0.48204058,0
-2.7432191,-2.7505188,1.1941483,-0.41019005,-0.77419686,0.48204058,0
1.8223845,1.9656205,-0.39278936,-0.31794059,0.61678672,0.72006071,0
-3.3033109,-2.727406,1.4177225,-0.41019005,-0.77419686,0.48204058,0
1.8853402,-0.19882332,1.3880708,0.85478497,-0.14210151,0.49914855,0
-1.2822623,2.4301546,-2.0546806,-0.85478497,0.14210151,-0.49914855,0
-3.3091016,-3.0397315,0.34153461,-0.41019005,-0.77419686,0.48204058,0
1.2564265,3.3122923,-2.0380728,0.41019005,0.77419686,-0.48204058,0
0.10452366,-3.421979,3.2282615,-0.41019005,-0.77419686,0.48204058,0
-2.3038828,-2.814466,2.0204909,-0.41019005,-0.77419686,0.48204058,0
-1.9118043,-2.3102956,1.5579439,-0.31794059,0.61678672,0.72006071,0
2.3661079,3.1637456,-0.88151479,0.41019005,0.77419686,-0.48204058,0
1.5183542,-0.52398914,0.53058952,0.31794059,-0.61678672,-0.72006071,0
-2.4381466,-0.60451663,0.12576687,-0.31794059,0.61678672,0.72006071,0
3.2613196,1.9329735,0.20481229,0.85478497,-0.14210151,0.49914855,0
0.18471932,1.6863875,-2.1314058,0.31794059,-0.61678672,-0.72006071,0
-2.6634345,-3.0809238,1.2495637,-0.41019005,-0.77419686,0.48204058,0
3.4075181,2.630759,-1.4529989,0.41019005,0.77419686,-0.48204058,0
-0.61033225,2.7515011,-3.1700063,0.31794059,-0.61678672,-0.72006071,0
0.0087490678,-0.38087913,0.96866727,-0.31794059,0.61678672,0.72006071,0
-1.4077506,1.6070968,-2.0481472,-0.85478497,0.14210151,-0.49914855,0
1.6749039,-1.5252622,2.0301232,0.85478497,-0.14210151,0.49914855,0
-1.1236253,-0.68815327,1.0456356,-0.31794059,0.61678672,0.72006071,0
-2.5092189,0.12955627,-0.98034698,-0.85478497,0.14210151,-0.49914855,0
-0.85334444,-3.2044299,2.6421661,-0.41019005,-0.77419686,0.48204058,0
2.5870056,0.44198319,0.11881983,0.31794059,-0.61678672,-0.72006071,0
-0.67117786,3.6069918,-2.8089228,0.41019005,0.77419686,-0.48204058,0
-1.1634309,0.75287151,-1.8743392,0.31794059,-0.61678672,-0.72006071,0
-1.1320269,-3.1599529,2.2690766,-0.41019005,-0.77419686,0.48204058,0
-3.2716718,-1.9682903,-0.18204761,-0.85478497,0.14210151,-0.49914855,0
1.304899,-1.4576919,2.0791214,0.85478497,-0.14210151,0.49914855,0
-1.0974786,2.9814134,-2.5701749,-0.85478497,0.14210151,-0.49914855,0
0.96778536,3.4060194,-1.8810871,0.41019005,0.77419686,-0.48204058,0
-2.3262978,-2.6025465,1.8918875,-0.31794059,0.61678672,0.72006071,0
-3.6170163,-2.239192,0.63848257,-0.85478497,0.14210151,-0.49914855,0
-0.9221108,3.0719533,-2.7931969,-0.85478497,0.14210151,-0.49914855,0
-3.019716,-2.7991977,0.91856647,-0.41019005,-0.77419686,0.48204058,0
-1.1419924,-3.2159429,1.8744383,-0.41019005,-0.77419686,0.48204058,0
-2.7679162,-1.8520644,-0.053248167,0.31794059,-0.61678672,-0.72006071,0
-1.6870694,-3.1058383,1.7394767,-0.41019005,-0.77419686,0.48204058,0
-3.1677685,-0.82639313,-0.19618368,-0.85478497,0.14210151,-0.49914855,0
0.6242727,2.9245522,-2.9504559,0.41019005,0.77419686,-0.48204058,0
2.9920461,2.6751831,-0.24906635,-0.31794059,0.61678672,0.72006071,0
1.6322587,3.0755887,-1.9506454,0.41019005,0.77419686,-0.48204058,0
0.19433725,3.1810188,-2.2036736,-0.31794059,0.61678672,0.72006071,0
-0.54170132,2.8721652,-3.3633449,-0.85478497,0.14210151,-0.49914855,0
1.1820776,-0.91969144,0.86482584,0.31794059,-0.61678672,-0.72006071,0
2.3409076,-0.53216594,0.62408352,0.31794059,-0.61678672,-0.72006071,0
2.577076,0.096442074,0.75162888,0.85478497,-0.14210151,0.49914855,0
1.3659124,-1.3740168,1.9291296,0.85478497,-0.14210151,0.49914855,0
-2.2085967,0.77182281,-0.98916066,-0.31794059,0.61678672,0.72006071,0
1.4004421,-0.52866566,0.22264242,0.31794059,-0.61678672,-0.72006071,0
-3.5430915,-2.7294865,0.8087945,-0.41019005,-0.77419686,0.48204058,0
2.9880579,2.3436618,0.069475651,-0.31794059,0.61678672,0.72006071,0
-0.93281102,2.8033218,-2.287452,-0.85478497,0.14210151,-0.49914855,0
-0.16197908,-3.1825039,3.2864385,-0.41019005,-0.77419686,0.48204058,0
-0.3246367,3.5281696,-2.3829203,-0.31794059,0.61678672,0.72006071,0
3.3235726,2.5324347,-0.99473286,0.41019005,0.77419686,-0.48204058,0
1.3487526,3.5360711,-1.5337033,0.41019005,0.77419686,-0.48204058,0
1.8656884,2.8308465,-1.8682618,0.41019005,0.77419686,-0.48204058,0
-0.87880516,-2.7237332,2.6379011,-0.31794059,0.61678672,0.72006071,0
0.12093306,-2.9795189,3.5079353,-0.41019005,-0.77419686,0.48204058,0
-2.033021,0.077170141,-1.2686422,-0.85478497,0.14210151,-0.49914855,0
-1.6559765,1.1041104,-1.6459529,-0.85478497,0.14210151,-0.49914855,0
-0.16847014,-3.549654,2.3895826,-0.41019005,-0.77419686,0.48204058,0
0.67023897,-1.5824529,1.1832017,0.31794059,-0.61678672,-0.72006071,0
-1.1275849,1.9114208,-2.3747742,-0.85478497,0.14210151,-0.49914855,0
0.9186759,-3.0315757,2.8334911,0.85478497,-0.14210151,0.49914855,0
-0.52268267,-2.900275,2.9754136,-0.31794059,0.61678672,0.72006071,0
-0.21408498,-3.1832869,3.1907039,-0.41019005,-0.77419686,0.48204058,0
-1.963268,-3.0740232,0.90157223,0.31794059,-0.61678672,-0.72006071,0
0.35865569,-3.4528253,2.7777376,-0.41019005,-0.77419686,0.48204058,0
3.5835667,2.3993828,-0.98374891,0.41019005,0.77419686,-0.48204058,0
1.8780123,1.8157188,-0.1449697,-0.31794059,0.61678672,0.72006071,0
1.3919725,-1.9425604,2.3353889,0.85478497,-0.14210151,0.49914855,0
-1.1014489,-1.8515817,1.926733,-0.31794059,0.61678672,0.72006071,0
0.18797284,-1.7605524,0.83486235,0.31794059,-0.61678672,-0.72006071,0
-1.2204871,2.6134541,-2.4694355,-0.85478497,0.14210151,-0.49914855,0
-2.9070811,-3.0499382,0.82010126,-0.41019005,-0.77419686,0.48204058,0
0.41057706,-2.4719653,3.1512284,-0.31794059,0.61678672,0.72006071,0
0.02892077,-3.66851,2.7369208,-0.41019005,-0.77419686,0.48204058,0
-3.7243466,-2.7066381,1.0277119,-0.41019005,-0.77419686,0.48204058,0
-3.7004633,-2.7953746,0.75245118,-0.85478497,0.14210151,-0.49914855,0
-0.6111412,-3.2813118,2.5487325,-0.41019005,-0.77419686,0.48204058,0
0.094103932,-3.5630271,2.9118652,-0.41019005,-0.77419686,0.48204058,0
-3.5564225,-2.3647132,0.49959731,-0.85478497,0.14210151,-0.49914855,0
0.14490104,-3.4669108,2.8333936,-0.41019005,-0.77419686,0.48204058,0
3.5082173,2.4457695,-1.1466238,0.31794059,-0.61678672,-0.72006071,0
-0.17616892,3.4954078,-3.207284,0.41019005,0.77419686,-0.48204058,0
-0.75748169,2.7910204,-2.0226851,-0.31794059,0.61678672,0.72006071,0
2.6626461,2.1692507,-1.4604163,0.31794059,-0.61678672,-0.72006071,0
-3.333147,-2.3679054,1.3022573,-0.41019005,-0.77419686,0.48204058,0
0.87803632,1.6812651,-1.9225872,0.31794059,-0.61678672,-0.72006071,0
2.2112134,-0.22904724,0.99117124,0.85478497,-0.14210151,0.49914855,0
1.7138066,-0.75831789,1.5435326,0.85478497,-0.14210151,0.49914855,0
2.4535494,0.51714545,0.82166785,0.85478497,-0.14210151,0.49914855,0
0.056848764,3.1028838,-3.4723802,0.41019005,0.77419686,-0.48204058,0
-1.9766483,-3.1984916,1.6046047,-0.41019005,-0.77419686,0.48204058,0
-1.9879322,1.1367104,-1.5435121,-0.85478497,0.14210151,-0.49914855,0
1.4050579,2.8491166,-2.3265615,0.41019005,0.77419686,-0.48204058,0
3.4834616,2.5578892,-0.2760129,0.85478497,-0.14210151,0.49914855,0
2.2795339,2.7714427,-1.8072772,0.41019005,0.77419686,-0.48204058,0
0.81296313,3.4707184,-2.1871259,0.41019005,0.77419686,-0.48204058,0
-1.8228157,0.40716231,-1.8466737,-0.85478497,0.14210151,-0.49914855,0
0.012245893,-2.9331357,1.886916,0.31794059,-0.61678672,-0.72006071,0
1.0992227,3.3263247,-2.190799,0.41019005,0.77419686,-0.48204058,0
0.82016164,3.1597154,-2.3967965,0.41019005,0.77419686,-0.48204058,0
-0.322631,3.4098094,-2.7932196,0.41019005,0.77419686,-0.48204058,0
-2.2863116,-3.0842431,1.4025497,-0.41019005,-0.77419686,0.48204058,0
1.8569856,3.024472,-2.1505952,0.41019005,0.77419686,-0.48204058,0
-3.22542,-1.1024963,-0.093237638,-0.85478497,0.14210151,-0.49914855,0
-1.8087653,-0.397167,-0.022463441,-0.31794059,0.61678672,0.72006071,0
1.6101835,-1.5964644,1.5459881,0.85478497,-0.14210151,0.49914855,0
0.42462468,-3.4979556,2.6307771,-0.41019005,-0.77419686,0.48204058,0
2.3066285,-0.50896108,0.73953402,0.85478497,-0.14210151,0.49914855,0
-1.7251656,1.8034441,-1.6319126,-0.85478497,0.14210151,-0.49914855,0
2.8798609,3.1911004,-0.92326474,0.41019005,0.77419686,-0.48204058,0
1.1231229,3.1652126,-1.4350929,-0.31794059,0.61678672,0.72006071,0
3.7603805,2.4757671,-0.95936441,0.41019005,0.77419686,-0.48204058,0
1.7998893,3.137749,-1.7993369,0.41019005,0.77419686,-0.48204058,0
1.9926689,-1.3945248,1.3117926,0.31794059,-0.61678672,-0.72006071,0
0.81935716,-2.5997903,3.2197146,0.85478497,-0.14210151,0.49914855,0
-2.0773149,0.59300721,-1.1621683,-0.85478497,0.14210151,-0.49914855,0
1.1916153,-2.282671,2.7012064,0.85478497,-0.14210151,0.49914855,0
1.4064949,-1.9174793,2.219425,0.85478497,-0.14210151,0.49914855,0
0.95376348,-2.7114,2.7554703,0.85478497,-0.14210151,0.49914855,0
1.7745223,2.8592658,-1.8563845,0.41019005,0.77419686,-0.48204058,0
-0.75093055,2.5863791,-2.7848933,-0.85478497,0.14210151,-0.49914855,0
0.74338609,0.69406307,0.52187693,-0.31794059,0.61678672,0.72006071,0
0.21349573,-3.0631223,3.4319484,0.85478497,-0.14210151,0.49914855,0
0.32697701,-3.6489048,2.7808735,-0.41019005,-0.77419686,0.48204058,0
-1.2227938,-2.8227496,2.7287822,-0.41019005,-0.77419686,0.48204058,0
-1.3828518,1.275081,-2.2411537,0.31794059,-0.61678672,-0.72006071,0
0.32967353,-2.0268207,1.3722341,0.31794059,-0.61678672,-0.72006071,0
-1.1331758,2.5954456,-2.411257,-0.85478497,0.14210151,-0.49914855,0
1.2669117,-0.48090369,1.5266229,-0.31794059,0.61678672,0.72006071,0
-0.24621212,3.5250826,-2.9052649,0.41019005,0.77419686,-0.48204058,0
2.4428396,0.30225468,0.98552835,0.85478497,-0.14210151,0.49914855,0
0.65997815,-2.2737677,3.1023278,0.85478497,-0.14210151,0.49914855,0
-1.2761252,0.96736282,-0.62894249,-0.31794059,0.61678672,0.72006071,0
-3.2645278,-1.3640795,-0.2002573,-0.85478497,0.14210151,-0.49914855,0
2.1446116,0.25982365,1.3511466,-0.31794059,0.61678672,0.72006071,0
-2.9000545,-0.83002394,-0.65864193,-0.85478497,0.14210151,-0.49914855,0
4.0044208,2.5265212,-1.1372652,0.41019005,0.77419686,-0.48204058,0
-1.3600907,-2.1299744,1.9905818,-0.31794059,0.61678672,0.72006071,0
0.49865687,3.1788793,-3.0118597,0.41019005,0.77419686,-0.48204058,0
-1.2230623,1.6365598,-2.4190233,-0.85478497,0.14210151,-0.49914855,0
1.9951534,2.9494569,-1.6973772,0.41019005,0.77419686,-0.48204058,0
-0.29677463,3.3555753,-3.2741632,0.41019005,0.77419686,-0.48204058,0
3.8074961,2.7913992,-0.8492918,0.41019005,0.77419686,-0.48204058,0
-2.2239637,-3.1464086,1.2131295,0.31794059,-0.61678672,-0.72006071,0
2.0375984,0.014939077,1.304837,0.85478497,-0.14210151,0.49914855,0
2.8248246,2.844955,-1.6096721,0.41019005,0.77419686,-0.48204058,0
-0.82845509,2.8157723,-1.8935838,-0.31794059,0.61678672,0.72006071,0
-1.873737,-3.2797313,1.5700097,-0.41019005,-0.77419686,0.48204058,0
0.87990451,0.56167483,-0.92585373,0.31794059,-0.61678672,-0.72006071,0
0.69542742,-1.2128385,0.89874035,0.31794059,-0.61678672,-0.72006071,0
-0.93526363,0.15464154,-0.07455653,-0.31794059,0.61678672,0.72006071,0
0.26649189,2.7450271,-2.8882565,0.31794059,-0.61678672,-0.72006071,0
-3.2277896,-1.178287,-0.10962296,-0.85478497,0.14210151,-0.49914855,0
2.7153571,2.9615066,-0.39555168,-0.31794059,0.61678672,0.72006071,0
0.76644582,2.5277874,-2.7648325,0.31794059,-0.61678672,-0.72006071,0
-1.4576466,-3.4272399,1.732276,-0.41019005,-0.77419686,0.48204058,0
2.0369098,-0.55354923,1.727951,0.85478497,-0.14210151,0.49914855,0
-1.3941871,1.3400142,-1.2375759,-0.31794059,0.61678672,0.72006071,0
2.2841377,2.8785801,-1.5389888,0.41019005,0.77419686,-0.48204058,0
-2.0608654,0.39511606,-1.393366,-0.85478497,0.14210151,-0.49914855,0
-3.2462943,-2.2947352,-0.078412056,-0.85478497,0.14210151,-0.49914855,0
-2.3397956,-3.1688223,1.205996,-0.41019005,-0.77419686,0.48204058,0
-1.5012624,0.68553114,-1.6726513,0.31794059,-0.61678672,-0.72006071,0
2.0130529,-0.85892403,1.5047796,0.85478497,-0.14210151,0.49914855,0
-3.0481703,-2.8691919,1.4412708,-0.41019005,-0.77419686,0.48204058,0
-3.2569683,-1.0447046,0.17538404,-0.31794059,0.61678672,0.72006071,0
0.4556579,2.5357749,-1.1975534,-0.31794059,0.61678672,0.72006071,0
3.7863786,2.5288186,-0.72546291,0.41019005,0.77419686,-0.48204058,0
-0.9635542,0.22168168,-0.15687598,-0.31794059,0.61678672,0.72006071,0
-3.6360693,-2.9729459,0.81169724,-0.41019005,-0.77419686,0.48204058,0
-0.91668743,-2.4597626,2.6167226,-0.31794059,0.61678672,0.72006071,0
1.4755967,3.0975244,-1.3862092,-0.31794059,0.61678672,0.72006071,0
0.84142935,0.60727316,0.63948178,-0.31794059,0.61678672,0.72006071,0
-2.1008847,-2.6853416,1.8590685,-0.41019005,-0.77419686,0.48204058,0
-0.6920228,3.5588541,-3.0097466,-0.85478497,0.14210151,-0.49914855,0
0.16264379,3.1040983,-2.8934312,0.41019005,0.77419686,-0.48204058,0
0.53481525,0.52347803,-1.0734975,0.31794059,-0.61678672,-0.72006071,0
-1.1583247,2.0552013,-1.7609715,-0.31794059,0.61678672,0.72006071,0
3.153568,1.3198745,-0.1145606,0.85478497,-0.14210151,0.49914855,0
1.156285,-1.4385266,2.2908568,-0.31794059,0.61678672,0.72006071,0
-0.096045859,-0.57608432,-0.038159519,0.31794059,-0.61678672,-0.72006071,0
3.1260867,2.9080265,-1.082932,0.41019005,0.77419686,-0.48204058,0
-1.0662189,1.7194395,-2.5170896,-0.85478497,0.14210151,-0.49914855,0
1.5672972,-1.5540689,2.2363489,0.85478497,-0.14210151,0.49914855,0
1.8098085,-0.98419017,1.6951289,0.85478497,-0.14210151,0.49914855,0
-3.4535198,-1.8445637,0.26200581,-0.85478497,0.14210151,-0.49914855,0
2.9812012,2.1135919,0.4305563,-0.31794059,0.61678672,0.72006071,0
2.6908128,1.4366645,0.549456,0.85478497,-0.14210151,0.49914855,0
-1.3835852,2.240499,-2.0910809,-0.85478497,0.14210151,-0.49914855,0
3.5290082,2.5807402,-0.80713725,0.41019005,0.77419686,-0.48204058,0
2.7731898,0.5976373,0.79742956,0.85478497,-0.14210151,0.49914855,0
0.20465517,3.2432837,-2.6936321,0.41019005,0.77419686,-0.48204058,0
-2.0662031,-1.8635334,1.4064221,-0.31794059,0.61678672,0.72006071,0
-2.2003908,-0.020772204,-1.0244122,-0.85478497,0.14210151,-0.49914855,0
2.9350629,2.8429813,-1.3847198,0.41019005,0.77419686,-0.48204058,0
3.2038965,2.8258684,-1.381125,0.41019005,0.77419686,-0.48204058,0
-0.55289996,-3.6732447,2.3339028,-0.41019005,-0.77419686,0.48204058,0
-2.5132759,0.12471181,-0.4093501,-0.85478497,0.14210151,-0.49914855,0
-2.2286522,1.2442367,-1.2299178,-0.85478497,0.14210151,-0.49914855,0
-0.38549903,-0.78314126,-0.18630272,0.31794059,-0.61678672,-0.72006071,0
-0.44459087,-1.3503608,1.6341476,-0.31794059,0.61678672,0.72006071,0
1.2958765,0.90820032,-1.1279314,0.31794059,-0.61678672,-0.72006071,0
-3.343926,-1.4850267,0.27366495,-0.85478497,0.14210151,-0.49914855,0
0.60400754,3.1209037,-3.0981855,0.41019005,0.77419686,-0.48204058,0
-2.7064123,-0.51346511,-0.91553676,-0.85478497,0.14210151,-0.49914855,0
2.2855811,0.0074755028,1.2156961,0.85478497,-0.14210151,0.49914855,0
2.3346357,3.1601422,-1.3939052,0.41019005,0.77419686,-0.48204058,0
1.3436582,-0.2060151,1.3626417,-0.31794059,0.61678672,0.72006071,0
2.5188189,2.8540778,-1.5296173,0.41019005,0.77419686,-0.48204058,0
0.20346868,1.5428567,-2.0343082,0.31794059,-0.61678672,-0.72006071,0
3.8013723,2.834796,-0.49745774,0.85478497,-0.14210151,0.49914855,0
-3.7725511,-2.9905701,0.61557674,-0.41019005,-0.77419686,0.48204058,0
-0.42133331,2.7965646,-3.0612426,0.31794059,-0.61678672,-0.72006071,0
-0.086940765,-2.8987615,3.4008927,-0.41019005,-0.77419686,0.48204058,0
-3.7122231,-3.1233633,0.27212906,0.31794059,-0.61678672,-0.72006071,0
-0.92506385,-3.3180609,1.6532469,0.31794059,-0.61678672,-0.72006071,0
-0.083760262,3.4281421,-3.1243706,0.41019005,0.77419686,-0.48204058,0
1.2096133,3.5484607,-1.771457,0.41019005,0.77419686,-0.48204058,0
-1.357906,-3.0534296,2.1419153,-0.41019005,-0.77419686,0.48204058,0
2.3516662,0.53969014,1.1600008,0.85478497,-0.14210151,0.49914855,0
0.29146433,0.60481828,-0.83908916,0.31794059,-0.61678672,-0.72006071,0
0.23561335,3.0695252,-3.1046185,0.41019005,0.77419686,-0.48204058,0
3.3052032,1.843477,-0.215415,0.85478497,-0.14210151,0.49914855,0
-2.6739864,-0.57587421,-0.39137387,-0.85478497,0.14210151,-0.49914855,0
-1.5394533,0.040757388,-1.3581452,0.31794059,-0.61678672,-0.72006071,0
-0.96405268,2.3157506,-2.6181302,-0.85478497,0.14210151,-0.49914855,0
-1.3236458,-2.9615712,2.3813252,-0.41019005,-0.77419686,0.48204058,0
2.8698616,1.4470128,-0.81651378,0.31794059,-0.61678672,-0.72006071,0
-1.9257994,-3.0563898,1.4016845,-0.41019005,-0.77419686,0.48204058,0
1.3255053,3.4400342,-1.7051792,0.41019005,0.77419686,-0.48204058,0
-1.8995811,-2.9256287,2.1271753,-0.31794059,0.61678672,0.72006071,0
1.5039123,2.51336,-0.96540022,-0.31794059,0.61678672,0.72006071,0
0.43275321,2.8554699,-3.1552687,0.41019005,0.77419686,-0.48204058,0
2.2182417,3.1777978,-1.5147049,0.41019005,0.77419686,-0.48204058,0
-2.087461,-1.1047382,0.68705618,-0.31794059,0.61678672,0.72006071,0
1.404377,-2.666414,2.2285004,0.85478497,-0.14210151,0.49914855,0
1.8200524,3.189213,-1.2837102,0.41019005,0.77419686,-0.48204058,0
-1.9685191,-0.96620309,0.76302433,-0.31794059,0.61678672,0.72006071,0
2.5520267,2.7127752,-0.60400009,-0.31794059,0.61678672,0.72006071,0
-0.75436556,-3.2852526,2.6340315,-0.41019005,-0.77419686,0.48204058,0
1.3473577,-2.2949376,1.8222201,0.85478497,-0.14210151,0.49914855,0
1.2552043,3.2167065,-2.452709,0.41019005,0.77419686,-0.48204058,0
1.3222282,-1.590098,2.4818752,0.85478497,-0.14210151,0.49914855,0
-0.81098461,1.3888724,-2.3066385,0.31794059,-0.61678672,-0.72006071,0
3.1164007,1.7871594,-0.051047325,0.85478497,-0.14210151,0.49914855,0
-3.533839,-2.2359676,0.5131855,-0.85478497,0.14210151,-0.49914855,0
-1.9513712,0.83817375,-1.3468801,-0.85478497,0.14210151,-0.49914855,0
1.3223135,2.8068604,-2.6205058,0.41019005,0.77419686,-0.48204058,0
2.3784122,-0.5591172,0.78171349,0.85478497,-0.14210151,0.49914855,0
1.7572546,2.9246652,-1.7956152,0.41019005,0.77419686,-0.48204058,0
0.14738429,2.8198321,-2.8805475,0.31794059,-0.61678672,-0.72006071,0
-3.4723837,-2.8137753,0.94253182,-0.41019005,-0.77419686,0.48204058,0
-1.270757,1.5595381,-2.4375508,-0.85478497,0.14210151,-0.49914855,0
2.8634281,2.949079,-0.73332119,0.41019005,0.77419686,-0.48204058,0
2.2848327,0.26661047,1.268831,0.85478497,-0.14210151,0.49914855,0
2.1457162,-0.45504421,1.348002,0.85478497,-0.14210151,0.49914855,0
-0.86742824,-3.3197751,2.5604191,-0.41019005,-0.77419686,0.48204058,0
1.6432703,-1.1891345,1.5937775,0.85478497,-0.14210151,0.49914855,0
-2.5822897,-0.87784165,-0.49314821,-0.85478497,0.14210151,-0.49914855,0
-0.49905241,0.55271184,-1.1652027,0.31794059,-0.61678672,-0.72006071,0
0.67643803,0.590909,0.39153498,-0.31794059,0.61678672,0.72006071,0
1.6713018,-1.4016292,1.0000484,0.31794059,-0.61678672,-0.72006071,0
2.548723,0.52102417,0.8071667,0.85478497,-0.14210151,0.49914855,0
2.3725972,2.5225029,-1.7494005,0.31794059,-0.61678672,-0.72006071,0
-2.8581173,-1.1430914,-0.4251138,-0.85478497,0.14210151,-0.49914855,0
0.33018494,-3.3909545,3.4124429,-0.41019005,-0.77419686,0.48204058,0
0.76523209,-3.1534934,2.071825,0.31794059,-0.61678672,-0.72006071,0
-0.86954665,1.2256172,-2.033103,0.31794059,-0.61678672,-0.72006071,0
0.60251212,-2.770154,3.0954337,0.85478497,-0.14210151,0.49914855,0
3.3887162,2.5734191,-1.1360643,0.41019005,0.77419686,-0.48204058,0
0.48642051,-1.1814374,2.0769725,-0.31794059,0.61678672,0.72006071,0
-1.835487,-3.0186605,1.8308136,-0.41019005,-0.77419686,0.48204058,0
2.0204859,1.4775057,0.50893319,-0.31794059,0.61678672,0.72006071,0
0.73833585,-3.1521211,2.7084155,0.85478497,-0.14210151,0.49914855,0
3.335314,1.5736158,-0.47402477,0.31794059,-0.61678672,-0.72006071,0
-3.3514261,-2.2725973,0.35486436,-0.85478497,0.14210151,-0.49914855,0
-2.465497,-0.91060549,0.14126635,-0.31794059,0.61678672,0.72006071,0
-2.8657694,-3.002322,1.1377261,-0.41019005,-0.77419686,0.48204058,0
-2.2909381,-2.9832549,1.7919314,-0.41019005,-0.77419686,0.48204058,0
2.5406835,3.0117924,-1.6214964,0.41019005,0.77419686,-0.48204058,0
-0.36229378,-0.19914994,0.5993517,-0.31794059,0.61678672,0.72006071,0
2.6351242,1.3364489,0.48894703,0.85478497,-0.14210151,0.49914855,0
0.78965849,2.845072,-2.7261648,0.41019005,0.77419686,-0.48204058,0
-1.5303384,0.22636425,0.09269771,-0.31794059,0.61678672,0.72006071,0
-1.0161924,2.4483979,-2.4171791,-0.85478497,0.14210151,-0.49914855,0
-3.5276353,-2.8343582,0.73233724,-0.41019005,-0.77419686,0.48204058,0
-0.5300355,-3.193068,2.3078561,-0.41019005,-0.77419686,0.48204058,0
-0.64415908,-1.3675261,0.33910644,0.31794059,-0.61678672,-0.72006071,0
-1.3938859,-2.5651226,0.98437023,0.31794059,-0.61678672,-0.72006071,0
-0.37268674,1.8092489,-2.2184401,0.31794059,-0.61678672,-0.72006071,0
-1.6100588,-1.8684947,1.5415388,-0.31794059,0.61678672,0.72006071,0
-0.35025525,3.6848271,-2.8038955,0.41019005,0.77419686,-0.48204058,0
2.1577044,2.9962716,-1.9866552,0.41019005,0.77419686,-0.48204058,0
1.5232136,-0.97389412,2.2696548,0.85478497,-0.14210151,0.49914855,0
1.128123,-2.4526925,2.4717984,0.85478497,-0.14210151,0.49914855,0
-2.23838,-0.11603761,-0.92930007,-0.85478497,0.14210151,-0.49914855,0
3.6009054,1.9909508,-0.27526879,0.85478497,-0.14210151,0.49914855,0
-0.68671441,3.2045002,-2.2328403,-0.31794059,0.61678672,0.72006071,0
-0.47723174,0.51214719,-1.0969915,0.31794059,-0.61678672,-0.72006071,0
2.8821964,1.5987488,0.17574048,0.85478497,-0.14210151,0.49914855,0
-3.5971444,-2.5210729,0.93950438,-0.41019005,-0.77419686,0.48204058,0
3.3922956,2.7523003,-1.2359781,0.41019005,0.77419686,-0.48204058,0
-2.3767424,-2.8612316,1.6250739,-0.41019005,-0.77419686,0.48204058,0
-1.0065565,2.545444,-2.4283671,-0.85478497,0.14210151,-0.49914855,0
1.5938975,3.2508292,-2.0424356,0.41019005,0.77419686,-0.48204058,0
1.9625998,2.3744473,-2.1235535,0.31794059,-0.61678672,-0.72006071,0
0.16259831,1.3632256,-1.7731129,0.31794059,-0.61678672,-0.72006071,0
-0.22742307,2.4813774,-2.9200418,0.31794059,-0.61678672,-0.72006071,0
0.14689484,0.31861547,0.33493841,-0.31794059,0.61678672,0.72006071,0
-2.0060849,0.33973867,-1.3768995,-0.85478497,0.14210151,-0.49914855,0
-1.7687953,1.162966,-1.6859027,-0.85478497,0.14210151,-0.49914855,0
0.42048305,3.5865197,-2.1836219,0.41019005,0.77419686,-0.48204058,0
-2.0620947,0.77905631,-1.2824956,-0.85478497,0.14210151,-0.49914855,0
-0.86310637,0.85871649,-1.8436166,0.31794059,-0.61678672,-0.72006071,0
2.1096513,2.845633,-2.3327045,0.41019005,0.77419686,-0.48204058,0
2.7500527,1.0515543,0.36019862,0.85478497,-0.14210151,0.49914855,0
-1.6282394,-2.0858464,1.7458328,-0.31794059,0.61678672,0.72006071,0
-0.014354587,3.447407,-3.1541967,0.41019005,0.77419686,-0.48204058,0
0.13021743,-2.5668314,3.1280949,-0.31794059,0.61678672,0.72006071,0
-0.28339565,-2.7979391,2.8856359,-0.31794059,0.61678672,0.72006071,0
-0.020415068,-3.3751199,3.2445154,-0.41019005,-0.77419686,0.48204058,0
1.7613809,-0.025868922,1.6573168,0.85478497,-0.14210151,0.49914855,0
3.7926457,2.3650808,-1.1133428,0.85478497,-0.14210151,0.49914855,0
-2.7664053,0.056462765,-0.53283089,-0.85478497,0.14210151,-0.49914855,0
-0.11142373,3.1092196,-3.3196986,0.41019005,0.77419686,-0.48204058,0
-3.5342584,-2.9421568,0.5728519,-0.41019005,-0.77419686,0.48204058,0
-2.1472256,-0.058944821,-1.4705199,-0.85478497,0.14210151,-0.49914855,0
-2.3640146,0.14745146,-0.65954387,-0.31794059,0.61678672,0.72006071,0
-1.1889795,-0.51607823,-0.82924002,0.31794059,-0.61678672,-0.72006071,0
-3.3500962,-1.7830148,0.90305233,-0.31794059,0.61678672,0.72006071,0
2.4684377,0.78389204,0.78066146,0.85478497,-0.14210151,0.49914855,0
0.35182548,-3.4148316,3.1890416,0.85478497,-0.14210151,0.49914855,0
1.8417864,-1.7790396,1.6886361,0.85478497,-0.14210151,0.49914855,0
-1.1419599,1.4755461,-2.3498464,-0.85478497,0.14210151,-0.49914855,0
-3.0129356,-1.4631453,0.13443327,-0.85478497,0.14210151,-0.49914855,0
-1.1471068,1.9893066,-1.6130266,-0.31794059,0.61678672,0.72006071,0
-0.51398468,3.5735114,-3.0592136,0.41019005,0.77419686,-0.48204058,0
2.5773015,0.67723721,0.94803691,0.85478497,-0.14210151,0.49914855,0
-2.7876334,-1.93533,-0.049761295,0.31794059,-0.61678672,-0.72006071,0
0.25062788,-1.2368624,2.0285115,-0.31794059,0.61678672,0.72006071,0
-0.24081132,1.2262588,-0.35552847,-0.31794059,0.61678672,0.72006071,0
-0.91182971,3.4593167,-2.7500019,-0.85478497,0.14210151,-0.49914855,0
-0.76642561,2.971839,-2.9451938,-0.85478497,0.14210151,-0.49914855,0
-1.5941837,0.70983696,-2.0123732,-0.85478497,0.14210151,-0.49914855,0
-2.3252056,-0.84605116,0.38094723,-0.31794059,0.61678672,0.72006071,0
2.7836266,2.8953581,-1.0369077,0.41019005,0.77419686,-0.48204058,0
0.30049026,3.6963089,-2.425391,0.41019005,0.77419686,-0.48204058,0
-3.1814795,-1.6606731,0.68636656,-0.31794059,0.61678672,0.72006071,0
-2.9258962,-0.84165692,-0.10174692,-0.85478497,0.14210151,-0.49914855,0
0.31696534,-0.075347006,-0.27129912,0.31794059,-0.61678672,-0.72006071,0
1.9057066,2.1214569,-0.43395662,-0.31794059,0.61678672,0.72006071,0
1.4483058,2.6341577,-0.64732385,-0.31794059,0.61678672,0.72006071,0
2.0154033,2.915617,-2.1185651,0.41019005,0.77419686,-0.48204058,0
-3.3454185,-2.8247666,1.2749178,-0.41019005,-0.77419686,0.48204058,0
3.6206491,2.8023808,-0.70883846,0.41019005,0.77419686,-0.48204058,0
1.434355,-2.3324382,1.6892847,0.31794059,-0.61678672,-0.72006071,0
-2.4536443,-3.2993484,1.2480686,-0.41019005,-0.77419686,0.48204058,0
2.6870148,0.75947088,0.69115293,0.85478497,-0.14210151,0.49914855,0
3.4359553,1.6787105,-0.019305229,0.85478497,-0.14210151,0.49914855,0
0.84073901,3.2151375,-2.0055001,0.41019005,0.77419686,-0.48204058,0
2.0029035,2.9658761,-1.1601062,-0.31794059,0.61678672,0.72006071,0
-2.2022619,-2.9477985,1.2864709,-0.41019005,-0.77419686,0.48204058,0
1.3491729,1.8683407,-0.47760773,-0.31794059,0.61678672,0.72006071,0
-0.41497165,-0.3961443,0.86077303,-0.31794059,0.61678672,0.72006071,0
2.0442522,2.6434994,-2.2274861,0.31794059,-0.61678672,-0.72006071,0
-2.4598758,-2.7726085,1.5442183,-0.41019005,-0.77419686,0.48204058,0
-1.2340295,-3.4592438,1.7843173,-0.41019005,-0.77419686,0.48204058,0
-1.6780028,-2.9523792,2.3269193,-0.31794059,0.61678672,0.72006071,0
1.5681586,1.1371682,-0.76449025,0.31794059,-0.61678672,-0.72006071,0
-1.2229431,2.2880187,-2.3221288,-0.85478497,0.14210151,-0.49914855,0
-2.5909579,-0.87314516,-0.42892373,-0.85478497,0.14210151,-0.49914855,0
1.8562791,2.9174726,-1.6554689,0.41019005,0.77419686,-0.48204058,0
-1.2542374,1.1113088,-0.64236236,-0.31794059,0.61678672,0.72006071,0
0.47351885,3.082408,-2.7802808,0.41019005,0.77419686,-0.48204058,0
-1.7289543,-2.4371719,2.2677689,-0.31794059,0.61678672,0.72006071,0
0.84437513,2.3464706,-2.432795,0.31794059,-0.61678672,-0.72006071,0
-0.35858417,3.652638,-3.0724618,0.41019005,0.77419686,-0.48204058,0
-2.9326432,-2.2795105,-0.20200062,0.31794059,-0.61678672,-0.72006071,0
1.1176209,-2.4048028,2.7902849,0.85478497,-0.14210151,0.49914855,0
-1.16167,1.7627933,-2.6551073,-0.85478497,0.14210151,-0.49914855,0
-3.6595917,-2.5950456,0.49521923,-0.85478497,0.14210151,-0.49914855,0
-2.4279478,-0.059378207,-0.50149417,-0.85478497,0.14210151,-0.49914855,0
-2.2676766,-1.3260934,-0.37083519,0.31794059,-0.61678672,-0.72006071,0
0.66341472,-3.0321045,2.6687725,0.85478497,-0.14210151,0.49914855,0
3.1285598,2.2215869,-0.058187962,0.85478497,-0.14210151,0.49914855,0
1.2446885,2.0700264,-0.79683435,-0.31794059,0.61678672,0.72006071,0
1.4609025,3.1988823,-1.9371722,0.41019005,0.77419686,-0.48204058,0
-0.58028746,0.40302622,-1.4302888,0.31794059,-0.61678672,-0.72006071,0
3.3762951,1.3264714,-0.25782943,0.85478497,-0.14210151,0.49914855,0
1.1768384,2.5436049,-0.89494729,-0.31794059,0.61678672,0.72006071,0
-1.0218366,-0.55170214,0.565817,-0.31794059,0.61678672,0.72006071,0
1.1823865,3.3965464,-1.6355114,0.41019005,0.77419686,-0.48204058,0
1.5770072,-0.11079651,0.35748604,0.31794059,-0.61678672,-0.72006071,0
1.7409859,3.1770222,-1.460269,0.41019005,0.77419686,-0.48204058,0
-1.4005432,1.8588604,-2.1848636,-0.85478497,0.14210151,-0.49914855,0
2.8977249,1.4160342,0.49216342,0.85478497,-0.14210151,0.49914855,0
2.0650702,-1.1261231,1.3757808,0.85478497,-0.14210151,0.49914855,0
2.3160787,2.8042259,-1.5984912,0.41019005,0.77419686,-0.48204058,0
-3.1592097,-2.8178186,1.4558117,-0.41019005,-0.77419686,0.48204058,0
-1.2720888,2.2766714,-1.8609939,-0.31794059,0.61678672,0.72006071,0
-1.1523069,-3.3395817,2.0446565,-0.41019005,-0.77419686,0.48204058,0
-3.2736273,-2.5369103,1.150203,-0.41019005,-0.77419686,0.48204058,0
-2.3190601,0.50265372,-0.88153362,-0.85478497,0.14210151,-0.49914855,0
-2.4360719,0.02386874,-0.79063386,-0.85478497,0.14210151,-0.49914855,0
-1.13179,-2.8436003,2.8491607,-0.41019005,-0.77419686,0.48204058,0
-1.2638843,-3.4356256,1.9753716,-0.41019005,-0.77419686,0.48204058,0
1.4368126,-1.9893332,2.0684199,0.85478497,-0.14210151,0.49914855,0
-1.0114486,-3.0939207,1.2416601,0.31794059,-0.61678672,-0.72006071,0
2.8509629,2.8306541,-1.3935547,0.41019005,0.77419686,-0.48204058,0
-3.0676908,-0.99065828,-0.061534762,-0.85478497,0.14210151,-0.49914855,0
0.84600395,1.6718817,-1.4842607,0.31794059,-0.61678672,-0.72006071,0
0.56958103,-2.0323439,2.7133048,-0.31794059,0.61678672,0.72006071,0
-0.5457077,2.9087603,-3.1739442,0.31794059,-0.61678672,-0.72006071,0
-0.17582333,3.3896446,-2.6022291,0.41019005,0.77419686,-0.48204058,0
