-1.6099529,-1.7220974,-1.30567,0.45914477,-0.077353477,-0.88498741,0
-3.1941934,-3.457953,-1.7146416,-0.83824623,-0.36759204,-0.40276486,0
0.86163783,-2.7450485,0.8109082,0.29415894,-0.92676467,0.23361912,0
4.0780888,1.9004952,1.3230636,0.83824623,0.36759204,0.40276486,0
-3.0973628,0.26271844,-1.995144,0.45914477,-0.077353477,-0.88498741,0
1.0940763,-0.96004641,1.0810919,-0.45914477,0.077353477,0.88498741,0
-3.4007087,-1.5539644,-1.1975651,-0.45914477,0.077353477,0.88498741,0
-3.7071865,-2.1869287,-1.8049624,-0.83824623,-0.36759204,-0.40276486,0
-3.6901691,-1.7408609,-2.0225172,-0.83824623,-0.36759204,-0.40276486,0
0.96529835,1.266892,-0.26601267,0.45914477,-0.077353477,-0.88498741,0
-1.3383064,2.4377561,-1.2834778,-0.29415894,0.92676467,-0.23361912,0
3.9222927,1.6839392,1.5535913,0.83824623,0.36759204,0.40276486,0
-2.1339157,-2.4006252,-1.4478972,0.45914477,-0.077353477,-0.88498741,0
2.123178,0.23953784,0.4624387,0.45914477,-0.077353477,-0.88498741,0
1.8343518,3.8248477,0.52883267,-0.29415894,0.92676467,-0.23361912,0
0.11647815,-0.73310101,-0.30407214,0.45914477,-0.077353477,-0.88498741,0
-2.9312122,1.5039444,-0.86165208,-0.45914477,0.077353477,0.88498741,0
-0.79933739,2.8447876,-0.28772497,-0.29415894,0.92676467,-0.23361912,0
-0.7577405,2.8543215,-0.44018757,-0.29415894,0.92676467,-0.23361912,0
0.52798963,3.293113,0.23812175,-0.29415894,0.92676467,-0.23361912,0
4.1585183,0.46065271,1.6668544,0.83824623,0.36759204,0.40276486,0
-3.6222658,-3.0088181,-1.2556434,-0.83824623,-0.36759204,-0.40276486,0
-1.1841276,1.7802384,-1.4631941,0.45914477,-0.077353477,-0.88498741,0
-3.1961687,-2.1199141,-0.77209616,-0.45914477,0.077353477,0.88498741,0
1.4732132,2.110806,0.17487741,0.45914477,-0.077353477,-0.88498741,0
1.4304844,-2.6605124,0.87072504,0.29415894,-0.92676467,0.23361912,0
1.6978114,3.8713102,1.0971935,-0.29415894,0.92676467,-0.23361912,0
2.0056896,-2.3883121,0.73807347,0.29415894,-0.92676467,0.23361912,0
2.8270345,3.8599982,1.5044484,0.83824623,0.36759204,0.40276486,0
4.0706801,0.71922922,2.1742902,0.83824623,0.36759204,0.40276486,0
-1.2120728,-3.7154043,-0.026072741,0.29415894,-0.92676467,0.23361912,0
2.3497405,4.0609226,0.69002748,-0.29415894,0.92676467,-0.23361912,0
1.8825283,0.22139545,1.7292972,-0.45914477,0.077353477,0.88498741,0
1.6359344,3.2441566,1.2081199,-0.45914477,0.077353477,0.88498741,0
-1.9557415,2.4746251,-1.3967133,-0.29415894,0.92676467,-0.23361912,0
1.0466549,2.5134568,0.72182012,-0.45914477,0.077353477,0.88498741,0
-1.5311167,-2.2228105,-1.1411982,0.45914477,-0.077353477,-0.88498741,0
-3.6101418,-2.4705343,-1.5022714,-0.83824623,-0.36759204,-0.40276486,0
1.0798647,-1.3917108,0.31845453,0.45914477,-0.077353477,-0.88498741,0
1.9997609,0.095287919,0.42161137,0.45914477,-0.077353477,-0.88498741,0
3.4714499,3.2784886,1.2309403,0.83824623,0.36759204,0.40276486,0
1.1243374,-2.8556552,0.76036793,0.29415894,-0.92676467,0.23361912,0
-0.074026585,3.2648377,-0.64649975,-0.29415894,0.92676467,-0.23361912,0
4.6660962,-0.077792645,1.9697943,0.83824623,0.36759204,0.40276486,0
-3.021769,-4.320014,-1.3222065,-0.83824623,-0.36759204,-0.40276486,0
-2.2624793,2.45242,-0.8375147,-0.29415894,0.92676467,-0.23361912,0
-1.5542519,-3.9746695,-1.0644603,0.29415894,-0.92676467,0.23361912,0
2.6885614,4.5746193,1.0781846,-0.29415894,0.92676467,-0.23361912,0
1.1755006,-1.4247475,1.1629318,-0.45914477,0.077353477,0.88498741,0
-1.7823606,-3.9319794,-0.54763985,0.29415894,-0.92676467,0.23361912,0
4.494473,-1.3608323,2.5533266,0.29415894,-0.92676467,0.23361912,0
-3.3918655,1.6063021,-2.0932517,-0.29415894,0.92676467,-0.23361912,0
-0.80622745,0.43002665,-0.9489398,0.45914477,-0.077353477,-0.88498741,0
1.1296362,0.89373517,1.0778158,-0.45914477,0.077353477,0.88498741,0
3.5033057,1.889488,1.9005954,0.83824623,0.36759204,0.40276486,0
3.7546477,1.4892257,1.6842263,0.83824623,0.36759204,0.40276486,0
1.8493708,-1.5862203,1.6896975,-0.45914477,0.077353477,0.88498741,0
2.7026784,2.5731528,1.8810358,-0.45914477,0.077353477,0.88498741,0
2.925889,-2.0312865,1.3987371,0.29415894,-0.92676467,0.23361912,0
0.67251992,3.5335157,-0.052580118,-0.29415894,0.92676467,-0.23361912,0
-2.4922595,-2.4001093,-0.39362359,-0.45914477,0.077353477,0.88498741,0
0.61788678,-2.0277159,0.95473117,-0.45914477,0.077353477,0.88498741,0
-2.5853229,1.9831893,-1.5876799,-0.29415894,0.92676467,-0.23361912,0
-0.20184159,-3.3285351,0.11548853,0.29415894,-0.92676467,0.23361912,0
-1.9115354,-0.9119637,-1.5930032,0.45914477,-0.077353477,-0.88498741,0
-1.1534419,-3.5405579,-0.00072431564,0.29415894,-0.92676467,0.23361912,0
-3.4543836,-3.1158605,-1.511256,-0.83824623,-0.36759204,-0.40276486,0
3.6720605,2.1400948,1.3608932,0.83824623,0.36759204,0.40276486,0
4.4589043,-0.27567935,1.878545,0.83824623,0.36759204,0.40276486,0
0.6865921,3.5680394,0.019953489,-0.29415894,0.92676467,-0.23361912,0
1.3782282,2.5457847,-0.069461346,0.45914477,-0.077353477,-0.88498741,0
3.5442114,1.4327536,0.95120502,0.45914477,-0.077353477,-0.88498741,0
-3.9159398,-0.59722078,-1.2006369,-0.45914477,0.077353477,0.88498741,0
1.8420513,3.9181309,0.91075826,-0.29415894,0.92676467,-0.23361912,0
4.3682823,0.43869519,1.8055305,0.83824623,0.36759204,0.40276486,0
-3.3051062,-2.9549463,-1.8378575,-0.83824623,-0.36759204,-0.40276486,0
0.73698068,3.7203693,0.22949409,-0.29415894,0.92676467,-0.23361912,0
-3.2608538,-4.4557657,-0.78260374,-0.83824623,-0.36759204,-0.40276486,0
-3.0098786,1.7765219,-1.5858408,-0.29415894,0.92676467,-0.23361912,0
-4.0945797,-0.75561023,-1.9433627,-0.83824623,-0.36759204,-0.40276486,0
3.3280914,2.9982219,1.900214,0.83824623,0.36759204,0.40276486,0
3.1716278,2.3370404,1.9821942,0.83824623,0.36759204,0.40276486,0
-3.9746628,-0.026951075,-2.4054432,0.45914477,-0.077353477,-0.88498741,0
-3.3769181,-3.5958755,-1.0097108,-0.83824623,-0.36759204,-0.40276486,0
1.9971492,-0.61422926,0.52632052,0.45914477,-0.077353477,-0.88498741,0
-2.6727943,-3.7171934,-1.43625,0.45914477,-0.077353477,-0.88498741,0
2.2663496,-2.0504601,1.2707061,0.29415894,-0.92676467,0.23361912,0
-3.9984932,-1.4315926,-1.6837416,-0.83824623,-0.36759204,-0.40276486,0
-2.6869097,1.0112772,-0.78895628,-0.45914477,0.077353477,0.88498741,0
3.1124604,3.4033155,1.1657848,0.83824623,0.36759204,0.40276486,0
3.6125934,0.59334016,2.2139659,-0.45914477,0.077353477,0.88498741,0
-0.73229957,2.934166,0.078682423,-0.29415894,0.92676467,-0.23361912,0
3.4389219,2.4424353,1.2991104,0.83824623,0.36759204,0.40276486,0
-3.5043712,1.5560449,-1.7354193,-0.29415894,0.92676467,-0.23361912,0
-0.15469031,0.053148806,0.50984555,-0.45914477,0.077353477,0.88498741,0
1.6143782,3.4644737,0.96435308,-0.45914477,0.077353477,0.88498741,0
2.8006144,-2.2061181,1.2884295,0.29415894,-0.92676467,0.23361912,0
-1.8191881,-0.32793206,-1.5176387,0.45914477,-0.077353477,-0.88498741,0
3.0401378,3.7927363,1.3726254,0.83824623,0.36759204,0.40276486,0
-3.6862245,-2.4643521,-1.3076434,-0.83824623,-0.36759204,-0.40276486,0
-4.3192539,-0.081942916,-2.2692747,-0.83824623,-0.36759204,-0.40276486,0
-1.5367148,-3.9045939,-0.95629668,0.29415894,-0.92676467,0.23361912,0
-4.044785,1.2604663,-2.8046379,-0.29415894,0.92676467,-0.23361912,0
2.2150576,0.13334084,1.6169802,-0.45914477,0.077353477,0.88498741,0
-2.2136769,1.5010605,-0.5116511,-0.45914477,0.077353477,0.88498741,0
0.027179241,-3.2139564,0.85857642,0.29415894,-0.92676467,0.23361912,0
1.722229,-0.5921402,1.6897922,-0.45914477,0.077353477,0.88498741,0
-1.8810228,2.4974613,-1.1434675,-0.29415894,0.92676467,-0.23361912,0
3.2051625,3.9308009,0.92503929,0.83824623,0.36759204,0.40276486,0
1.2761792,0.075311005,0.076784134,0.45914477,-0.077353477,-0.88498741,0
3.2658112,-1.2762222,2.1776686,-0.45914477,0.077353477,0.88498741,0
-3.9971983,-0.27168071,-2.3310077,-0.83824623,-0.36759204,-0.40276486,0
-2.3770106,-2.9724548,-0.62009764,-0.45914477,0.077353477,0.88498741,0
4.4234633,0.11428916,1.8011309,0.45914477,-0.077353477,-0.88498741,0
-1.9846556,-4.1697078,-0.67268109,0.29415894,-0.92676467,0.23361912,0
0.19777226,2.6655419,-0.6155535,0.45914477,-0.077353477,-0.88498741,0
2.7977624,-2.0687129,1.8147426,0.29415894,-0.92676467,0.23361912,0
-1.6399188,-1.3251313,-1.1858543,0.45914477,-0.077353477,-0.88498741,0
4.3178773,-1.2826345,2.6677713,0.29415894,-0.92676467,0.23361912,0
3.6103399,-1.2782838,2.4208405,-0.45914477,0.077353477,0.88498741,0
-2.1193686,0.37996331,-1.7293503,0.45914477,-0.077353477,-0.88498741,0
4.5197029,-0.29200041,1.7074214,0.45914477,-0.077353477,-0.88498741,0
3.5564277,2.0722287,1.4441097,0.83824623,0.36759204,0.40276486,0
-2.9915571,1.6010926,-2.2117217,-0.29415894,0.92676467,-0.23361912,0
-2.9207902,-3.6155221,-1.5794973,-0.83824623,-0.36759204,-0.40276486,0
-3.8634562,-0.43627053,-2.6857324,-0.83824623,-0.36759204,-0.40276486,0
-2.2000017,2.0921092,-0.99791163,-0.29415894,0.92676467,-0.23361912,0
0.6733458,-2.6526337,0.65124393,0.29415894,-0.92676467,0.23361912,0
0.68683934,-0.75117564,0.98544919,-0.45914477,0.077353477,0.88498741,0
3.6931098,1.2370877,2.217644,0.83824623,0.36759204,0.40276486,0
0.27861404,3.1154251,-0.26867366,-0.29415894,0.92676467,-0.23361912,0
3.0706761,3.733258,1.3831003,0.83824623,0.36759204,0.40276486,0
3.4995158,3.0135467,1.3147891,0.83824623,0.36759204,0.40276486,0
-1.6744215,2.432919,-0.99862093,-0.29415894,0.92676467,-0.23361912,0
-0.84879053,2.5022879,-1.2435633,-0.29415894,0.92676467,-0.23361912,0
3.3610432,-0.83956242,1.1856958,0.45914477,-0.077353477,-0.88498741,0
-4.7871761,0.79099071,-2.2427986,-0.83824623,-0.36759204,-0.40276486,0
0.7172513,-2.8066938,0.39021981,0.29415894,-0.92676467,0.23361912,0
-3.3731465,-3.1959782,-0.98284435,-0.83824623,-0.36759204,-0.40276486,0
1.4700395,-2.5436468,1.2206852,0.29415894,-0.92676467,0.23361912,0
-2.0369182,1.3299683,-0.39170176,-0.45914477,0.077353477,0.88498741,0
-4.040328,-1.1516138,-1.4154327,-0.83824623,-0.36759204,-0.40276486,0
4.106319,-0.16473508,2.4859591,0.83824623,0.36759204,0.40276486,0
-4.4159036,1.0528725,-2.8755898,0.45914477,-0.077353477,-0.88498741,0
-3.7728174,-1.9324156,-1.6293521,-0.83824623,-0.36759204,-0.40276486,0
1.4656719,-2.4238012,1.4651631,0.29415894,-0.92676467,0.23361912,0
-4.4806876,-0.45046806,-1.5452909,-0.83824623,-0.36759204,-0.40276486,0
-2.8168559,1.6898901,-2.1312335,-0.29415894,0.92676467,-0.23361912,0
-1.2040923,-1.0763198,-0.12808311,-0.45914477,0.077353477,0.88498741,0
-1.084187,-3.8906882,-0.69300485,0.29415894,-0.92676467,0.23361912,0
-3.5610132,-3.0151501,-1.4183249,-0.83824623,-0.36759204,-0.40276486,0
0.019492149,-3.2353005,-0.047409058,0.29415894,-0.92676467,0.23361912,0
-0.1740768,-1.9250555,0.59432518,-0.45914477,0.077353477,0.88498741,0
-0.91329455,-0.89181453,0.13851535,-0.45914477,0.077353477,0.88498741,0
-1.3869514,-3.9631515,-0.94067812,0.29415894,-0.92676467,0.23361912,0
-0.019043922,-2.8437014,0.6674093,-0.45914477,0.077353477,0.88498741,0
0.0062816143,1.1757187,-0.77313638,0.45914477,-0.077353477,-0.88498741,0
1.2202208,3.5223103,0.1042583,-0.29415894,0.92676467,-0.23361912,0
3.3012738,3.9807091,0.69470549,0.83824623,0.36759204,0.40276486,0
-1.5249808,2.5610886,-0.87787521,-0.29415894,0.92676467,-0.23361912,0
4.4447384,-0.51105911,2.8143053,0.83824623,0.36759204,0.40276486,0
-1.4691367,-3.7826385,-0.073704004,-0.45914477,0.077353477,0.88498741,0
-4.2047219,-0.74188566,-1.9971194,-0.83824623,-0.36759204,-0.40276486,0
-0.45834398,-2.1026378,-0.7443372,0.45914477,-0.077353477,-0.88498741,0
-4.6539736,0.74820185,-2.3899059,-0.83824623,-0.36759204,-0.40276486,0
-1.9578784,-1.8288889,-1.2553072,0.45914477,-0.077353477,-0.88498741,0
3.3867815,2.7750969,1.6351824,0.83824623,0.36759204,0.40276486,0
2.6540174,0.46698102,2.116775,-0.45914477,0.077353477,0.88498741,0
3.0787544,-1.7504359,1.4273784,0.29415894,-0.92676467,0.23361912,0
4.1417694,0.10086346,2.0515378,0.83824623,0.36759204,0.40276486,0
0.51297784,3.5948386,0.31188965,-0.29415894,0.92676467,-0.23361912,0
-3.5978224,0.8075875,-1.2569816,-0.45914477,0.077353477,0.88498741,0
1.5637116,3.7441716,0.61147857,-0.29415894,0.92676467,-0.23361912,0
1.2668099,-0.41330701,0.0058608949,0.45914477,-0.077353477,-0.88498741,0
3.5455627,-1.6681881,2.2490892,0.29415894,-0.92676467,0.23361912,0
1.2272323,-2.0406475,1.5332683,-0.45914477,0.077353477,0.88498741,0
4.7454939,-1.1110368,2.0517087,0.83824623,0.36759204,0.40276486,0
3.3648746,2.5351195,1.6737909,0.83824623,0.36759204,0.40276486,0
4.0908055,-1.4620063,2.7285352,0.29415894,-0.92676467,0.23361912,0
2.8964665,-0.87469667,2.0933385,-0.45914477,0.077353477,0.88498741,0
-3.675144,-1.6699239,-1.7086992,-0.83824623,-0.36759204,-0.40276486,0
3.6283202,1.8003845,1.6407874,0.83824623,0.36759204,0.40276486,0
0.96462893,-2.7582126,0.59025663,0.29415894,-0.92676467,0.23361912,0
4.0850592,0.78106451,1.7875922,0.83824623,0.36759204,0.40276486,0
-2.3182709,-2.2836359,-0.53742838,-0.45914477,0.077353477,0.88498741,0
-2.4867132,1.8284159,-2.186193,0.45914477,-0.077353477,-0.88498741,0
4.0526266,1.3238766,1.7882366,0.83824623,0.36759204,0.40276486,0
-0.94352722,2.6891017,-0.51151937,-0.29415894,0.92676467,-0.23361912,0
-2.0179386,2.4966595,-1.0392015,-0.29415894,0.92676467,-0.23361912,0
2.2487535,0.51554692,0.43906283,0.45914477,-0.077353477,-0.88498741,0
0.30246329,-1.1806874,-0.18499821,0.45914477,-0.077353477,-0.88498741,0
4.0934529,1.0501097,1.4366941,0.83824623,0.36759204,0.40276486,0
0.44417,-2.938719,0.9349817,-0.45914477,0.077353477,0.88498741,0
3.2941284,3.503628,1.3626032,0.83824623,0.36759204,0.40276486,0
-0.73949671,-3.7048159,-0.32324028,0.29415894,-0.92676467,0.23361912,0
4.5081258,0.14210308,2.1193578,0.83824623,0.36759204,0.40276486,0
0.91024554,-2.4993081,1.1010993,0.29415894,-0.92676467,0.23361912,0
-2.1352873,-0.78602993,-0.43857539,-0.45914477,0.077353477,0.88498741,0
-3.2961349,1.1141059,-1.1079738,-0.45914477,0.077353477,0.88498741,0
-1.6755058,0.36828354,-1.3096985,0.45914477,-0.077353477,-0.88498741,0
-1.2864654,2.6809719,-0.77248108,-0.29415894,0.92676467,-0.23361912,0
-3.5429873,1.4609697,-1.9059545,-0.29415894,0.92676467,-0.23361912,0
2.1423256,-2.300566,0.79383069,0.29415894,-0.92676467,0.23361912,0
-3.1442873,1.7440808,-1.8867375,-0.29415894,0.92676467,-0.23361912,0
1.5344177,0.24951793,1.4648646,-0.45914477,0.077353477,0.88498741,0
-0.22071648,-3.3343945,-0.15883636,0.29415894,-0.92676467,0.23361912,0
-2.5054305,-4.2883935,-1.0846105,0.29415894,-0.92676467,0.23361912,0
-3.719857,-2.5500004,-1.4465396,-0.83824623,-0.36759204,-0.40276486,0
1.5741229,3.8040836,0.4050982,-0.29415894,0.92676467,-0.23361912,0
2.8492489,-2.1175039,1.1688619,0.29415894,-0.92676467,0.23361912,0
2.4047725,1.4850066,0.39486456,0.45914477,-0.077353477,-0.88498741,0
2.3830283,-2.0449305,1.7595294,0.29415894,-0.92676467,0.23361912,0
2.3677783,4.2485628,1.1131401,-0.29415894,0.92676467,-0.23361912,0
-1.8344957,2.2228155,-1.6450882,-0.29415894,0.92676467,-0.23361912,0
-1.8273283,-0.54860938,-0.19097817,-0.45914477,0.077353477,0.88498741,0
-3.3584619,-2.582171,-0.99364448,-0.45914477,0.077353477,0.88498741,0
-4.4860449,0.69294024,-1.8633274,-0.45914477,0.077353477,0.88498741,0
1.9836586,4.1774764,0.57941937,-0.29415894,0.92676467,-0.23361912,0
4.5955114,-0.66176224,2.5981781,0.83824623,0.36759204,0.40276486,0
-0.19287491,-2.9424527,0.59329045,0.29415894,-0.92676467,0.23361912,0
-0.37112379,-3.5283225,-0.37211514,0.29415894,-0.92676467,0.23361912,0
2.4138415,3.7370858,1.6976075,-0.45914477,0.077353477,0.88498741,0
3.0912237,3.2861543,1.6943369,0.83824623,0.36759204,0.40276486,0
-3.7028589,-1.3912109,-1.8389685,-0.83824623,-0.36759204,-0.40276486,0
-3.4039369,-2.1329596,-2.1784518,-0.83824623,-0.36759204,-0.40276486,0
-2.6728392,0.47405738,-1.0754747,-0.45914477,0.077353477,0.88498741,0
-3.9588232,-1.9256561,-1.401264,-0.83824623,-0.36759204,-0.40276486,0
-0.77260566,2.8392894,-0.38832736,-0.29415894,0.92676467,-0.23361912,0
-3.1567998,-4.0796809,-1.2064605,-0.83824623,-0.36759204,-0.40276486,0
1.206913,3.709476,0.027495623,-0.29415894,0.92676467,-0.23361912,0
3.9315138,1.6092181,1.667006,0.83824623,0.36759204,0.40276486,0
3.4703939,1.7946198,2.0854576,0.83824623,0.36759204,0.40276486,0
4.3452148,0.47000396,2.178761,0.83824623,0.36759204,0.40276486,0
4.1106691,-1.3239051,2.1073384,0.29415894,-0.92676467,0.23361912,0
3.1432066,3.0873592,1.482847,0.83824623,0.36759204,0.40276486,0
3.4492733,2.6077704,1.3964727,0.83824623,0.36759204,0.40276486,0
1.621711,1.0695822,1.153025,-0.45914477,0.077353477,0.88498741,0
2.4576788,1.0034217,1.6835263,-0.45914477,0.077353477,0.88498741,0
-3.2071683,-2.7733274,-1.8567247,-0.83824623,-0.36759204,-0.40276486,0
3.8736112,1.870638,1.3257637,0.83824623,0.36759204,0.40276486,0
-3.879518,-1.3279846,-2.2872748,-0.83824623,-0.36759204,-0.40276486,0
0.82485652,-1.0241778,0.92287016,-0.45914477,0.077353477,0.88498741,0
4.0587673,-1.4642031,2.5952039,0.29415894,-0.92676467,0.23361912,0
-4.4348021,-0.397053,-1.8294725,-0.83824623,-0.36759204,-0.40276486,0
2.8061285,-1.957054,1.1766592,0.29415894,-0.92676467,0.23361912,0
4.0767817,-1.5300509,1.5706978,0.29415894,-0.92676467,0.23361912,0
-2.538995,2.248451,-1.14537,-0.45914477,0.077353477,0.88498741,0
-0.95419455,2.5772011,-1.4165362,-0.29415894,0.92676467,-0.23361912,0
4.0563569,-1.1427921,2.6331522,-0.45914477,0.077353477,0.88498741,0
2.0063515,4.1975937,0.98037958,-0.29415894,0.92676467,-0.23361912,0
1.899896,-2.3540263,1.4313512,0.29415894,-0.92676467,0.23361912,0
-0.28867233,1.3823688,-0.77700061,0.45914477,-0.077353477,-0.88498741,0
4.3829141,-0.71616012,2.4731374,0.83824623,0.36759204,0.40276486,0
3.665448,1.3200758,1.8994324,0.83824623,0.36759204,0.40276486,0
3.7776065,1.8379221,1.9232414,0.83824623,0.36759204,0.40276486,0
3.6690412,1.400165,2.4434669,0.83824623,0.36759204,0.40276486,0
2.1560647,4.2425222,0.82118917,-0.29415894,0.92676467,-0.23361912,0
-2.7499888,2.0437589,-2.0046592,-0.29415894,0.92676467,-0.23361912,0
-3.3868186,0.85939908,-1.0718195,-0.45914477,0.077353477,0.88498741,0
0.5828948,-2.9269304,1.2382538,0.29415894,-0.92676467,0.23361912,0
3.0121007,0.31169486,0.80631995,0.45914477,-0.077353477,-0.88498741,0
4.1909666,1.1795781,1.7245965,0.83824623,0.36759204,0.40276486,0
-3.715488,-1.9123536,-2.1618335,-0.83824623,-0.36759204,-0.40276486,0
-3.2406602,-4.0580611,-0.9724822,-0.83824623,-0.36759204,-0.40276486,0
-1.6990722,1.4036984,-1.3857927,0.45914477,-0.077353477,-0.88498741,0
2.9306688,4.4029727,0.7503767,-0.29415894,0.92676467,-0.23361912,0
-1.2981799,2.6245711,-1.353788,-0.29415894,0.92676467,-0.23361912,0
3.1560528,-1.7527878,1.0876904,0.45914477,-0.077353477,-0.88498741,0
-1.8393461,0.32991025,-1.3480141,0.45914477,-0.077353477,-0.88498741,0
4.144031,-1.4649333,2.081954,0.29415894,-0.92676467,0.23361912,0
4.1432633,0.60755813,1.9031675,0.83824623,0.36759204,0.40276486,0
3.8732529,1.5262775,1.9118857,0.83824623,0.36759204,0.40276486,0
1.2283378,-0.80618107,1.2288904,-0.45914477,0.077353477,0.88498741,0
-3.5113692,-1.6644391,-2.0111039,-0.83824623,-0.36759204,-0.40276486,0
2.2386262,-1.4765233,0.71939898,0.45914477,-0.077353477,-0.88498741,0
-1.4410497,2.5109093,-1.003608,-0.29415894,0.92676467,-0.23361912,0
3.3261349,2.7193027,1.998425,0.83824623,0.36759204,0.40276486,0
2.9465833,3.6685743,1.2690206,0.83824623,0.36759204,0.40276486,0
-4.6659236,0.4770478,-2.300668,-0.83824623,-0.36759204,-0.40276486,0
3.502986,0.34155011,2.4117918,-0.45914477,0.077353477,0.88498741,0
4.4050097,-1.1566973,2.8532777,0.29415894,-0.92676467,0.23361912,0
2.3484089,1.1092398,1.5251318,-0.45914477,0.077353477,0.88498741,0
4.5899158,-0.29041684,2.3451645,0.83824623,0.36759204,0.40276486,0
3.7075486,0.71356452,2.3659401,0.83824623,0.36759204,0.40276486,0
1.3625293,2.1950264,1.0234644,-0.45914477,0.077353477,0.88498741,0
-1.4788128,-2.5434518,-1.0520351,0.45914477,-0.077353477,-0.88498741,0
-4.0682526,-1.3636088,-1.7834234,-0.83824623,-0.36759204,-0.40276486,0
-2.5298436,-4.3113389,-0.72956133,0.29415894,-0.92676467,0.23361912,0
-2.6156588,1.7797321,-2.1259198,-0.29415894,0.92676467,-0.23361912,0
4.7358298,-1.2262321,2.0944045,0.29415894,-0.92676467,0.23361912,0
-1.709218,2.3377657,-0.74332905,-0.29415894,0.92676467,-0.23361912,0
-2.5668116,-0.95629549,-0.54981232,-0.45914477,0.077353477,0.88498741,0
3.0047278,2.464678,2.1031387,-0.45914477,0.077353477,0.88498741,0
0.16491091,-1.3525599,-0.3368926,0.45914477,-0.077353477,-0.88498741,0
-3.9496658,1.3768289,-1.9661852,-0.29415894,0.92676467,-0.23361912,0
-2.8144283,-4.4794888,-0.95070601,0.29415894,-0.92676467,0.23361912,0
-4.2106657,0.9704116,-2.6200962,0.45914477,-0.077353477,-0.88498741,0
-4.2191529,0.088095069,-2.2908359,-0.83824623,-0.36759204,-0.40276486,0
-0.79465616,1.2658464,-0.98472655,0.45914477,-0.077353477,-0.88498741,0
-3.5483389,1.0390166,-2.6349659,0.45914477,-0.077353477,-0.88498741,0
3.2272875,3.4996295,1.4069617,0.83824623,0.36759204,0.40276486,0
2.129998,-2.0416198,1.5134685,0.29415894,-0.92676467,0.23361912,0
-3.5717077,-1.7342989,-2.3306653,-0.83824623,-0.36759204,-0.40276486,0
1.4849429,-2.4069617,0.80760449,0.29415894,-0.92676467,0.23361912,0
3.6105726,-0.13202631,1.3244315,0.45914477,-0.077353477,-0.88498741,0
3.438513,-1.4273683,2.3723218,0.29415894,-0.92676467,0.23361912,0
-1.1073432,-3.7877309,-0.71982694,0.29415894,-0.92676467,0.23361912,0
2.9813511,2.2357996,0.8326416,0.45914477,-0.077353477,-0.88498741,0
-0.47053194,3.2934327,0.004765749,-0.29415894,0.92676467,-0.23361912,0
0.03054148,1.2771763,-0.592098,0.45914477,-0.077353477,-0.88498741,0
-4.064785,-0.10794795,-1.5314896,-0.45914477,0.077353477,0.88498741,0
3.4723566,2.4815865,1.5141041,0.83824623,0.36759204,0.40276486,0
-4.4906478,0.25218976,-2.4673715,-0.83824623,-0.36759204,-0.40276486,0
-2.8905816,1.6310823,-2.0460644,-0.29415894,0.92676467,-0.23361912,0
-3.636147,-2.33564,-1.8891592,-0.83824623,-0.36759204,-0.40276486,0
-0.79757881,-1.9458599,0.50773048,-0.45914477,0.077353477,0.88498741,0
-3.2300639,1.0662916,-1.1713076,-0.45914477,0.077353477,0.88498741,0
2.8937216,4.1784992,1.37146,0.83824623,0.36759204,0.40276486,0
-1.2143017,-3.09832,0.06170845,-0.45914477,0.077353477,0.88498741,0
2.1902263,-2.305192,1.357388,0.29415894,-0.92676467,0.23361912,0
3.9387114,-1.4089384,1.7437626,0.29415894,-0.92676467,0.23361912,0
4.036478,0.56154442,2.2908688,0.83824623,0.36759204,0.40276486,0
3.7843666,1.525442,1.6038194,0.83824623,0.36759204,0.40276486,0
-3.2308087,1.0598212,-2.3940463,0.45914477,-0.077353477,-0.88498741,0
-3.4743202,-2.2493377,-1.4238405,-0.83824623,-0.36759204,-0.40276486,0
-4.2321448,0.085063934,-2.3652325,-0.83824623,-0.36759204,-0.40276486,0
3.4380326,2.2007985,1.7524729,0.83824623,0.36759204,0.40276486,0
1.2080307,3.6409693,-0.29572058,-0.29415894,0.92676467,-0.23361912,0
-0.22392392,3.0079916,-0.46736681,-0.29415894,0.92676467,-0.23361912,0
4.1475697,0.83577681,1.5391533,0.83824623,0.36759204,0.40276486,0
-2.863111,-4.3394527,-0.88805389,-0.83824623,-0.36759204,-0.40276486,0
-0.78612471,-3.3578436,0.4060359,0.29415894,-0.92676467,0.23361912,0
3.8549602,-1.0233833,2.7721245,-0.45914477,0.077353477,0.88498741,0
-1.7536328,-1.9923646,-0.084781408,-0.45914477,0.077353477,0.88498741,0
4.7452164,-0.27724433,1.8086243,0.45914477,-0.077353477,-0.88498741,0
2.4395065,0.21144104,0.82050228,0.45914477,-0.077353477,-0.88498741,0
2.5400186,4.2908235,1.0020776,-0.29415894,0.92676467,-0.23361912,0
-3.0813203,1.8299792,-1.8837947,-0.29415894,0.92676467,-0.23361912,0
4.1001787,0.037899733,2.5772285,0.83824623,0.36759204,0.40276486,0
-2.6024714,2.0837936,-1.168612,-0.29415894,0.92676467,-0.23361912,0
-3.3531058,-2.0112123,-1.9797597,-0.83824623,-0.36759204,-0.40276486,0
-2.2189205,0.75305247,-1.8664393,0.45914477,-0.077353477,-0.88498741,0
-0.83714986,1.8242662,-1.174446,0.45914477,-0.077353477,-0.88498741,0
3.6243668,1.7171224,2.0569322,0.83824623,0.36759204,0.40276486,0
-0.33902645,2.9582322,-0.25216544,-0.29415894,0.92676467,-0.23361912,0
3.7796364,-1.3779856,2.6088324,0.29415894,-0.92676467,0.23361912,0
-3.9291003,0.18871957,-2.4321361,0.45914477,-0.077353477,-0.88498741,0
2.3421428,2.7306428,0.36753654,0.45914477,-0.077353477,-0.88498741,0
3.4345648,-1.6325421,2.0943937,0.29415894,-0.92676467,0.23361912,0
1.9408171,-1.0185938,1.6346927,-0.45914477,0.077353477,0.88498741,0
3.8352857,2.3153524,1.4586408,0.83824623,0.36759204,0.40276486,0
3.0753684,3.0051084,1.6773403,0.83824623,0.36759204,0.40276486,0
-1.1153969,0.22945905,-0.019253492,-0.45914477,0.077353477,0.88498741,0
0.21466875,-3.1465464,0.0505476,0.29415894,-0.92676467,0.23361912,0
1.0981921,-2.6814325,1.1318386,0.29415894,-0.92676467,0.23361912,0
-0.76641083,2.5429244,-1.2146488,-0.29415894,0.92676467,-0.23361912,0
-0.34160972,2.9735756,-0.13589454,-0.29415894,0.92676467,-0.23361912,0
-3.6971741,-1.5122976,-2.2798977,-0.83824623,-0.36759204,-0.40276486,0
-1.6349256,-3.9518559,-0.48318338,0.29415894,-0.92676467,0.23361912,0
2.811691,4.115221,0.77150536,-0.29415894,0.92676467,-0.23361912,0
2.1938491,4.0451522,0.59235144,-0.29415894,0.92676467,-0.23361912,0
2.8496275,3.1822164,1.9546921,0.83824623,0.36759204,0.40276486,0
4.4920092,-0.86104465,2.4224322,0.83824623,0.36759204,0.40276486,0
2.0351341,-2.1520746,1.3519392,0.29415894,-0.92676467,0.23361912,0
-2.2762423,2.015389,-1.5403438,-0.29415894,0.92676467,-0.23361912,0
4.2302241,0.54313254,2.3112884,0.83824623,0.36759204,0.40276486,0
-3.3366523,0.47046268,-1.3198018,-0.45914477,0.077353477,0.88498741,0
-2.9477563,-2.5747204,-0.73288488,-0.45914477,0.077353477,0.88498741,0
3.5912266,-1.8494456,1.7509909,0.29415894,-0.92676467,0.23361912,0
1.3489605,-0.50297046,1.3370365,-0.45914477,0.077353477,0.88498741,0
4.4101901,-1.3502767,2.6778064,0.29415894,-0.92676467,0.23361912,0
0.52310944,-2.5793269,1.1650002,0.29415894,-0.92676467,0.23361912,0
2.5496545,4.3111162,0.71325827,-0.29415894,0.92676467,-0.23361912,0
-2.847784,-3.776253,-0.74684691,-0.45914477,0.077353477,0.88498741,0
-0.27076638,1.4338005,0.51019758,-0.45914477,0.077353477,0.88498741,0
-2.5271142,-1.1574625,-0.63005579,-0.45914477,0.077353477,0.88498741,0
2.161989,4.2687373,0.97667551,-0.29415894,0.92676467,-0.23361912,0
3.6857853,-1.6101483,1.7683059,0.29415894,-0.92676467,0.23361912,0
-1.0331471,-0.64231586,0.30076742,-0.45914477,0.077353477,0.88498741,0
1.5114136,-2.5189643,0.79553866,0.29415894,-0.92676467,0.23361912,0
-1.8840988,-4.0066047,-0.51337743,0.29415894,-0.92676467,0.23361912,0
3.6453164,1.1994013,1.0821407,0.45914477,-0.077353477,-0.88498741,0
2.8347373,2.3925362,1.6875758,-0.45914477,0.077353477,0.88498741,0
-0.170331,-3.2811646,-0.11429405,0.29415894,-0.92676467,0.23361912,0
4.0746202,1.8051444,1.2755232,0.83824623,0.36759204,0.40276486,0
3.4818456,2.502399,1.9362621,0.83824623,0.36759204,0.40276486,0
-1.6021478,-0.33344734,-0.4255529,-0.45914477,0.077353477,0.88498741,0
0.62519836,-2.9891415,0.67159116,0.29415894,-0.92676467,0.23361912,0
-4.117733,0.31341892,-2.7380168,-0.83824623,-0.36759204,-0.40276486,0
-4.6619148,0.070398092,-1.9918083,-0.83824623,-0.36759204,-0.40276486,0
-0.3854804,-3.0480399,0.40855217,0.29415894,-0.92676467,0.23361912,0
4.4929743,-0.15026557,2.1218262,0.83824623,0.36759204,0.40276486,0
-2.2741051,0.52339178,-1.5675325,0.45914477,-0.077353477,-0.88498741,0
0.77687669,-2.6700459,0.49608505,0.29415894,-0.92676467,0.23361912,0
-1.4650943,-3.2447321,-0.87706995,0.45914477,-0.077353477,-0.88498741,0
2.5390127,3.452256,0.60914922,0.45914477,-0.077353477,-0.88498741,0
-3.2953093,-4.1094089,-0.65133429,-0.83824623,-0.36759204,-0.40276486,0
0.086114645,3.399754,0.01415062,-0.29415894,0.92676467,-0.23361912,0
-1.1275802,-3.3473971,0.14160633,0.29415894,-0.92676467,0.23361912,0
4.7836695,-0.75536084,2.2155192,0.83824623,0.36759204,0.40276486,0
4.2755165,-1.4854536,1.9591768,0.29415894,-0.92676467,0.23361912,0
-2.510896,-4.4764361,-0.9748764,0.29415894,-0.92676467,0.23361912,0
-0.2341001,3.1755204,-0.79079795,-0.29415894,0.92676467,-0.23361912,0
-3.7552414,-1.5033371,-2.285445,-0.83824623,-0.36759204,-0.40276486,0
-3.3434095,1.7537872,-1.8713628,-0.29415894,0.92676467,-0.23361912,0
1.7396164,-2.1953678,1.325037,0.29415894,-0.92676467,0.23361912,0
-4.7652745,0.85255563,-1.7822379,-0.83824623,-0.36759204,-0.40276486,0
-4.0991597,-0.95072091,-1.9411407,-0.83824623,-0.36759204,-0.40276486,0
-4.4056439,0.6069265,-2.8509884,-0.83824623,-0.36759204,-0.40276486,0
1.4119154,-0.44254327,0.40086988,0.45914477,-0.077353477,-0.88498741,0
-3.9820118,-0.35358834,-2.2104499,-0.83824623,-0.36759204,-0.40276486,0
4.4172912,-1.178285,2.0477054,0.29415894,-0.92676467,0.23361912,0
-3.992548,-0.85540843,-1.8012803,-0.83824623,-0.36759204,-0.40276486,0
1.9194297,3.3235347,1.1326771,-0.45914477,0.077353477,0.88498741,0
-3.4071856,-2.5795391,-1.6487374,-0.83824623,-0.36759204,-0.40276486,0
4.1310754,0.59119797,1.7874117,0.83824623,0.36759204,0.40276486,0
-3.5565414,-1.3449049,-2.2336359,-0.83824623,-0.36759204,-0.40276486,0
-3.6836939,-2.0260019,-1.5831082,-0.83824623,-0.36759204,-0.40276486,0
-3.5326772,-2.3335328,-1.6846948,-0.83824623,-0.36759204,-0.40276486,0
-3.3578525,-3.1287725,-0.93469954,-0.83824623,-0.36759204,-0.40276486,0
1.5004959,-0.79181349,0.08030875,0.45914477,-0.077353477,-0.88498741,0
-2.1615906,2.199291,-0.66012841,-0.29415894,0.92676467,-0.23361912,0
0.5094713,2.0920889,-0.50686753,0.45914477,-0.077353477,-0.88498741,0
4.0069852,0.4572556,2.2468095,0.83824623,0.36759204,0.40276486,0
-2.8297353,-2.1006837,-0.94102859,-0.45914477,0.077353477,0.88498741,0
4.8751659,-0.71773016,2.0316281,0.83824623,0.36759204,0.40276486,0
-3.1962199,-3.3209593,-1.936022,-0.83824623,-0.36759204,-0.40276486,0
-2.0689054,-0.57009393,-1.5287349,0.45914477,-0.077353477,-0.88498741,0
-1.0069051,2.850044,-0.99684,-0.29415894,0.92676467,-0.23361912,0
3.2728214,-0.25179112,2.2040405,-0.45914477,0.077353477,0.88498741,0
1.4889073,3.7232163,0.31809974,-0.29415894,0.92676467,-0.23361912,0
-2.6628795,2.0925722,-1.3069586,-0.29415894,0.92676467,-0.23361912,0
-1.1443619,2.5474603,-0.97803068,-0.29415894,0.92676467,-0.23361912,0
4.3636799,0.47828686,1.904072,0.83824623,0.36759204,0.40276486,0
-0.67376816,2.1416862,-0.056593418,-0.45914477,0.077353477,0.88498741,0
0.45348692,3.3314617,0.19956613,-0.29415894,0.92676467,-0.23361912,0
-3.5896673,-2.2253692,-1.6674705,-0.83824623,-0.36759204,-0.40276486,0
-3.3919921,-1.4428306,-2.0605443,0.45914477,-0.077353477,-0.88498741,0
3.9606552,0.87036514,1.9212823,0.83824623,0.36759204,0.40276486,0
-0.2178961,-1.6845753,0.45913965,-0.45914477,0.077353477,0.88498741,0
-0.15599179,2.9621508,-0.59427762,-0.29415894,0.92676467,-0.23361912,0
-0.86082149,-3.7578964,-0.28793883,0.29415894,-0.92676467,0.23361912,0
1.7761211,3.8361144,0.014559269,-0.29415894,0.92676467,-0.23361912,0
0.052671909,3.0556808,-0.28782964,-0.29415894,0.92676467,-0.23361912,0
3.4474604,1.9890779,1.1932449,0.45914477,-0.077353477,-0.88498741,0
0.85719252,-2.6251297,0.88737285,0.29415894,-0.92676467,0.23361912,0
0.58115172,3.6355352,0.26295757,-0.29415894,0.92676467,-0.23361912,0
-3.7270498,-0.89455491,-2.3878345,-0.83824623,-0.36759204,-0.40276486,0
-0.019590139,-3.2555194,0.5941422,0.29415894,-0.92676467,0.23361912,0
3.8444991,-0.74084944,2.641916,-0.45914477,0.077353477,0.88498741,0
-2.6082015,2.2471118,-1.0517389,-0.29415894,0.92676467,-0.23361912,0
-4.4161139,-0.41132557,-1.9050899,-0.83824623,-0.36759204,-0.40276486,0
-0.21146345,2.9142995,-0.58231616,-0.29415894,0.92676467,-0.23361912,0
-1.3532083,2.4977152,-0.62184352,-0.29415894,0.92676467,-0.23361912,0
-1.0222917,-3.4823239,0.09454751,0.29415894,-0.92676467,0.23361912,0
1.4760889,3.3392086,1.111697,-0.45914477,0.077353477,0.88498741,0
-0.093069494,-0.44882792,-0.56313205,0.45914477,-0.077353477,-0.88498741,0
3.6164172,2.5488262,1.6077325,0.83824623,0.36759204,0.40276486,0
3.7605186,0.99691379,2.2963164,0.83824623,0.36759204,0.40276486,0
2.1096132,-1.4397732,0.77603638,0.45914477,-0.077353477,-0.88498741,0
-3.2465773,-3.0721552,-0.88785219,-0.45914477,0.077353477,0.88498741,0
4.2613778,-1.3952031,2.1060491,0.29415894,-0.92676467,0.23361912,0
1.5542675,2.7217033,1.2538784,-0.45914477,0.077353477,0.88498741,0
0.70539784,-0.40439665,-0.14812651,0.45914477,-0.077353477,-0.88498741,0
1.419569,3.991097,0.44605374,-0.29415894,0.92676467,-0.23361912,0
1.4579693,2.9848461,1.2127557,-0.45914477,0.077353477,0.88498741,0
-3.7020059,-0.65085852,-2.59411,-0.83824623,-0.36759204,-0.40276486,0
-4.7127357,1.1110096,-2.3675041,-0.29415894,0.92676467,-0.23361912,0
3.6133184,2.4179196,1.2795398,0.83824623,0.36759204,0.40276486,0
4.5264421,-0.464077,1.6893191,0.83824623,0.36759204,0.40276486,0
4.4255486,-0.73019373,2.490207,0.83824623,0.36759204,0.40276486,0
2.2882988,-1.9932461,1.35175,0.29415894,-0.92676467,0.23361912,0
-3.5034311,-2.1353438,-1.9910066,-0.83824623,-0.36759204,-0.40276486,0
-3.3786471,-2.6515222,-1.9612911,-0.83824623,-0.36759204,-0.40276486,0
-2.8716342,-2.0101566,-0.74278069,-0.45914477,0.077353477,0.88498741,0
3.8033054,2.333437,1.4954503,0.83824623,0.36759204,0.40276486,0
-2.1915445,0.72152066,-1.6761285,0.45914477,-0.077353477,-0.88498741,0
0.33512044,2.2713995,-0.39064729,0.45914477,-0.077353477,-0.88498741,0
-1.5826715,1.2169663,-1.3503882,0.45914477,-0.077353477,-0.88498741,0
1.55426,0.31314993,0.076242805,0.45914477,-0.077353477,-0.88498741,0
-0.034340739,2.2774439,-0.82848626,0.45914477,-0.077353477,-0.88498741,0
3.6978121,1.7023368,1.5871797,0.83824623,0.36759204,0.40276486,0
-1.6749463,1.3160206,-1.4521227,0.45914477,-0.077353477,-0.88498741,0
-0.027632475,3.0846083,-0.55938733,-0.29415894,0.92676467,-0.23361912,0
-0.69921899,-3.4702895,-0.5525682,0.29415894,-0.92676467,0.23361912,0
-1.2297869,-3.8969507,-0.3646152,0.29415894,-0.92676467,0.23361912,0
-2.1526489,-0.75891888,-0.38558638,-0.45914477,0.077353477,0.88498741,0
0.31495833,-3.0932884,0.8840946,0.29415894,-0.92676467,0.23361912,0
0.63614595,-0.68993938,1.108736,-0.45914477,0.077353477,0.88498741,0
2.0610628,-0.66304386,0.38536012,0.45914477,-0.077353477,-0.88498741,0
1.119372,2.0373268,-0.012375832,0.45914477,-0.077353477,-0.88498741,0
-2.3655369,-2.2048059,-0.30745125,-0.45914477,0.077353477,0.88498741,0
0.38218105,-0.88617843,0.7803129,-0.45914477,0.077353477,0.88498741,0
2.3779063,-1.5914154,1.782407,-0.45914477,0.077353477,0.88498741,0
0.78177094,-0.0032286048,-0.1458184,0.45914477,-0.077353477,-0.88498741,0
4.1153469,1.4756005,1.6428182,0.83824623,0.36759204,0.40276486,0
1.8831446,-2.4432249,1.0168254,0.29415894,-0.92676467,0.23361912,0
-3.5306897,-2.8246496,-1.6402228,-0.83824623,-0.36759204,-0.40276486,0
3.5947866,2.1876764,2.0848362,0.83824623,0.36759204,0.40276486,0
4.4782724,-0.18637872,2.3974357,0.83824623,0.36759204,0.40276486,0
-0.80476236,-1.3704122,0.26799607,-0.45914477,0.077353477,0.88498741,0
-2.8612401,-4.3320498,-1.6793237,-0.83824623,-0.36759204,-0.40276486,0
2.6148262,-0.33020198,0.89033115,0.45914477,-0.077353477,-0.88498741,0
3.7280929,-1.5891991,2.5724554,0.29415894,-0.92676467,0.23361912,0
-3.4156981,-3.3374274,-1.4833155,-0.83824623,-0.36759204,-0.40276486,0
0.57822633,3.5971758,0.69976044,-0.29415894,0.92676467,-0.23361912,0
2.9400029,4.2760544,1.4506216,0.83824623,0.36759204,0.40276486,0
-2.9489393,-3.7518871,-1.270956,-0.83824623,-0.36759204,-0.40276486,0
-3.5232096,-2.0307541,-2.088794,-0.83824623,-0.36759204,-0.40276486,0
-2.1957245,0.11813888,-1.7180692,0.45914477,-0.077353477,-0.88498741,0
-3.5938785,-2.421855,-1.9612241,-0.83824623,-0.36759204,-0.40276486,0
-3.5235054,-2.9494016,-1.0151615,-0.83824623,-0.36759204,-0.40276486,0
-4.5615425,0.52323115,-2.4742861,-0.83824623,-0.36759204,-0.40276486,0
3.7620206,1.5306165,1.6283937,0.83824623,0.36759204,0.40276486,0
-2.9857213,-3.5051513,-1.2930193,-0.83824623,-0.36759204,-0.40276486,0
0.61785114,-0.32564202,1.018592,-0.45914477,0.077353477,0.88498741,0
-4.2909765,0.23038137,-2.0953934,-0.83824623,-0.36759204,-0.40276486,0
-4.1002779,0.10955137,-2.6872215,-0.83824623,-0.36759204,-0.40276486,0
-3.7703402,1.3056488,-2.5935957,-0.29415894,0.92676467,-0.23361912,0
-3.8278139,-1.3187846,-1.506664,-0.83824623,-0.36759204,-0.40276486,0
2.0709143,-2.5091653,0.93185824,0.29415894,-0.92676467,0.23361912,0
-2.8544881,-4.1014223,-0.6303525,0.29415894,-0.92676467,0.23361912,0
0.61437368,-2.6641407,-0.10541785,0.45914477,-0.077353477,-0.88498741,0
2.4637489,0.13248068,1.8942378,-0.45914477,0.077353477,0.88498741,0
3.1157811,3.2602165,1.6341686,0.83824623,0.36759204,0.40276486,0
-0.51257563,-3.6757207,-0.45677924,0.29415894,-0.92676467,0.23361912,0
0.90651429,1.6204081,0.96293747,-0.45914477,0.077353477,0.88498741,0
3.2952979,3.1618764,1.8868785,0.83824623,0.36759204,0.40276486,0
3.927434,1.682862,1.9563885,0.83824623,0.36759204,0.40276486,0
-1.4195237,-3.4389775,0.24693537,-0.45914477,0.077353477,0.88498741,0
0.71830374,0.68088901,0.93715262,-0.45914477,0.077353477,0.88498741,0
0.47457814,2.6964903,0.38167453,-0.45914477,0.077353477,0.88498741,0
-2.313971,1.9464662,-1.9873497,0.45914477,-0.077353477,-0.88498741,0
2.8910456,2.9074357,0.63083577,0.45914477,-0.077353477,-0.88498741,0
3.8250818,-1.6687603,2.0229099,0.29415894,-0.92676467,0.23361912,0
1.7687452,-1.7102528,0.31106672,0.45914477,-0.077353477,-0.88498741,0
-2.5445766,-2.1771374,-1.5148253,0.45914477,-0.077353477,-0.88498741,0
4.4356756,-0.50753182,2.6113081,0.83824623,0.36759204,0.40276486,0
2.5321302,3.9564869,0.45093274,-0.29415894,0.92676467,-0.23361912,0
-2.0392287,0.78072882,-1.494242,0.45914477,-0.077353477,-0.88498741,0
-1.2066913,-2.0625966,-1.2349683,0.45914477,-0.077353477,-0.88498741,0
2.7568817,0.29876426,2.184864,-0.45914477,0.077353477,0.88498741,0
1.6524556,3.8286676,0.79345489,-0.29415894,0.92676467,-0.23361912,0
0.45673108,2.5656526,0.75014031,-0.45914477,0.077353477,0.88498741,0
-2.8964441,-4.2884955,-1.2032051,-0.83824623,-0.36759204,-0.40276486,0
-3.7115943,-2.6952305,-1.2535303,-0.83824623,-0.36759204,-0.40276486,0
4.5201144,0.28121996,1.9249883,0.83824623,0.36759204,0.40276486,0
-2.1969047,2.1855597,-1.060329,-0.29415894,0.92676467,-0.23361912,0
-3.7662358,-1.0816624,-2.1315212,-0.83824623,-0.36759204,-0.40276486,0
4.3749976,-0.24479222,2.2572925,0.83824623,0.36759204,0.40276486,0
-1.8885672,-4.1130347,-0.85372663,0.29415894,-0.92676467,0.23361912,0
-4.2449207,1.1461675,-2.4851317,-0.29415894,0.92676467,-0.23361912,0
-4.0401759,-1.0609491,-1.8635044,-0.83824623,-0.36759204,-0.40276486,0
1.896399,4.1295352,0.41282129,-0.29415894,0.92676467,-0.23361912,0
-0.70729291,2.0542352,0.2286135,-0.45914477,0.077353477,0.88498741,0
-0.97508931,-3.3566003,0.043623209,0.29415894,-0.92676467,0.23361912,0
0.18942332,-2.6779547,0.79397392,-0.45914477,0.077353477,0.88498741,0
3.6084075,2.157234,1.7663524,0.83824623,0.36759204,0.40276486,0
-2.9964011,1.6033721,-2.3878207,-0.29415894,0.92676467,-0.23361912,0
-2.4256067,-4.4584537,-1.0695338,0.29415894,-0.92676467,0.23361912,0
3.3384657,3.1116421,1.5038164,0.83824623,0.36759204,0.40276486,0
-0.38194919,3.1674573,-0.56228471,-0.29415894,0.92676467,-0.23361912,0
0.4831233,3.5069647,0.49883056,-0.29415894,0.92676467,-0.23361912,0
-3.334918,-0.079748452,-2.4938598,0.45914477,-0.077353477,-0.88498741,0
-4.0754032,-0.80299759,-2.3389359,-0.83824623,-0.36759204,-0.40276486,0
-0.38952982,-2.2014251,-0.59037387,0.45914477,-0.077353477,-0.88498741,0
-1.5727882,1.7916833,-1.3901086,0.45914477,-0.077353477,-0.88498741,0
-4.0235047,-0.039959908,-2.2718658,-0.83824623,-0.36759204,-0.40276486,0
-1.1064612,-2.8230126,-0.72020555,0.45914477,-0.077353477,-0.88498741,0
-0.011069417,1.6212238,0.41661191,-0.45914477,0.077353477,0.88498741,0
-3.207412,-3.5973251,-1.5612013,-0.83824623,-0.36759204,-0.40276486,0
-2.7993467,1.9604428,-1.1028162,-0.29415894,0.92676467,-0.23361912,0
2.4356589,-2.2781489,1.3146111,0.29415894,-0.92676467,0.23361912,0
-0.33939028,-3.2336726,-0.25566363,0.29415894,-0.92676467,0.23361912,0
2.3298459,-0.59346467,0.47715604,0.45914477,-0.077353477,-0.88498741,0
-3.3833394,-0.77800226,-2.0830309,0.45914477,-0.077353477,-0.88498741,0
1.8706248,3.8986468,0.7132988,-0.29415894,0.92676467,-0.23361912,0
3.9015696,1.1864721,1.7877209,0.83824623,0.36759204,0.40276486,0
-4.4039164,-0.13860488,-1.8835369,-0.83824623,-0.36759204,-0.40276486,0
-1.4160542,-3.976191,-0.5267446,0.29415894,-0.92676467,0.23361912,0
-4.2008753,0.044185281,-2.2820449,-0.83824623,-0.36759204,-0.40276486,0
-3.1667027,1.4873507,-1.3458872,-0.45914477,0.077353477,0.88498741,0
2.7415118,4.3833508,1.385016,0.83824623,0.36759204,0.40276486,0
3.6203389,3.1166267,1.2405422,0.83824623,0.36759204,0.40276486,0
0.049715638,2.246182,-0.94593596,0.45914477,-0.077353477,-0.88498741,0
-2.5547373,2.2071185,-0.8818717,-0.29415894,0.92676467,-0.23361912,0
3.3096623,4.0852275,0.76123047,0.83824623,0.36759204,0.40276486,0
4.1973181,0.5880934,2.0273738,0.83824623,0.36759204,0.40276486,0
-4.3748546,0.99289805,-2.6097741,-0.83824623,-0.36759204,-0.40276486,0
4.0728674,0.98790216,1.5263686,0.45914477,-0.077353477,-0.88498741,0
2.7150016,4.2401414,1.1545014,-0.29415894,0.92676467,-0.23361912,0
4.3166203,-0.98050869,2.6666312,0.83824623,0.36759204,0.40276486,0
0.8683548,3.8700728,0.60886288,-0.29415894,0.92676467,-0.23361912,0
-3.5608275,-1.2295744,-2.1638865,-0.83824623,-0.36759204,-0.40276486,0
-0.14091444,3.1830053,-0.2210288,-0.29415894,0.92676467,-0.23361912,0
-2.8579895,0.22371209,-0.78090823,-0.45914477,0.077353477,0.88498741,0
4.5391383,-1.3843784,2.0912907,0.29415894,-0.92676467,0.23361912,0
4.3784242,0.12450123,2.0899549,0.83824623,0.36759204,0.40276486,0
-2.4841857,-4.1640983,-0.65111375,0.29415894,-0.92676467,0.23361912,0
1.8702233,1.2673023,0.14672375,0.45914477,-0.077353477,-0.88498741,0
3.4061527,3.7413979,1.1170268,0.83824623,0.36759204,0.40276486,0
1.5842195,3.8452787,-0.16908813,-0.29415894,0.92676467,-0.23361912,0
-4.3266349,1.487206,-2.3408082,-0.29415894,0.92676467,-0.23361912,0
-2.4807417,1.9679142,-1.5323389,-0.29415894,0.92676467,-0.23361912,0
-3.4647746,-2.1861186,-1.9051156,-0.83824623,-0.36759204,-0.40276486,0
-3.7321205,-1.7475846,-2.1204188,-0.83824623,-0.36759204,-0.40276486,0
-1.9234312,-3.3478315,0.062061071,-0.45914477,0.077353477,0.88498741,0
3.8661516,1.6288898,1.8376327,0.83824623,0.36759204,0.40276486,0
-4.3016472,0.16749215,-2.3211095,-0.83824623,-0.36759204,-0.40276486,0
-2.0461617,-3.964499,-0.45076084,0.29415894,-0.92676467,0.23361912,0
-3.9453678,-0.94898868,-1.6750023,-0.83824623,-0.36759204,-0.40276486,0
1.7185247,4.0336084,0.22764492,-0.29415894,0.92676467,-0.23361912,0
0.35033703,-3.0696216,0.18478215,0.29415894,-0.92676467,0.23361912,0
-4.0959816,1.3994262,-1.9918185,-0.29415894,0.92676467,-0.23361912,0
3.0814724,2.8523495,1.7233281,0.83824623,0.36759204,0.40276486,0
0.28373551,-2.9408727,0.24042487,0.29415894,-0.92676467,0.23361912,0
3.43731,2.7622075,1.3778126,0.83824623,0.36759204,0.40276486,0
-2.4474912,0.52459502,-0.87024546,-0.45914477,0.077353477,0.88498741,0
1.8332012,-2.0106468,0.55121553,0.45914477,-0.077353477,-0.88498741,0
0.2453056,-0.71558946,0.56903833,-0.45914477,0.077353477,0.88498741,0
4.486774,-0.48677123,2.0986786,0.83824623,0.36759204,0.40276486,0
-4.3786368,0.59694886,-2.200717,-0.83824623,-0.36759204,-0.40276486,0
4.3341618,0.26604509,2.3646684,0.83824623,0.36759204,0.40276486,0
3.0684853,4.196991,0.8797636,0.83824623,0.36759204,0.40276486,0
-3.7799442,1.2901978,-2.1840174,-0.29415894,0.92676467,-0.23361912,0
2.4093332,3.2238929,0.19615865,0.45914477,-0.077353477,-0.88498741,0
4.3478327,0.27396798,1.757355,0.45914477,-0.077353477,-0.88498741,0
3.390729,3.4288654,1.2116072,0.83824623,0.36759204,0.40276486,0
2.9846201,-1.7783207,1.3073568,0.45914477,-0.077353477,-0.88498741,0
1.0890574,-2.7041969,0.73899102,0.29415894,-0.92676467,0.23361912,0
-0.99327064,2.7054756,-1.1348433,-0.29415894,0.92676467,-0.23361912,0
-2.9557281,0.36980915,-0.91900527,-0.45914477,0.077353477,0.88498741,0
0.79820931,1.8314871,0.86558723,-0.45914477,0.077353477,0.88498741,0
-3.9856958,-1.5258042,-1.3625913,-0.45914477,0.077353477,0.88498741,0
-3.143559,-3.7659419,-1.4830225,-0.83824623,-0.36759204,-0.40276486,0
3.6446764,-0.83018136,2.6515071,-0.45914477,0.077353477,0.88498741,0
-4.1399426,-1.2537789,-1.560513,-0.83824623,-0.36759204,-0.40276486,0
-3.342171,-3.3322768,-1.6634173,-0.83824623,-0.36759204,-0.40276486,0
0.24332394,0.66897237,-0.63730615,0.45914477,-0.077353477,-0.88498741,0
1.8476551,4.0115304,0.91107988,-0.29415894,0.92676467,-0.23361912,0
-1.5031712,-3.962729,-0.61289048,0.29415894,-0.92676467,0.23361912,0
4.2351251,0.40996599,1.9349401,0.83824623,0.36759204,0.40276486,0
-2.8170438,1.4471264,-1.1320207,-0.45914477,0.077353477,0.88498741,0
-2.5141327,1.9073822,-1.3054513,-0.29415894,0.92676467,-0.23361912,0
-4.3401217,0.41946507,-2.284996,-0.83824623,-0.36759204,-0.40276486,0
0.23930883,-2.9515569,0.49064052,0.29415894,-0.92676467,0.23361912,0
0.94981521,-0.66911507,1.254555,-0.45914477,0.077353477,0.88498741,0
2.1521368,3.8201416,0.2161777,0.45914477,-0.077353477,-0.88498741,0
-3.904171,1.2929724,-2.872719,-0.29415894,0.92676467,-0.23361912,0
-1.5192398,2.1606817,-1.5318748,-0.29415894,0.92676467,-0.23361912,0
0.16278338,3.3321939,-0.46458805,-0.29415894,0.92676467,-0.23361912,0
4.5156398,-0.39948034,2.3727708,0.83824623,0.36759204,0.40276486,0
1.6059437,1.5780408,1.2075567,-0.45914477,0.077353477,0.88498741,0
-2.7183461,1.75415,-1.7436315,-0.29415894,0.92676467,-0.23361912,0
-3.2702322,-3.2467294,-1.0765457,-0.83824623,-0.36759204,-0.40276486,0
3.9736631,1.7775983,1.6334074,0.83824623,0.36759204,0.40276486,0
2.0111575,-0.18848455,0.60479105,0.45914477,-0.077353477,-0.88498741,0
3.9535789,0.91015255,1.7629473,0.83824623,0.36759204,0.40276486,0
-3.2300205,-3.1407945,-1.9405105,-0.83824623,-0.36759204,-0.40276486,0
4.3239603,-1.1713212,1.9633112,0.29415894,-0.92676467,0.23361912,0
-4.3991055,0.29741228,-1.9628352,-0.83824623,-0.36759204,-0.40276486,0
-1.0742037,2.827456,-0.88875234,-0.29415894,0.92676467,-0.23361912,0
0.023868799,-3.4176381,-0.23037744,0.29415894,-0.92676467,0.23361912,0
4.5747075,-1.2851961,2.6064448,0.29415894,-0.92676467,0.23361912,0
-0.20851445,1.551254,-0.68872941,0.45914477,-0.077353477,-0.88498741,0
-3.7977812,0.8159219,-1.551425,-0.45914477,0.077353477,0.88498741,0
-4.7101736,0.83963144,-2.0750427,-0.83824623,-0.36759204,-0.40276486,0
-1.5570743,-0.36551964,-0.11817461,-0.45914477,0.077353477,0.88498741,0
3.0638738,-1.6932893,2.2056379,0.29415894,-0.92676467,0.23361912,0
-2.2284107,1.3500528,-1.636073,0.45914477,-0.077353477,-0.88498741,0
0.0084741116,3.0473034,-0.50682843,-0.29415894,0.92676467,-0.23361912,0
-0.29997015,-3.1880345,0.48949635,0.29415894,-0.92676467,0.23361912,0
-4.4936857,-0.13381362,-1.8266821,-0.83824623,-0.36759204,-0.40276486,0
2.0077975,-2.4143696,0.78279674,0.29415894,-0.92676467,0.23361912,0
-3.4887486,-1.8424177,-1.8492765,-0.83824623,-0.36759204,-0.40276486,0
-3.6816144,-2.3815365,-1.7050412,-0.83824623,-0.36759204,-0.40276486,0
-3.5923042,-1.8759208,-1.7578316,-0.83824623,-0.36759204,-0.40276486,0
-4.5104203,1.1558279,-2.9035068,-0.83824623,-0.36759204,-0.40276486,0
3.0151448,4.2884407,1.28268,0.83824623,0.36759204,0.40276486,0
-0.70527363,-3.4825196,0.49047732,0.29415894,-0.92676467,0.23361912,0
-4.1101141,-1.3209358,-1.5261316,-0.83824623,-0.36759204,-0.40276486,0
3.984066,-0.013476968,1.5577865,0.45914477,-0.077353477,-0.88498741,0
3.4975848,0.71209049,1.0064127,0.45914477,-0.077353477,-0.88498741,0
-2.0653021,2.2852738,-1.5091398,-0.29415894,0.92676467,-0.23361912,0
-2.416136,-3.4425876,-1.6045737,0.45914477,-0.077353477,-0.88498741,0
-3.9371614,-1.4082296,-2.1305339,-0.83824623,-0.36759204,-0.40276486,0
1.1491756,3.8311753,0.46763158,-0.29415894,0.92676467,-0.23361912,0
3.0568123,-1.6746405,1.5984929,0.29415894,-0.92676467,0.23361912,0
-2.7910163,1.8246604,-1.8428066,-0.29415894,0.92676467,-0.23361912,0
4.3248987,-1.2723644,2.5458546,0.29415894,-0.92676467,0.23361912,0
-4.0925555,1.4256927,-2.27022,-0.29415894,0.92676467,-0.23361912,0
3.4573169,0.012727439,2.5708926,-0.45914477,0.077353477,0.88498741,0
-0.94583106,-3.3276451,0.2796073,0.29415894,-0.92676467,0.23361912,0
-3.4919934,-1.6284819,-0.97429371,-0.45914477,0.077353477,0.88498741,0
-0.059452653,-1.3101084,0.70984375,-0.45914477,0.077353477,0.88498741,0
0.56553936,2.6049809,0.63704658,-0.45914477,0.077353477,0.88498741,0
4.4852414,-0.74308109,1.9956545,0.45914477,-0.077353477,-0.88498741,0
