1.6744853,1.4315009,0.32544637,0.76319009,-0.57774061,0.28940737,0
2.7009516,2.4730713,-2.6843863,0.61472434,0.51112777,-0.60071826,0
-1.820508,-3.3992391,-1.0655346,-0.19913518,-0.63636798,-0.74523884,0
-2.325175,-1.138989,4.4061728,-0.61472434,-0.51112777,0.60071826,0
0.58981472,1.4953998,-0.64389265,-0.76319009,0.57774061,-0.28940737,0
-1.3871046,-1.6227539,-1.1516821,-0.76319009,0.57774061,-0.28940737,0
0.10663342,0.058605157,1.0300295,0.76319009,-0.57774061,0.28940737,0
1.7975652,0.81454599,-4.3173342,-0.76319009,0.57774061,-0.28940737,0
1.2249411,-0.30252981,-4.6623583,-0.19913518,-0.63636798,-0.74523884,0
1.2554255,2.1567523,-0.93767434,-0.76319009,0.57774061,-0.28940737,0
2.2169878,1.5883596,-1.3847874,0.76319009,-0.57774061,0.28940737,0
1.9447842,0.40724933,-2.7496691,0.76319009,-0.57774061,0.28940737,0
0.80547512,0.82780212,-2.5279486,-0.76319009,0.57774061,-0.28940737,0
-3.2407711,-4.2874923,0.42109621,-0.61472434,-0.51112777,0.60071826,0
-3.2165062,-2.6087213,2.0455859,-0.61472434,-0.51112777,0.60071826,0
1.3536278,-1.1207669,-4.306457,-0.19913518,-0.63636798,-0.74523884,0
1.2055171,3.484906,1.584814,0.19913518,0.63636798,0.74523884,0
1.8909011,3.3354819,1.1542948,0.19913518,0.63636798,0.74523884,0
-2.5303881,-2.4536474,3.0328064,-0.61472434,-0.51112777,0.60071826,0
2.9661553,1.9510736,-2.8272877,0.61472434,0.51112777,-0.60071826,0
0.77505112,2.2982235,2.7002194,0.19913518,0.63636798,0.74523884,0
-3.5210152,-3.5673382,1.1359262,-0.61472434,-0.51112777,0.60071826,0
3.5668397,4.437911,-0.37059641,0.61472434,0.51112777,-0.60071826,0
2.9836957,2.8937707,-2.1397591,0.61472434,0.51112777,-0.60071826,0
-1.6557447,-0.72717488,1.0842752,-0.76319009,0.57774061,-0.28940737,0
-0.6481123,-2.2733431,-0.49009854,0.76319009,-0.57774061,0.28940737,0
0.38030481,2.2909837,1.1969308,-0.76319009,0.57774061,-0.28940737,0
-0.83407736,-1.7912683,-2.781805,-0.19913518,-0.63636798,-0.74523884,0
0.66580534,-0.94583929,-4.1221666,-0.19913518,-0.63636798,-0.74523884,0
3.6678615,3.9362121,-0.24490333,0.61472434,0.51112777,-0.60071826,0
-2.6750381,-4.5705819,-0.20616555,-0.19913518,-0.63636798,-0.74523884,0
-3.0424175,-1.3888044,3.4188039,-0.61472434,-0.51112777,0.60071826,0
-2.248235,-3.7216816,-0.72921371,-0.19913518,-0.63636798,-0.74523884,0
-0.0011408329,1.8229438,3.233788,0.19913518,0.63636798,0.74523884,0
0.81003547,2.1209767,0.79460937,-0.76319009,0.57774061,-0.28940737,0
-0.88832158,0.5782333,2.3708789,-0.76319009,0.57774061,-0.28940737,0
0.094251394,1.8211176,3.3769515,0.19913518,0.63636798,0.74523884,0
-2.4867036,-0.78617847,4.3084955,-0.61472434,-0.51112777,0.60071826,0
-3.2506778,-4.1276813,0.62380719,-0.61472434,-0.51112777,0.60071826,0
0.33938599,-0.53197855,-3.7234063,-0.76319009,0.57774061,-0.28940737,0
1.8565543,3.5585899,1.1453271,0.19913518,0.63636798,0.74523884,0
-1.0928519,-0.025777698,4.0012918,0.76319009,-0.57774061,0.28940737,0
2.1760054,3.0400476,-1.2279124,-0.76319009,0.57774061,-0.28940737,0
-1.0328323,0.26892376,4.5147343,0.19913518,0.63636798,0.74523884,0
-1.6464386,-3.2038467,-1.3637105,-0.19913518,-0.63636798,-0.74523884,0
-1.6581883,0.13329136,5.026629,0.19913518,0.63636798,0.74523884,0
-1.5280402,-1.6915791,-0.77165723,-0.76319009,0.57774061,-0.28940737,0
1.4431579,2.7509859,0.51502931,-0.76319009,0.57774061,-0.28940737,0
-2.627522,-3.1447401,-1.2368112,-0.19913518,-0.63636798,-0.74523884,0
-1.0164552,-2.5439777,-1.9945714,-0.19913518,-0.63636798,-0.74523884,0
1.357987,0.27118909,-0.64337474,0.76319009,-0.57774061,0.28940737,0
0.99232745,2.55739,0.74286795,-0.76319009,0.57774061,-0.28940737,0
2.6975291,2.0871239,-2.9003634,0.61472434,0.51112777,-0.60071826,0
0.28068477,-0.80878091,-1.2123955,0.76319009,-0.57774061,0.28940737,0
2.2544584,1.1732125,-4.4263487,0.61472434,0.51112777,-0.60071826,0
2.4146032,1.7948234,-3.3801794,0.61472434,0.51112777,-0.60071826,0
0.69045901,2.3784592,2.5227482,0.19913518,0.63636798,0.74523884,0
2.064414,0.17738163,-4.9002252,0.61472434,0.51112777,-0.60071826,0
0.77787948,-1.2339251,-3.7397976,-0.19913518,-0.63636798,-0.74523884,0
-3.1219501,-3.1811609,1.6316433,-0.61472434,-0.51112777,0.60071826,0
-3.4633911,-4.0647078,-0.15885556,-0.19913518,-0.63636798,-0.74523884,0
1.735476,0.74414217,-4.8160934,0.61472434,0.51112777,-0.60071826,0
-1.9866128,0.41676128,4.8429952,0.19913518,0.63636798,0.74523884,0
-1.4013243,0.38813925,2.7649097,-0.76319009,0.57774061,-0.28940737,0
0.97160065,-0.74445808,-4.4189973,-0.19913518,-0.63636798,-0.74523884,0
-2.8011439,-1.3252894,3.6204906,-0.61472434,-0.51112777,0.60071826,0
-1.4321756,0.71243131,3.0539408,-0.76319009,0.57774061,-0.28940737,0
0.37067938,-1.2340554,-3.9464087,-0.19913518,-0.63636798,-0.74523884,0
3.0483975,2.9822061,-2.1332252,0.61472434,0.51112777,-0.60071826,0
-1.3954012,-1.2276406,-0.64574218,-0.76319009,0.57774061,-0.28940737,0
-1.5252843,-2.0410597,1.9213831,0.76319009,-0.57774061,0.28940737,0
-2.4953218,-1.7004707,3.7909436,-0.61472434,-0.51112777,0.60071826,0
-1.610857,-3.5890527,-1.2230642,-0.19913518,-0.63636798,-0.74523884,0
-0.70730388,0.90008342,1.3964927,-0.76319009,0.57774061,-0.28940737,0
2.5397713,3.091084,1.379691,0.19913518,0.63636798,0.74523884,0
-2.1235437,-1.1615176,4.4246645,-0.61472434,-0.51112777,0.60071826,0
-3.1581755,-3.8112898,0.84650195,-0.61472434,-0.51112777,0.60071826,0
-0.2139523,-0.88435519,-2.9920874,-0.76319009,0.57774061,-0.28940737,0
1.662961,3.375232,1.1801611,0.19913518,0.63636798,0.74523884,0
2.2550876,3.6938229,0.83911884,0.19913518,0.63636798,0.74523884,0
0.21063852,-1.399193,-3.5752366,-0.19913518,-0.63636798,-0.74523884,0
-0.50605607,-2.6889334,-1.6896172,0.76319009,-0.57774061,0.28940737,0
0.018360615,2.2417974,2.5204773,0.19913518,0.63636798,0.74523884,0
-2.9011447,-2.7123499,0.69111526,-0.76319009,0.57774061,-0.28940737,0
-3.3560312,-2.2565355,2.2518957,-0.76319009,0.57774061,-0.28940737,0
-2.3842528,-0.58067751,4.8029151,-0.61472434,-0.51112777,0.60071826,0
2.1486797,2.4139161,-2.9124198,0.61472434,0.51112777,-0.60071826,0
-3.1256812,-1.8107828,2.8374717,-0.61472434,-0.51112777,0.60071826,0
-2.2457061,-4.1208477,-0.74758708,-0.19913518,-0.63636798,-0.74523884,0
0.033041477,1.3190777,3.6574061,0.19913518,0.63636798,0.74523884,0
1.6857142,2.6727083,1.8504062,0.19913518,0.63636798,0.74523884,0
2.0179415,3.5786016,0.61287111,-0.76319009,0.57774061,-0.28940737,0
-2.0473468,-2.9190128,-1.8900707,-0.19913518,-0.63636798,-0.74523884,0
1.0175323,2.1118963,2.6449661,0.19913518,0.63636798,0.74523884,0
-1.7925889,-3.3183186,-0.5457148,0.76319009,-0.57774061,0.28940737,0
-0.76823378,-0.25376505,-0.49518886,-0.76319009,0.57774061,-0.28940737,0
-1.7299793,0.80992413,4.2824469,0.19913518,0.63636798,0.74523884,0
-1.6479008,-3.6768358,-0.86532551,-0.19913518,-0.63636798,-0.74523884,0
-2.5431967,-0.66388881,4.1946993,-0.61472434,-0.51112777,0.60071826,0
2.3328445,0.46786475,-4.9243221,0.61472434,0.51112777,-0.60071826,0
-0.20737588,-0.96264833,0.18926094,0.76319009,-0.57774061,0.28940737,0
1.1620233,-0.47760916,-4.5119381,-0.19913518,-0.63636798,-0.74523884,0
-1.9132481,-0.16917944,5.2359352,-0.61472434,-0.51112777,0.60071826,0
-2.9994905,-3.8662677,1.0758065,-0.61472434,-0.51112777,0.60071826,0
-0.68102813,-0.79059225,-1.3203125,-0.76319009,0.57774061,-0.28940737,0
0.94322324,0.9486376,1.0033991,0.76319009,-0.57774061,0.28940737,0
2.6969924,1.8711717,-3.2345772,0.61472434,0.51112777,-0.60071826,0
0.12128949,-1.5259809,-3.5705657,-0.19913518,-0.63636798,-0.74523884,0
0.036194205,-1.5355729,-1.0967827,0.76319009,-0.57774061,0.28940737,0
-0.46431869,-0.82731521,1.5761635,0.76319009,-0.57774061,0.28940737,0
2.0589476,1.0504916,-4.5692844,0.61472434,0.51112777,-0.60071826,0
-0.72457707,1.0005692,4.1787343,0.19913518,0.63636798,0.74523884,0
0.21786579,-0.42387533,0.027046725,0.76319009,-0.57774061,0.28940737,0
-3.4768829,-3.321615,0.86197209,-0.61472434,-0.51112777,0.60071826,0
-0.48306847,1.4387472,3.5673683,0.19913518,0.63636798,0.74523884,0
-2.2935863,-0.99826407,4.5500026,-0.61472434,-0.51112777,0.60071826,0
-3.4894686,-4.6162701,0.15771079,-0.61472434,-0.51112777,0.60071826,0
0.50845695,-0.77246404,-4.0438919,-0.19913518,-0.63636798,-0.74523884,0
1.8561281,-0.31821501,-3.7146711,0.76319009,-0.57774061,0.28940737,0
-0.11155128,1.1480553,3.5280759,0.19913518,0.63636798,0.74523884,0
-3.5112109,-3.8706169,0.70175719,-0.61472434,-0.51112777,0.60071826,0
-1.2052231,-3.0924292,-1.7131855,-0.19913518,-0.63636798,-0.74523884,0
3.2598681,3.4181972,-1.1343212,0.61472434,0.51112777,-0.60071826,0
3.25632,4.2347822,-0.72333968,0.61472434,0.51112777,-0.60071826,0
0.87498122,0.2119807,-0.32963699,0.76319009,-0.57774061,0.28940737,0
2.4111648,3.7690301,0.99983799,0.19913518,0.63636798,0.74523884,0
-3.3629873,-3.3304329,1.0637727,-0.61472434,-0.51112777,0.60071826,0
1.462707,0.4753077,-4.7321987,-0.76319009,0.57774061,-0.28940737,0
0.39820123,2.5734122,2.2833009,-0.76319009,0.57774061,-0.28940737,0
3.0758016,3.5184512,1.1271682,0.19913518,0.63636798,0.74523884,0
-0.67249131,-2.4377863,-2.5902643,-0.19913518,-0.63636798,-0.74523884,0
-0.87096941,0.86299646,4.2188048,0.19913518,0.63636798,0.74523884,0
-3.5006533,-3.9865875,0.31501985,-0.61472434,-0.51112777,0.60071826,0
-2.8000972,-2.9695563,2.266603,-0.61472434,-0.51112777,0.60071826,0
-2.200685,-2.2374873,0.018910289,-0.76319009,0.57774061,-0.28940737,0
1.9090552,1.3724194,-3.9427438,-0.76319009,0.57774061,-0.28940737,0
-3.2844639,-3.4320867,1.5330336,-0.61472434,-0.51112777,0.60071826,0
-2.3226259,-2.0295875,3.6603334,-0.61472434,-0.51112777,0.60071826,0
3.3865023,4.3404713,-0.033215046,0.61472434,0.51112777,-0.60071826,0
1.292519,-0.84314013,-4.3609552,-0.19913518,-0.63636798,-0.74523884,0
-2.6242797,-1.6594857,3.0948646,-0.61472434,-0.51112777,0.60071826,0
2.1024649,3.0027709,1.7524967,0.19913518,0.63636798,0.74523884,0
-1.3670292,-1.9615233,0.89481014,0.76319009,-0.57774061,0.28940737,0
1.1814932,1.8208182,-1.220854,-0.76319009,0.57774061,-0.28940737,0
2.1480272,0.79042697,-4.4819245,0.61472434,0.51112777,-0.60071826,0
1.3163035,3.0706651,1.5385985,0.19913518,0.63636798,0.74523884,0
1.6356268,-0.087059379,-5.0444579,-0.19913518,-0.63636798,-0.74523884,0
-3.270725,-3.0042038,1.7580876,-0.61472434,-0.51112777,0.60071826,0
3.6153612,4.1709986,-0.003000021,0.61472434,0.51112777,-0.60071826,0
-1.6332526,-0.40434897,5.5662441,-0.61472434,-0.51112777,0.60071826,0
-1.3166685,-2.2567759,-2.3022332,-0.19913518,-0.63636798,-0.74523884,0
-0.44443202,-2.4337015,-2.3981276,-0.19913518,-0.63636798,-0.74523884,0
-3.0340929,-3.4713769,1.4300283,-0.61472434,-0.51112777,0.60071826,0
-2.8039305,-2.7046261,2.2890203,-0.61472434,-0.51112777,0.60071826,0
0.70885056,-0.15671793,-0.054787219,0.76319009,-0.57774061,0.28940737,0
0.22386575,-1.462863,-3.6288197,-0.19913518,-0.63636798,-0.74523884,0
-2.1142149,-0.42323756,5.2379699,-0.61472434,-0.51112777,0.60071826,0
3.3016911,3.8049116,-0.61411786,0.61472434,0.51112777,-0.60071826,0
1.5541174,1.9107451,0.78566867,0.76319009,-0.57774061,0.28940737,0
-3.0974216,-4.5581312,0.42434764,-0.61472434,-0.51112777,0.60071826,0
2.9320066,4.346796,0.30584204,0.19913518,0.63636798,0.74523884,0
0.55881333,-1.001693,-2.1573362,0.76319009,-0.57774061,0.28940737,0
-1.1439259,0.38159955,4.5637116,0.19913518,0.63636798,0.74523884,0
0.17925078,-0.02386447,1.2526073,0.76319009,-0.57774061,0.28940737,0
3.0160227,3.4238937,-1.3632557,0.61472434,0.51112777,-0.60071826,0
-0.164276,1.5377635,1.721971,-0.76319009,0.57774061,-0.28940737,0
-2.4942942,-1.5135661,1.6210868,-0.76319009,0.57774061,-0.28940737,0
2.8055525,3.606478,-1.3049682,-0.76319009,0.57774061,-0.28940737,0
-3.542027,-3.2972026,0.98391128,-0.61472434,-0.51112777,0.60071826,0
2.2817149,4.065248,0.41900408,0.19913518,0.63636798,0.74523884,0
1.0006611,2.4385905,2.2710218,0.19913518,0.63636798,0.74523884,0
1.3652325,2.3500667,2.4086261,0.76319009,-0.57774061,0.28940737,0
-2.7986593,-3.963264,-0.54091465,-0.19913518,-0.63636798,-0.74523884,0
-2.361979,-1.608845,3.9617944,-0.61472434,-0.51112777,0.60071826,0
-1.144002,0.31602418,4.6046247,0.19913518,0.63636798,0.74523884,0
-2.6746516,-2.5131874,0.1932987,-0.76319009,0.57774061,-0.28940737,0
0.61441332,1.4402947,-0.40338454,-0.76319009,0.57774061,-0.28940737,0
-2.1776826,0.10441351,5.0292649,-0.61472434,-0.51112777,0.60071826,0
2.5525002,1.6949666,-3.4924376,0.61472434,0.51112777,-0.60071826,0
2.3375053,1.1885982,-4.3684778,0.61472434,0.51112777,-0.60071826,0
1.1326249,0.0019312501,-1.5365102,0.76319009,-0.57774061,0.28940737,0
-0.431669,-2.3524368,-2.5503941,-0.19913518,-0.63636798,-0.74523884,0
-3.0705488,-3.8421755,-0.61419332,-0.19913518,-0.63636798,-0.74523884,0
-3.2843218,-3.5755272,1.2986774,-0.61472434,-0.51112777,0.60071826,0
3.5493665,3.1919105,-1.1512766,0.61472434,0.51112777,-0.60071826,0
-1.6220345,-2.6811976,1.1703525,0.76319009,-0.57774061,0.28940737,0
-3.2566557,-3.1573358,1.4539603,-0.61472434,-0.51112777,0.60071826,0
0.73613405,-1.1540408,-3.7227018,-0.19913518,-0.63636798,-0.74523884,0
2.2100935,2.5908301,-2.6346912,-0.76319009,0.57774061,-0.28940737,0
-1.240573,0.4594214,4.8091774,0.19913518,0.63636798,0.74523884,0
-0.34023476,1.7762077,2.5584595,-0.76319009,0.57774061,-0.28940737,0
2.6666677,0.34980106,-4.2287135,0.61472434,0.51112777,-0.60071826,0
-0.041220903,-1.9527539,-3.274344,-0.19913518,-0.63636798,-0.74523884,0
-2.8528786,-2.670754,0.83775914,-0.76319009,0.57774061,-0.28940737,0
-2.4511631,-4.0112982,-0.41665316,-0.19913518,-0.63636798,-0.74523884,0
-0.052241445,-0.58700264,-2.5075614,-0.76319009,0.57774061,-0.28940737,0
-3.1164753,-4.7110167,0.20881176,-0.61472434,-0.51112777,0.60071826,0
-3.2457826,-4.2307854,0.58432603,-0.61472434,-0.51112777,0.60071826,0
-1.2714394,1.343544,4.15517,0.19913518,0.63636798,0.74523884,0
1.5620255,0.051274538,-5.1865625,-0.19913518,-0.63636798,-0.74523884,0
3.5202253,3.2619829,-1.2035928,0.61472434,0.51112777,-0.60071826,0
0.90112972,2.6585996,1.4051883,-0.76319009,0.57774061,-0.28940737,0
-0.86478496,-0.9612956,2.3220654,0.76319009,-0.57774061,0.28940737,0
-0.75387692,0.92601144,4.1876273,0.19913518,0.63636798,0.74523884,0
0.66493869,-1.6910832,-3.328589,0.76319009,-0.57774061,0.28940737,0
-0.71521175,0.94015634,4.1400619,0.19913518,0.63636798,0.74523884,0
3.5894923,3.8978109,-0.46814084,0.61472434,0.51112777,-0.60071826,0
1.6773646,-0.053978086,-2.9129634,0.76319009,-0.57774061,0.28940737,0
-2.7992988,-2.0494487,2.0977619,-0.76319009,0.57774061,-0.28940737,0
1.0982616,2.8068795,1.9097459,0.19913518,0.63636798,0.74523884,0
-1.9649698,-0.46949375,5.2751312,-0.61472434,-0.51112777,0.60071826,0
2.672235,2.864748,-2.5935836,0.61472434,0.51112777,-0.60071826,0
1.8751936,2.3804984,1.2747525,0.76319009,-0.57774061,0.28940737,0
0.93238747,-0.29903966,-1.615447,0.76319009,-0.57774061,0.28940737,0
1.9328952,3.7215464,1.03023,0.19913518,0.63636798,0.74523884,0
-1.2875479,-1.0900373,-0.40052262,-0.76319009,0.57774061,-0.28940737,0
-2.6016798,-0.97411346,4.1175156,-0.61472434,-0.51112777,0.60071826,0
0.13303399,1.9065812,2.99861,0.19913518,0.63636798,0.74523884,0
-0.5808773,0.68017656,1.2154396,-0.76319009,0.57774061,-0.28940737,0
-2.8636637,-1.51008,3.2414176,-0.76319009,0.57774061,-0.28940737,0
3.0916479,2.3719304,-2.1655297,0.61472434,0.51112777,-0.60071826,0
0.12622204,-0.65864468,0.094108671,0.76319009,-0.57774061,0.28940737,0
3.2487197,2.8391147,-1.9369593,0.61472434,0.51112777,-0.60071826,0
-1.7244134,-2.6124024,1.689064,0.76319009,-0.57774061,0.28940737,0
-3.074652,-4.6763215,-0.122033,-0.19913518,-0.63636798,-0.74523884,0
2.6166515,2.3053927,-2.622118,0.61472434,0.51112777,-0.60071826,0
0.73285866,-1.5649788,-3.5271685,-0.19913518,-0.63636798,-0.74523884,0
0.82563972,3.1176634,2.0000758,0.19913518,0.63636798,0.74523884,0
1.7144867,0.55918145,-5.0067635,0.61472434,0.51112777,-0.60071826,0
3.2254729,3.5459733,-0.31487405,0.76319009,-0.57774061,0.28940737,0
2.6586344,4.2133989,-0.040964603,-0.76319009,0.57774061,-0.28940737,0
2.0598602,3.3050952,1.2289548,0.19913518,0.63636798,0.74523884,0
2.3372371,1.6263731,-3.5955472,0.61472434,0.51112777,-0.60071826,0
-1.8502996,-1.8567497,-0.14018285,-0.76319009,0.57774061,-0.28940737,0
-2.7501647,-2.1865392,2.7340369,-0.61472434,-0.51112777,0.60071826,0
2.4937565,0.9616797,-4.0268025,0.61472434,0.51112777,-0.60071826,0
-2.0117481,0.12557578,5.3254976,0.19913518,0.63636798,0.74523884,0
0.83456767,-0.53111064,-4.42838,-0.19913518,-0.63636798,-0.74523884,0
2.545851,1.6865761,-3.2452931,0.61472434,0.51112777,-0.60071826,0
3.4956117,3.9088616,-0.85950398,0.61472434,0.51112777,-0.60071826,0
-2.0798643,-0.74112952,4.8989735,-0.61472434,-0.51112777,0.60071826,0
1.6024714,3.4107273,0.45810091,-0.76319009,0.57774061,-0.28940737,0
-1.4366143,-1.9220779,2.2286661,0.76319009,-0.57774061,0.28940737,0
-0.45284331,-1.5950283,-0.018272519,0.76319009,-0.57774061,0.28940737,0
3.1404185,3.9438298,-1.1367877,0.61472434,0.51112777,-0.60071826,0
2.021981,-0.28060174,-4.8246527,-0.19913518,-0.63636798,-0.74523884,0
2.5166292,0.33286452,-4.9313674,0.61472434,0.51112777,-0.60071826,0
-1.2543385,-2.5714042,-2.0961673,-0.19913518,-0.63636798,-0.74523884,0
1.8521116,-0.048986554,-5.153254,-0.19913518,-0.63636798,-0.74523884,0
2.1313429,3.7576904,1.1105958,0.19913518,0.63636798,0.74523884,0
1.4634252,-0.21088982,-5.1231794,-0.19913518,-0.63636798,-0.74523884,0
-2.2391686,-3.4927573,0.11169267,0.76319009,-0.57774061,0.28940737,0
2.9169459,3.0305302,-1.9573647,0.61472434,0.51112777,-0.60071826,0
1.8762968,0.97754312,-4.6409788,0.61472434,0.51112777,-0.60071826,0
-1.0243824,-1.8275254,-2.795738,-0.19913518,-0.63636798,-0.74523884,0
3.0239813,3.7070251,-0.92177975,0.61472434,0.51112777,-0.60071826,0
1.6184036,-0.71453166,-4.6102901,-0.19913518,-0.63636798,-0.74523884,0
3.0720754,3.6086273,-0.98102319,0.61472434,0.51112777,-0.60071826,0
3.051882,3.7231545,0.74429035,0.19913518,0.63636798,0.74523884,0
-2.5749433,-1.2921158,3.7478957,-0.61472434,-0.51112777,0.60071826,0
2.1222134,2.6079502,1.2566789,0.76319009,-0.57774061,0.28940737,0
-0.6735599,-2.7540159,-1.7807837,0.76319009,-0.57774061,0.28940737,0
3.4175375,3.8963864,-0.58356667,0.61472434,0.51112777,-0.60071826,0
-2.4987173,-0.82318234,3.9735198,-0.61472434,-0.51112777,0.60071826,0
-2.3168082,-3.6590986,-1.1492674,-0.19913518,-0.63636798,-0.74523884,0
1.7099611,0.10950494,-5.0191717,-0.19913518,-0.63636798,-0.74523884,0
0.13660908,1.5536385,3.4510195,0.19913518,0.63636798,0.74523884,0
-1.1722209,0.56337309,4.7091069,0.19913518,0.63636798,0.74523884,0
-1.0577739,-1.8009602,0.24758089,0.76319009,-0.57774061,0.28940737,0
-0.11653686,1.4238675,3.3702514,0.19913518,0.63636798,0.74523884,0
-0.46725488,-2.2934167,-1.0592828,0.76319009,-0.57774061,0.28940737,0
-0.83400536,-2.4172218,-2.3510327,-0.19913518,-0.63636798,-0.74523884,0
-2.6724868,-3.5310836,1.9999641,-0.61472434,-0.51112777,0.60071826,0
2.0656383,3.6695907,0.77617037,0.19913518,0.63636798,0.74523884,0
-1.2084303,-2.6807775,-1.9476165,-0.19913518,-0.63636798,-0.74523884,0
1.2098527,3.1188014,1.4639404,-0.76319009,0.57774061,-0.28940737,0
-0.3228147,1.561542,3.6896307,0.19913518,0.63636798,0.74523884,0
-3.2629666,-3.99791,-0.23245907,-0.19913518,-0.63636798,-0.74523884,0
-1.2042003,-2.1723809,0.7267763,0.76319009,-0.57774061,0.28940737,0
3.0020704,4.079823,0.54101467,0.19913518,0.63636798,0.74523884,0
-1.9603875,-2.9486392,-1.7870066,-0.19913518,-0.63636798,-0.74523884,0
0.69494504,0.40629756,0.60083634,0.76319009,-0.57774061,0.28940737,0
2.0562425,1.7531083,-3.2117019,-0.76319009,0.57774061,-0.28940737,0
-0.088730097,-1.0460566,-3.6183097,-0.19913518,-0.63636798,-0.74523884,0
1.8177183,3.6416476,0.50723237,-0.76319009,0.57774061,-0.28940737,0
-2.7297814,-2.0385675,3.0273499,-0.61472434,-0.51112777,0.60071826,0
-2.7025321,-2.2747102,2.9905777,-0.61472434,-0.51112777,0.60071826,0
2.230217,4.0521641,0.40038073,0.19913518,0.63636798,0.74523884,0
2.5124252,2.8361399,0.5001871,0.76319009,-0.57774061,0.28940737,0
-1.7583487,-0.091324091,5.1182523,0.19913518,0.63636798,0.74523884,0
2.7397883,3.1661644,1.05828,0.19913518,0.63636798,0.74523884,0
2.2250073,1.1636951,-4.230794,0.61472434,0.51112777,-0.60071826,0
1.4510241,1.7891037,1.0017574,0.76319009,-0.57774061,0.28940737,0
1.1955955,-0.314991,-4.7722344,-0.19913518,-0.63636798,-0.74523884,0
-2.6839843,-3.4405594,1.834198,0.76319009,-0.57774061,0.28940737,0
-2.6879866,-4.1927023,-0.50438213,-0.19913518,-0.63636798,-0.74523884,0
1.830467,-0.36123347,-3.2547953,0.76319009,-0.57774061,0.28940737,0
-1.1103038,0.96604836,2.8063705,-0.76319009,0.57774061,-0.28940737,0
0.65876126,2.6526077,2.066715,0.19913518,0.63636798,0.74523884,0
-2.4816251,-0.13384795,4.7661524,-0.76319009,0.57774061,-0.28940737,0
-3.1709595,-2.3212397,2.1366761,-0.61472434,-0.51112777,0.60071826,0
-3.1512103,-4.218925,0.70005322,-0.61472434,-0.51112777,0.60071826,0
0.14791775,-1.6365891,-3.4320593,-0.19913518,-0.63636798,-0.74523884,0
3.1553042,4.0963736,0.25174606,0.19913518,0.63636798,0.74523884,0
-2.7118514,-2.4534683,2.7814565,-0.61472434,-0.51112777,0.60071826,0
0.84481204,0.094615817,-4.021286,-0.76319009,0.57774061,-0.28940737,0
-1.7073241,0.039223671,4.9380522,0.19913518,0.63636798,0.74523884,0
-1.0694866,-2.3813937,-2.6085322,-0.19913518,-0.63636798,-0.74523884,0
2.0781827,3.4067392,1.0941029,0.19913518,0.63636798,0.74523884,0
2.6852775,3.0212483,1.1931639,0.19913518,0.63636798,0.74523884,0
-2.9302347,-1.5876396,3.0842824,-0.61472434,-0.51112777,0.60071826,0
-2.683147,-1.1248317,3.8326225,-0.61472434,-0.51112777,0.60071826,0
1.2181289,-0.50591731,-4.6574359,-0.19913518,-0.63636798,-0.74523884,0
-2.1463213,-3.2776582,-1.3502703,-0.19913518,-0.63636798,-0.74523884,0
2.7032795,3.7602491,-1.2944407,0.61472434,0.51112777,-0.60071826,0
0.38140833,1.9112551,0.74177319,-0.76319009,0.57774061,-0.28940737,0
3.1395907,2.5872462,-1.7482033,0.61472434,0.51112777,-0.60071826,0
-0.89283609,-2.5222216,-2.3014786,-0.19913518,-0.63636798,-0.74523884,0
3.1833539,4.6782813,-0.29909229,0.19913518,0.63636798,0.74523884,0
-2.4505463,-0.91117656,2.2400177,-0.76319009,0.57774061,-0.28940737,0
2.0427463,0.23056304,-5.368885,0.61472434,0.51112777,-0.60071826,0
-1.0457132,0.30804467,4.6671376,0.76319009,-0.57774061,0.28940737,0
-0.88948846,-2.2753997,-0.75959551,0.76319009,-0.57774061,0.28940737,0
0.9060353,-1.314952,-3.8698223,-0.19913518,-0.63636798,-0.74523884,0
1.415066,1.3742572,-2.3679712,-0.76319009,0.57774061,-0.28940737,0
-1.6739987,-0.58792579,4.947566,-0.61472434,-0.51112777,0.60071826,0
-3.0331588,-2.008081,2.7655969,-0.76319009,0.57774061,-0.28940737,0
2.5057924,3.7680783,-1.4111967,-0.76319009,0.57774061,-0.28940737,0
2.1436088,1.7495798,-3.9137959,0.61472434,0.51112777,-0.60071826,0
-1.8426955,-3.6330831,-1.3272573,-0.19913518,-0.63636798,-0.74523884,0
-1.8977125,-2.0083528,3.1445045,0.76319009,-0.57774061,0.28940737,0
2.0527208,0.26380527,-5.103498,0.61472434,0.51112777,-0.60071826,0
3.3531799,3.5976148,-1.1460423,0.61472434,0.51112777,-0.60071826,0
-0.096831396,-0.29705584,0.93410289,0.76319009,-0.57774061,0.28940737,0
-0.85591698,-2.0253026,-2.998636,-0.19913518,-0.63636798,-0.74523884,0
2.0252538,0.45397675,-4.8292274,0.61472434,0.51112777,-0.60071826,0
-1.5903958,0.82484138,4.3448052,0.19913518,0.63636798,0.74523884,0
0.026581466,1.3604362,0.31776327,-0.76319009,0.57774061,-0.28940737,0
0.99026728,1.7007558,2.0583501,0.76319009,-0.57774061,0.28940737,0
3.6458099,4.0605164,0.51396668,0.19913518,0.63636798,0.74523884,0
2.0848646,0.79390144,-4.7381005,0.61472434,0.51112777,-0.60071826,0
-0.47115254,-1.5605958,-3.3702328,-0.19913518,-0.63636798,-0.74523884,0
-0.40482974,-2.1902676,-2.8332481,-0.19913518,-0.63636798,-0.74523884,0
0.32949018,-0.11307836,-2.6599014,-0.76319009,0.57774061,-0.28940737,0
1.5430498,3.1948583,0.093910813,-0.76319009,0.57774061,-0.28940737,0
1.2203474,1.5736743,1.7259492,0.76319009,-0.57774061,0.28940737,0
3.2825246,3.7383895,-0.70344687,0.61472434,0.51112777,-0.60071826,0
2.0305884,3.7886682,0.82101452,-0.76319009,0.57774061,-0.28940737,0
3.547555,4.4266787,0.01804781,0.19913518,0.63636798,0.74523884,0
1.4616735,-0.45012236,-2.669286,0.76319009,-0.57774061,0.28940737,0
-3.5270801,-3.2462587,0.47532296,-0.76319009,0.57774061,-0.28940737,0
1.22177,-0.50253868,-2.8722773,0.76319009,-0.57774061,0.28940737,0
0.61663508,-1.692209,-3.238662,-0.19913518,-0.63636798,-0.74523884,0
-2.7416737,-3.2076869,1.7818843,-0.61472434,-0.51112777,0.60071826,0
0.12791646,1.2127445,0.19687912,-0.76319009,0.57774061,-0.28940737,0
2.9780493,4.2330079,-0.66927958,0.61472434,0.51112777,-0.60071826,0
-1.5686749,-0.62525827,4.3907757,0.76319009,-0.57774061,0.28940737,0
-2.6721258,-2.3805904,1.0675061,-0.76319009,0.57774061,-0.28940737,0
3.4687805,3.405746,-1.2919021,0.61472434,0.51112777,-0.60071826,0
-2.0216539,-1.1087668,0.99933469,-0.76319009,0.57774061,-0.28940737,0
1.9350848,2.9625986,1.6777442,0.19913518,0.63636798,0.74523884,0
-0.99035716,0.62066567,4.29076,0.19913518,0.63636798,0.74523884,0
2.9406397,4.1254272,-0.68737781,0.61472434,0.51112777,-0.60071826,0
-0.69307518,1.5760858,3.4300203,-0.76319009,0.57774061,-0.28940737,0
-0.70815992,-2.9714518,-1.7862017,-0.19913518,-0.63636798,-0.74523884,0
3.254425,3.8158987,-1.1177406,0.61472434,0.51112777,-0.60071826,0
2.9221709,3.3005342,-2.0018258,0.61472434,0.51112777,-0.60071826,0
-1.8611684,0.62286961,4.6846471,0.19913518,0.63636798,0.74523884,0
-2.9790845,-3.0163977,2.1128054,-0.61472434,-0.51112777,0.60071826,0
-2.6333098,-4.0128045,-0.34846067,-0.19913518,-0.63636798,-0.74523884,0
-3.0395598,-1.9993807,2.4360838,-0.61472434,-0.51112777,0.60071826,0
-3.1994708,-2.3300526,2.3938494,-0.61472434,-0.51112777,0.60071826,0
0.39942241,1.7198579,3.1786637,0.19913518,0.63636798,0.74523884,0
-0.25722241,1.5017197,3.5477686,0.19913518,0.63636798,0.74523884,0
0.80947304,2.914433,1.4605118,-0.76319009,0.57774061,-0.28940737,0
2.8097091,0.36301565,-4.5924149,0.61472434,0.51112777,-0.60071826,0
2.1635978,0.60222661,-4.9467883,0.61472434,0.51112777,-0.60071826,0
-0.2974937,1.1632725,3.6954885,0.19913518,0.63636798,0.74523884,0
1.0869391,-0.94846141,-4.3118067,-0.19913518,-0.63636798,-0.74523884,0
-1.4833764,-2.3080962,0.79841048,0.76319009,-0.57774061,0.28940737,0
-2.5801029,-3.5243497,-1.1124076,-0.19913518,-0.63636798,-0.74523884,0
-2.4391983,-3.7556608,1.0976107,0.76319009,-0.57774061,0.28940737,0
2.0608747,3.8162718,1.0423456,0.19913518,0.63636798,0.74523884,0
3.3931658,3.921555,-0.74945998,0.61472434,0.51112777,-0.60071826,0
-1.9855002,-1.4162982,0.083355427,-0.76319009,0.57774061,-0.28940737,0
0.78778923,-1.1406858,-2.5229836,0.76319009,-0.57774061,0.28940737,0
3.0280461,3.5592189,-1.2165203,0.61472434,0.51112777,-0.60071826,0
2.8839102,3.4044542,-1.3705164,0.61472434,0.51112777,-0.60071826,0
1.7294257,0.27136075,-5.2335114,0.61472434,0.51112777,-0.60071826,0
-2.898309,-3.8051705,1.0575656,-0.61472434,-0.51112777,0.60071826,0
-2.7353864,-3.2131081,2.103292,-0.61472434,-0.51112777,0.60071826,0
-0.59058857,-2.320827,-2.8043489,-0.19913518,-0.63636798,-0.74523884,0
-2.2356906,-3.191555,1.0096641,0.76319009,-0.57774061,0.28940737,0
-0.48704982,-2.1466117,-2.9535348,-0.19913518,-0.63636798,-0.74523884,0
2.5085547,1.5725304,-3.3723111,0.61472434,0.51112777,-0.60071826,0
1.4186424,2.1965575,-1.4064105,-0.76319009,0.57774061,-0.28940737,0
-1.1223034,0.35447562,4.8894262,0.19913518,0.63636798,0.74523884,0
-3.2115676,-4.5299854,0.59074497,-0.61472434,-0.51112777,0.60071826,0
1.0540624,2.5697074,0.140313,-0.76319009,0.57774061,-0.28940737,0
3.5740995,3.5839911,-1.0405991,0.61472434,0.51112777,-0.60071826,0
-2.9369326,-2.8704162,1.9968371,-0.61472434,-0.51112777,0.60071826,0
-0.16763091,1.2504122,3.6801121,0.19913518,0.63636798,0.74523884,0
-2.457581,-3.5404577,1.5690209,0.76319009,-0.57774061,0.28940737,0
1.6404431,2.1508951,-1.613505,-0.76319009,0.57774061,-0.28940737,0
-1.9148993,-2.479073,1.4605796,0.76319009,-0.57774061,0.28940737,0
3.7242017,4.2710719,-0.19866538,0.61472434,0.51112777,-0.60071826,0
-0.63415384,1.7490084,3.4451034,-0.76319009,0.57774061,-0.28940737,0
3.6643245,4.1769953,-0.27769446,0.61472434,0.51112777,-0.60071826,0
-2.7192469,-4.3198314,-0.29141068,-0.19913518,-0.63636798,-0.74523884,0
-0.80954057,-1.2022827,1.3587406,0.76319009,-0.57774061,0.28940737,0
-0.6157074,-1.8121777,-2.9922576,-0.19913518,-0.63636798,-0.74523884,0
-2.4436893,-0.22568119,4.6259871,-0.61472434,-0.51112777,0.60071826,0
3.2933733,3.3242197,-1.1384572,0.61472434,0.51112777,-0.60071826,0
-1.1519446,1.2687761,4.0690055,0.19913518,0.63636798,0.74523884,0
-1.7922944,-0.53746295,5.3133497,-0.61472434,-0.51112777,0.60071826,0
1.4078243,2.687654,2.1432388,0.19913518,0.63636798,0.74523884,0
-1.9260714,0.19874477,4.8985171,0.19913518,0.63636798,0.74523884,0
0.19318417,-0.59821719,0.70216322,0.76319009,-0.57774061,0.28940737,0
3.4045675,3.6691508,-0.79546309,0.61472434,0.51112777,-0.60071826,0
-2.5887947,-1.2099514,4.0738735,-0.61472434,-0.51112777,0.60071826,0
-2.2417674,-0.77634573,4.5161099,-0.61472434,-0.51112777,0.60071826,0
-3.1246288,-4.4908752,0.44330275,-0.61472434,-0.51112777,0.60071826,0
-3.6018667,-4.4561329,-0.060071707,-0.19913518,-0.63636798,-0.74523884,0
-2.7725592,-0.76754463,3.9940102,-0.61472434,-0.51112777,0.60071826,0
1.3463888,2.2876434,-0.6793561,-0.76319009,0.57774061,-0.28940737,0
3.3185942,4.5551734,-0.46999586,0.61472434,0.51112777,-0.60071826,0
2.3718703,4.1947088,0.72884244,0.19913518,0.63636798,0.74523884,0
1.2682675,-0.70658278,-4.489975,-0.19913518,-0.63636798,-0.74523884,0
2.0235476,2.9659514,1.4746437,0.19913518,0.63636798,0.74523884,0
-2.2770214,-4.1358175,-0.32316095,-0.19913518,-0.63636798,-0.74523884,0
1.2286642,2.4655852,0.5530178,-0.76319009,0.57774061,-0.28940737,0
3.2068565,3.0798662,-0.9045763,0.76319009,-0.57774061,0.28940737,0
1.9898232,-0.14697301,-3.8748329,0.76319009,-0.57774061,0.28940737,0
-2.342504,-0.22603238,5.0066519,-0.61472434,-0.51112777,0.60071826,0
-2.6907153,-0.65804291,4.3905621,-0.61472434,-0.51112777,0.60071826,0
-1.6306841,-2.8550494,-1.6962212,-0.19913518,-0.63636798,-0.74523884,0
0.00051593781,-1.5600955,-1.6671773,0.76319009,-0.57774061,0.28940737,0
1.1312444,1.075796,0.50357586,0.76319009,-0.57774061,0.28940737,0
2.3210924,2.0576813,-3.0427623,0.61472434,0.51112777,-0.60071826,0
-1.4419166,-1.4285076,2.4947727,0.76319009,-0.57774061,0.28940737,0
1.6858062,-0.61077249,-4.3223848,0.76319009,-0.57774061,0.28940737,0
2.4482594,3.4914987,-1.5021421,-0.76319009,0.57774061,-0.28940737,0
-2.6617508,-2.7972181,2.1692023,-0.61472434,-0.51112777,0.60071826,0
3.3353565,3.7768326,-1.1971543,0.61472434,0.51112777,-0.60071826,0
-0.175071,-1.7476237,-0.73292291,0.76319009,-0.57774061,0.28940737,0
3.5538466,3.2710857,-1.3842633,0.61472434,0.51112777,-0.60071826,0
-3.5594752,-3.9387918,0.47333384,-0.61472434,-0.51112777,0.60071826,0
-3.1552386,-2.6084599,1.7942597,-0.61472434,-0.51112777,0.60071826,0
-1.7719402,-2.0682168,2.3901763,0.76319009,-0.57774061,0.28940737,0
0.795533,-0.36494076,-1.7759607,0.76319009,-0.57774061,0.28940737,0
2.4729054,3.5929301,0.85032129,0.19913518,0.63636798,0.74523884,0
1.6194336,2.4162874,1.9678707,0.19913518,0.63636798,0.74523884,0
2.684433,2.3804545,-2.4943955,0.61472434,0.51112777,-0.60071826,0
0.35564053,1.5352782,-0.13238738,-0.76319009,0.57774061,-0.28940737,0
-2.9421325,-3.8909998,0.87220347,-0.61472434,-0.51112777,0.60071826,0
3.688822,4.4170437,-0.18061447,0.61472434,0.51112777,-0.60071826,0
0.85311693,1.5771744,-1.0273466,-0.76319009,0.57774061,-0.28940737,0
2.2929187,3.2052524,1.3500217,0.19913518,0.63636798,0.74523884,0
-3.1760831,-3.1474686,0.23184538,-0.76319009,0.57774061,-0.28940737,0
-2.344718,-3.8712568,0.77029407,0.76319009,-0.57774061,0.28940737,0
-3.1471639,-2.0934308,2.2357724,-0.61472434,-0.51112777,0.60071826,0
-0.40559733,0.23067653,2.6139896,0.76319009,-0.57774061,0.28940737,0
-0.43616533,-2.4199951,-2.5554445,-0.19913518,-0.63636798,-0.74523884,0
1.6307845,3.6785605,1.1630595,0.19913518,0.63636798,0.74523884,0
-1.794004,-0.17203307,5.2043295,0.19913518,0.63636798,0.74523884,0
-0.61381912,-0.62487066,-1.1159251,-0.76319009,0.57774061,-0.28940737,0
2.8762822,2.3196948,-2.7464333,0.61472434,0.51112777,-0.60071826,0
1.672462,2.547754,2.1659691,0.19913518,0.63636798,0.74523884,0
-3.7249072,-3.5692954,0.73915148,-0.61472434,-0.51112777,0.60071826,0
-2.1201301,-3.8510809,-0.65002632,-0.19913518,-0.63636798,-0.74523884,0
-2.7899752,-3.8962231,-0.65943271,-0.19913518,-0.63636798,-0.74523884,0
-2.7169399,-1.5266336,3.4788764,-0.61472434,-0.51112777,0.60071826,0
-0.20519483,-0.3269009,1.8682206,0.76319009,-0.57774061,0.28940737,0
2.1221859,2.7823558,1.8897817,0.19913518,0.63636798,0.74523884,0
-2.0450969,-0.37661576,5.1572523,-0.61472434,-0.51112777,0.60071826,0
2.3859172,3.8249025,0.86995721,0.19913518,0.63636798,0.74523884,0
1.5682919,2.3921554,2.2560005,0.19913518,0.63636798,0.74523884,0
-0.26702881,1.2400583,1.4049314,-0.76319009,0.57774061,-0.28940737,0
-2.831671,-2.5676713,1.197516,-0.76319009,0.57774061,-0.28940737,0
3.1980355,4.3988199,0.15850961,0.19913518,0.63636798,0.74523884,0
-0.2782813,-1.1861639,0.64500475,0.76319009,-0.57774061,0.28940737,0
-3.2927995,-3.8362207,-0.52330422,-0.19913518,-0.63636798,-0.74523884,0
2.651782,3.2524095,-2.0137768,0.61472434,0.51112777,-0.60071826,0
-1.1577886,0.74924099,4.4851341,0.19913518,0.63636798,0.74523884,0
-3.105617,-3.6651073,0.90649831,-0.61472434,-0.51112777,0.60071826,0
2.0773787,0.21187425,-5.1011596,0.61472434,0.51112777,-0.60071826,0
0.35664988,1.8161916,2.7836111,0.19913518,0.63636798,0.74523884,0
-1.3454309,-0.38039649,1.0647415,-0.76319009,0.57774061,-0.28940737,0
0.69572377,1.7180777,3.0433445,0.19913518,0.63636798,0.74523884,0
0.73376584,2.6834576,2.3532333,0.19913518,0.63636798,0.74523884,0
0.23867452,-0.080881894,-2.5341668,-0.76319009,0.57774061,-0.28940737,0
2.9469857,2.6885254,-2.163116,0.61472434,0.51112777,-0.60071826,0
1.4073172,-0.35331631,-4.8602571,-0.19913518,-0.63636798,-0.74523884,0
-2.9406805,-4.0946264,-0.65873027,-0.19913518,-0.63636798,-0.74523884,0
-0.07708621,1.6805102,3.4524205,0.19913518,0.63636798,0.74523884,0
-0.43678665,-2.3791811,-2.611093,-0.19913518,-0.63636798,-0.74523884,0
0.45675921,1.895242,2.9839818,0.19913518,0.63636798,0.74523884,0
-1.8055413,-1.5900623,3.9070988,0.76319009,-0.57774061,0.28940737,0
2.5695546,2.6152105,-2.3754158,0.61472434,0.51112777,-0.60071826,0
3.2144587,4.1849408,-0.41675675,0.61472434,0.51112777,-0.60071826,0
3.5526185,3.4024067,-0.46454787,0.76319009,-0.57774061,0.28940737,0
2.2266331,1.0575505,-2.6340325,0.76319009,-0.57774061,0.28940737,0
1.9566586,0.50222886,-5.3686113,0.61472434,0.51112777,-0.60071826,0
0.59289098,1.516728,3.004739,0.76319009,-0.57774061,0.28940737,0
1.588737,-0.78385115,-4.3546219,-0.19913518,-0.63636798,-0.74523884,0
-2.745358,-1.1254923,4.0254817,-0.61472434,-0.51112777,0.60071826,0
1.1759443,0.46666673,-1.0156199,0.76319009,-0.57774061,0.28940737,0
-2.4697917,-2.4263439,2.9010496,-0.61472434,-0.51112777,0.60071826,0
0.96836972,0.66183919,1.1293957,0.76319009,-0.57774061,0.28940737,0
1.0495077,-0.39947641,-2.4220023,0.76319009,-0.57774061,0.28940737,0
-3.0557444,-2.7559748,2.3451722,-0.61472434,-0.51112777,0.60071826,0
-0.70678496,-1.3443389,-2.3693881,-0.76319009,0.57774061,-0.28940737,0
-1.6242619,0.70044661,4.7268276,0.19913518,0.63636798,0.74523884,0
2.8159189,3.8749316,-1.11025,0.61472434,0.51112777,-0.60071826,0
2.4580188,0.23830688,-4.4608335,0.61472434,0.51112777,-0.60071826,0
3.160605,3.5931053,-1.2687967,0.61472434,0.51112777,-0.60071826,0
-0.026049376,1.2916561,1.5219867,-0.76319009,0.57774061,-0.28940737,0
-0.67909813,-0.83202958,1.8654654,0.76319009,-0.57774061,0.28940737,0
-1.0760171,-0.15748441,3.9566917,0.76319009,-0.57774061,0.28940737,0
2.6819582,3.5136766,-1.8526584,0.61472434,0.51112777,-0.60071826,0
2.3448102,3.709579,0.64674413,0.19913518,0.63636798,0.74523884,0
2.4523644,1.5722063,-3.4521189,0.61472434,0.51112777,-0.60071826,0
-0.44288182,-1.160983,-2.3669965,-0.76319009,0.57774061,-0.28940737,0
-2.5038168,-2.3675704,-0.48967028,-0.76319009,0.57774061,-0.28940737,0
2.6589611,3.8839159,0.92874664,0.19913518,0.63636798,0.74523884,0
-3.4909222,-3.9912462,-0.3601799,-0.19913518,-0.63636798,-0.74523884,0
1.7185688,2.5875046,1.8516704,0.19913518,0.63636798,0.74523884,0
-1.2393379,-2.0035636,-2.5591269,-0.76319009,0.57774061,-0.28940737,0
-2.3333907,-4.0165591,-0.87560713,-0.19913518,-0.63636798,-0.74523884,0
1.5463225,1.664101,0.64817101,0.76319009,-0.57774061,0.28940737,0
-3.1896484,-4.1200814,0.53536677,-0.61472434,-0.51112777,0.60071826,0
-0.23069811,-2.6343248,-2.5323439,-0.19913518,-0.63636798,-0.74523884,0
-0.14823222,1.0379151,3.6572311,0.19913518,0.63636798,0.74523884,0
-0.65389562,-1.5990385,-3.0975564,-0.19913518,-0.63636798,-0.74523884,0
-2.9769292,-2.4262633,2.407402,-0.61472434,-0.51112777,0.60071826,0
-1.6897714,-2.1697531,-2.0777802,-0.76319009,0.57774061,-0.28940737,0
-2.3572321,-1.472548,3.7439723,-0.61472434,-0.51112777,0.60071826,0
0.61042857,2.3600445,2.6541936,0.19913518,0.63636798,0.74523884,0
-2.3516493,-1.5946869,1.8492358,-0.76319009,0.57774061,-0.28940737,0
2.2054753,1.0046582,-1.6856107,0.76319009,-0.57774061,0.28940737,0
0.15848231,-1.7005849,-3.2886424,-0.19913518,-0.63636798,-0.74523884,0
-3.7897203,-4.2218633,0.26012897,-0.61472434,-0.51112777,0.60071826,0
0.066840887,-1.7911106,-3.0421591,-0.19913518,-0.63636798,-0.74523884,0
0.32574463,1.6891878,3.2611217,0.19913518,0.63636798,0.74523884,0
2.649229,0.94169855,-4.0565758,0.61472434,0.51112777,-0.60071826,0
2.376776,2.4381599,-3.3058078,0.61472434,0.51112777,-0.60071826,0
3.314312,2.569066,-1.9750671,0.61472434,0.51112777,-0.60071826,0
-2.5619531,-3.4520762,-0.92280108,-0.19913518,-0.63636798,-0.74523884,0
0.76621675,-1.0178227,-4.053822,-0.19913518,-0.63636798,-0.74523884,0
2.3970273,0.80908102,-2.3097258,0.76319009,-0.57774061,0.28940737,0
-1.6578004,-0.30734789,5.2539692,-0.61472434,-0.51112777,0.60071826,0
3.2780838,4.2059031,-0.76813638,0.61472434,0.51112777,-0.60071826,0
2.8247552,3.6756411,-1.5332078,0.61472434,0.51112777,-0.60071826,0
-1.9534986,-1.3938017,0.19677699,-0.76319009,0.57774061,-0.28940737,0
3.3432286,3.5403976,0.27625072,0.76319009,-0.57774061,0.28940737,0
3.7822893,4.3741789,0.050935507,0.61472434,0.51112777,-0.60071826,0
0.50192237,-1.4771984,-3.4455965,-0.19913518,-0.63636798,-0.74523884,0
0.3567785,2.0548518,1.2004611,-0.76319009,0.57774061,-0.28940737,0
0.60385728,-0.94966066,-3.8027959,-0.19913518,-0.63636798,-0.74523884,0
1.5927465,-0.010818005,-4.9732146,-0.19913518,-0.63636798,-0.74523884,0
1.3021467,0.74735671,-0.22037524,0.76319009,-0.57774061,0.28940737,0
2.9507945,1.8935186,-1.950582,0.76319009,-0.57774061,0.28940737,0
-3.0819383,-3.6366508,1.1069244,-0.61472434,-0.51112777,0.60071826,0
-2.5288222,-2.5646386,0.23331368,-0.76319009,0.57774061,-0.28940737,0
-2.0931609,-1.0729136,4.6531534,-0.61472434,-0.51112777,0.60071826,0
-2.7358708,-2.3632026,2.9364071,-0.61472434,-0.51112777,0.60071826,0
-0.60776973,-1.5647929,-3.0279899,-0.19913518,-0.63636798,-0.74523884,0
-3.2967982,-3.5859015,-0.67876613,-0.76319009,0.57774061,-0.28940737,0
1.8379719,2.4925351,-1.7631265,-0.76319009,0.57774061,-0.28940737,0
2.1109674,3.9831171,0.96944308,0.19913518,0.63636798,0.74523884,0
0.64984488,0.88378102,-1.4539073,-0.76319009,0.57774061,-0.28940737,0
-3.521693,-3.8140717,0.49669838,-0.61472434,-0.51112777,0.60071826,0
0.28939033,-1.265237,-3.9582365,-0.19913518,-0.63636798,-0.74523884,0
-3.2096136,-2.6881003,1.8336797,-0.61472434,-0.51112777,0.60071826,0
2.0613523,2.8365698,-1.6214433,-0.76319009,0.57774061,-0.28940737,0
0.72645211,2.1012018,2.764452,0.19913518,0.63636798,0.74523884,0
-3.4819887,-4.3389754,-0.30026817,-0.19913518,-0.63636798,-0.74523884,0
-3.0487185,-3.9693789,0.83598161,-0.61472434,-0.51112777,0.60071826,0
-1.7170365,-2.6148477,-1.7675118,-0.76319009,0.57774061,-0.28940737,0
2.950268,4.0200467,0.22230601,0.19913518,0.63636798,0.74523884,0
2.4917336,0.55793607,-4.1219258,0.76319009,-0.57774061,0.28940737,0
3.5203536,4.0093479,0.25279629,0.19913518,0.63636798,0.74523884,0
-2.307375,-2.2139661,3.1364839,-0.61472434,-0.51112777,0.60071826,0
3.581872,4.4579449,-0.10837698,0.61472434,0.51112777,-0.60071826,0
-1.0897866,-1.7421693,1.1448591,0.76319009,-0.57774061,0.28940737,0
-2.8012419,-1.9448757,3.0214548,-0.61472434,-0.51112777,0.60071826,0
-1.1884577,-1.3745817,1.6040865,0.76319009,-0.57774061,0.28940737,0
-1.206887,-1.5788759,-2.0519097,-0.76319009,0.57774061,-0.28940737,0
-0.50097227,1.2965175,3.6264868,0.19913518,0.63636798,0.74523884,0
2.394558,1.3785377,-4.0723848,0.61472434,0.51112777,-0.60071826,0
-1.6890185,-3.0806015,-0.48315766,0.76319009,-0.57774061,0.28940737,0
-3.1035395,-3.8446128,0.87628651,-0.61472434,-0.51112777,0.60071826,0
-0.11819363,-1.0901709,-3.6399748,-0.19913518,-0.63636798,-0.74523884,0
-0.9424665,1.0509402,3.8421707,0.19913518,0.63636798,0.74523884,0
3.1124029,2.327327,-2.2275565,0.61472434,0.51112777,-0.60071826,0
-3.7181427,-3.9672503,0.39067698,-0.61472434,-0.51112777,0.60071826,0
-0.85771692,0.80346203,4.0997972,0.19913518,0.63636798,0.74523884,0
1.7078011,1.595479,0.53761375,0.76319009,-0.57774061,0.28940737,0
3.1380031,3.8211417,-1.1258532,0.61472434,0.51112777,-0.60071826,0
-3.2403946,-2.9759586,1.0849075,-0.76319009,0.57774061,-0.28940737,0
2.1544576,2.8163853,-1.9505093,-0.76319009,0.57774061,-0.28940737,0
-0.3006382,-1.7455741,-2.932472,-0.19913518,-0.63636798,-0.74523884,0
2.385442,1.1159732,-4.3229647,0.61472434,0.51112777,-0.60071826,0
-3.7837539,-4.0513258,-0.016826868,-0.19913518,-0.63636798,-0.74523884,0
1.1772516,-0.80000114,-4.4969912,-0.19913518,-0.63636798,-0.74523884,0
1.8971716,-0.024461508,-3.5144882,0.76319009,-0.57774061,0.28940737,0
-2.383656,-1.5674349,4.0157232,-0.61472434,-0.51112777,0.60071826,0
1.1577308,-0.47891903,-4.5842338,-0.19913518,-0.63636798,-0.74523884,0
-2.3590102,-1.6870677,3.8837206,-0.61472434,-0.51112777,0.60071826,0
1.2232287,2.4661496,0.65793407,-0.76319009,0.57774061,-0.28940737,0
-3.5906277,-3.5481739,0.77678084,-0.76319009,0.57774061,-0.28940737,0
-2.4464669,-1.614031,3.8789263,-0.61472434,-0.51112777,0.60071826,0
-1.0754713,-2.3591373,-0.4679082,0.76319009,-0.57774061,0.28940737,0
0.38878536,1.7294044,3.2726653,0.19913518,0.63636798,0.74523884,0
-2.7594676,-1.2617822,3.2609873,-0.61472434,-0.51112777,0.60071826,0
0.97434402,-0.51715815,-4.3776107,-0.19913518,-0.63636798,-0.74523884,0
0.86833847,-1.5697415,-3.4694426,-0.19913518,-0.63636798,-0.74523884,0
-1.8491057,-2.1165652,3.0485096,0.76319009,-0.57774061,0.28940737,0
-2.1453822,-1.8031635,3.5481958,-0.61472434,-0.51112777,0.60071826,0
-1.814522,-3.790046,-0.71362269,-0.19913518,-0.63636798,-0.74523884,0
-0.74969625,1.3668693,3.5444076,0.19913518,0.63636798,0.74523884,0
-2.4265172,-0.38508666,4.9763165,-0.61472434,-0.51112777,0.60071826,0
-0.89286196,-0.74901062,-0.96314424,-0.76319009,0.57774061,-0.28940737,0
-2.2072189,-1.2976289,4.2047248,-0.61472434,-0.51112777,0.60071826,0
-0.70282513,-0.95736003,1.5969477,0.76319009,-0.57774061,0.28940737,0
0.15894559,-0.28110835,0.47697639,0.76319009,-0.57774061,0.28940737,0
1.8425704,1.8992698,-2.7336245,-0.76319009,0.57774061,-0.28940737,0
1.8808582,-0.32331586,-5.1780443,-0.19913518,-0.63636798,-0.74523884,0
0.59596765,-0.6456725,-1.4874748,0.76319009,-0.57774061,0.28940737,0
-0.65026027,-0.13882139,-0.79735756,-0.76319009,0.57774061,-0.28940737,0
-0.3247011,-0.8612169,0.47892714,0.76319009,-0.57774061,0.28940737,0
-0.62090325,1.2670557,3.817054,0.19913518,0.63636798,0.74523884,0
0.99127817,2.8537109,1.9167197,0.19913518,0.63636798,0.74523884,0
2.6036777,1.5230522,-3.6250453,0.61472434,0.51112777,-0.60071826,0
2.5088797,2.4280868,-2.768738,0.61472434,0.51112777,-0.60071826,0
2.2300663,0.97025537,-2.5676012,0.76319009,-0.57774061,0.28940737,0
2.1758785,1.2495334,-3.9800839,0.61472434,0.51112777,-0.60071826,0
0.62969732,1.6522155,2.9237697,0.19913518,0.63636798,0.74523884,0
2.3863645,2.0712428,-3.1129563,0.61472434,0.51112777,-0.60071826,0
0.25220561,-0.43440181,-3.8007476,-0.76319009,0.57774061,-0.28940737,0
1.7882104,2.9558086,-0.21789742,-0.76319009,0.57774061,-0.28940737,0
-3.2913404,-4.5287337,0.60111368,-0.61472434,-0.51112777,0.60071826,0
1.4722736,-0.57896245,-4.4407167,-0.19913518,-0.63636798,-0.74523884,0
3.4827402,4.086349,-0.21227765,0.61472434,0.51112777,-0.60071826,0
-3.0234361,-2.1185329,1.8916131,-0.76319009,0.57774061,-0.28940737,0
-1.2081761,-2.8020182,-1.8472,-0.19913518,-0.63636798,-0.74523884,0
-2.5086155,-3.8273845,0.67230809,0.76319009,-0.57774061,0.28940737,0
2.8886881,3.765604,-1.4319941,0.61472434,0.51112777,-0.60071826,0
1.8941314,3.39328,1.3864177,0.19913518,0.63636798,0.74523884,0
-2.2843592,-0.080153465,4.930923,-0.61472434,-0.51112777,0.60071826,0
-0.57101536,-1.8731265,0.11361906,0.76319009,-0.57774061,0.28940737,0
1.9136877,3.0425549,-0.82662463,-0.76319009,0.57774061,-0.28940737,0
2.6526561,1.8124442,-2.946116,0.61472434,0.51112777,-0.60071826,0
-1.6233733,-2.0974293,-1.9350498,-0.76319009,0.57774061,-0.28940737,0
1.9747837,1.5077447,-4.0658674,0.61472434,0.51112777,-0.60071826,0
-3.8103631,-3.9341478,-0.063994884,-0.61472434,-0.51112777,0.60071826,0
-2.238271,-3.2800789,-1.1538672,-0.19913518,-0.63636798,-0.74523884,0
2.7252498,3.2383666,-2.1160889,0.61472434,0.51112777,-0.60071826,0
2.0717111,3.1784973,1.3406364,0.19913518,0.63636798,0.74523884,0
3.3933506,4.0032816,-0.29480517,0.61472434,0.51112777,-0.60071826,0
-3.0076778,-1.6751922,3.2662778,-0.61472434,-0.51112777,0.60071826,0
0.37358797,0.95503789,2.4896929,0.76319009,-0.57774061,0.28940737,0
-1.0141017,-2.7114837,-1.5131469,0.76319009,-0.57774061,0.28940737,0
0.13461518,2.120101,2.8302858,0.19913518,0.63636798,0.74523884,0
2.6275077,1.4936368,-3.8232818,0.61472434,0.51112777,-0.60071826,0
-1.6106925,-2.8921947,-1.6886458,-0.19913518,-0.63636798,-0.74523884,0
-0.34841776,1.1766512,3.6385744,0.19913518,0.63636798,0.74523884,0
2.8487041,1.744862,-3.2741067,0.61472434,0.51112777,-0.60071826,0
-3.2537572,-2.1135132,2.5643666,-0.61472434,-0.51112777,0.60071826,0
1.7147315,-0.47556579,-4.6380205,-0.19913518,-0.63636798,-0.74523884,0
0.5404284,-0.7874372,-4.2150888,-0.19913518,-0.63636798,-0.74523884,0
1.2535552,-0.98685467,-3.9306378,-0.19913518,-0.63636798,-0.74523884,0
-1.9488666,-0.62911832,2.1999841,-0.76319009,0.57774061,-0.28940737,0
-0.668782,0.70381969,1.482318,-0.76319009,0.57774061,-0.28940737,0
-2.3685718,-0.56261325,3.4659412,-0.76319009,0.57774061,-0.28940737,0
-1.4044541,0.20283937,4.9088793,0.19913518,0.63636798,0.74523884,0
0.096494675,0.97788566,2.8949003,0.76319009,-0.57774061,0.28940737,0
0.36651969,1.7905936,3.1984499,0.19913518,0.63636798,0.74523884,0
2.9761188,3.5872788,-1.5710299,0.61472434,0.51112777,-0.60071826,0
-1.5633925,-0.071149945,5.4197054,0.19913518,0.63636798,0.74523884,0
-0.42764091,1.8279122,3.0824566,-0.76319009,0.57774061,-0.28940737,0
3.4853325,2.9463258,-1.7120507,0.61472434,0.51112777,-0.60071826,0
1.0550725,-1.1250857,-3.9598646,-0.19913518,-0.63636798,-0.74523884,0
-1.1982734,0.68910456,4.398356,0.19913518,0.63636798,0.74523884,0
-2.8675601,-3.8288784,0.96743369,-0.61472434,-0.51112777,0.60071826,0
-2.4857516,-3.967906,0.91406536,0.76319009,-0.57774061,0.28940737,0
2.3482602,1.2857291,-1.9092685,0.76319009,-0.57774061,0.28940737,0
1.5733328,2.7765951,1.8875558,0.19913518,0.63636798,0.74523884,0
-2.4344492,-0.7413162,4.0454555,-0.61472434,-0.51112777,0.60071826,0
2.7401738,3.0168521,0.42172432,0.76319009,-0.57774061,0.28940737,0
-0.55982542,-2.0765615,-3.01723,-0.19913518,-0.63636798,-0.74523884,0
2.9027774,1.4527967,-3.24422,0.61472434,0.51112777,-0.60071826,0
3.5884719,3.107127,-1.3827858,0.61472434,0.51112777,-0.60071826,0
-3.45962,-4.359417,-0.12712681,-0.19913518,-0.63636798,-0.74523884,0
3.7264025,3.861805,-0.24154997,0.61472434,0.51112777,-0.60071826,0
2.3332782,0.2671293,-4.7099719,0.61472434,0.51112777,-0.60071826,0
2.8221223,4.1079493,0.65174472,0.19913518,0.63636798,0.74523884,0
-0.19996846,-0.56267369,-2.3294342,-0.76319009,0.57774061,-0.28940737,0
1.7674761,2.4735858,2.2072735,0.76319009,-0.57774061,0.28940737,0
0.70655894,0.52772504,1.2348479,0.76319009,-0.57774061,0.28940737,0
-1.6288896,-2.1052802,-1.5203977,-0.76319009,0.57774061,-0.28940737,0
