-2.184639,-4.6155005,1.8157221,-0.50840461,-0.31321454,0.80213547,0
-1.8548486,-2.763742,1.1140782,-0.8587935,0.25282431,-0.44559348,0
0.50912809,3.6406827,-0.40271378,-0.8587935,0.25282431,-0.44559348,0
2.0571008,0.81305683,-3.2709041,0.50840461,0.31321454,-0.80213547,0
-2.135082,-2.2731249,2.6607394,-0.50840461,-0.31321454,0.80213547,0
-2.4494288,-3.9961727,1.9703574,-0.50840461,-0.31321454,0.80213547,0
-1.666064,-5.0081897,0.56791425,-0.063232988,-0.91541052,-0.3975237,0
2.0520935,-0.51133585,-3.7102752,0.50840461,0.31321454,-0.80213547,0
2.0248878,0.68396461,-2.1160674,0.8587935,-0.25282431,0.44559348,0
-2.1818314,-5.4180293,1.3994107,-0.50840461,-0.31321454,0.80213547,0
-0.78194553,3.2959669,2.0944109,-0.8587935,0.25282431,-0.44559348,0
2.2968526,-0.24856555,-3.8600714,0.50840461,0.31321454,-0.80213547,0
-1.6030157,-3.4579322,2.4378412,-0.50840461,-0.31321454,0.80213547,0
1.6154432,3.0827386,-2.1788411,-0.8587935,0.25282431,-0.44559348,0
-0.40978253,-0.63800067,-0.37627453,-0.8587935,0.25282431,-0.44559348,0
-0.52671289,4.1380014,2.0182161,0.063232988,0.91541052,0.3975237,0
2.223321,3.1152062,-2.3596542,0.50840461,0.31321454,-0.80213547,0
1.5903387,-2.7738476,-4.9813595,-0.063232988,-0.91541052,-0.3975237,0
-2.366164,0.095701933,3.6365266,-0.50840461,-0.31321454,0.80213547,0
-1.9700909,-3.2595801,2.4205768,-0.50840461,-0.31321454,0.80213547,0
-0.87263602,3.6197605,3.2788339,0.063232988,0.91541052,0.3975237,0
-0.58122611,-4.473361,-0.88697863,-0.063232988,-0.91541052,-0.3975237,0
-0.78340375,-0.10663627,0.67424381,-0.8587935,0.25282431,-0.44559348,0
-2.3796122,-2.6861694,2.2567592,-0.50840461,-0.31321454,0.80213547,0
-1.2402585,-3.5200014,1.3174698,0.8587935,-0.25282431,0.44559348,0
1.9161332,3.3505292,-2.2824621,0.50840461,0.31321454,-0.80213547,0
1.3342162,-3.4064677,-3.9861178,-0.063232988,-0.91541052,-0.3975237,0
-1.0683244,0.55378193,0.94689697,-0.8587935,0.25282431,-0.44559348,0
-2.4659095,-2.0672708,2.1060905,-0.8587935,0.25282431,-0.44559348,0
0.50414503,4.09062,1.4951267,0.063232988,0.91541052,0.3975237,0
-2.5859795,-4.7212658,1.3447719,-0.50840461,-0.31321454,0.80213547,0
1.3552485,3.9799399,0.68004441,0.8587935,-0.25282431,0.44559348,0
-1.1065559,-0.16756725,3.6034129,0.8587935,-0.25282431,0.44559348,0
-0.29837251,-0.31012923,1.1083205,0.8587935,-0.25282431,0.44559348,0
-0.39223915,3.4854672,2.0393467,-0.8587935,0.25282431,-0.44559348,0
-1.0679033,3.0003181,4.1401887,0.063232988,0.91541052,0.3975237,0
0.12596065,-3.6215856,-3.1474087,-0.063232988,-0.91541052,-0.3975237,0
-1.1249325,-2.0916557,2.5468202,0.8587935,-0.25282431,0.44559348,0
1.9758503,3.2409678,-2.2199588,0.50840461,0.31321454,-0.80213547,0
-2.6185789,-4.6834354,1.5689049,-0.50840461,-0.31321454,0.80213547,0
0.0090773106,-4.2778044,-1.8189509,-0.063232988,-0.91541052,-0.3975237,0
-0.15592372,-3.6462297,-2.7330029,-0.063232988,-0.91541052,-0.3975237,0
-1.0724201,1.1255015,4.2216473,0.8587935,-0.25282431,0.44559348,0
0.012808323,-3.8674049,-1.9849911,-0.063232988,-0.91541052,-0.3975237,0
-2.2338245,0.94546467,3.9876974,-0.50840461,-0.31321454,0.80213547,0
-1.893898,3.1266942,4.246624,0.063232988,0.91541052,0.3975237,0
1.8947406,5.0541906,-1.9394245,0.50840461,0.31321454,-0.80213547,0
1.2081037,4.8208094,0.26126814,0.063232988,0.91541052,0.3975237,0
-1.3770032,-2.824749,1.9692369,0.8587935,-0.25282431,0.44559348,0
-2.4721539,-5.4142799,1.1264167,-0.063232988,-0.91541052,-0.3975237,0
2.3352404,5.0444794,-1.0442626,0.063232988,0.91541052,0.3975237,0
0.56794274,-3.8870215,-2.2135129,-0.063232988,-0.91541052,-0.3975237,0
1.4700515,0.73598135,-1.7257173,0.8587935,-0.25282431,0.44559348,0
1.446946,-2.8131533,-5.0027671,-0.063232988,-0.91541052,-0.3975237,0
0.61522889,4.3100672,0.84783936,0.063232988,0.91541052,0.3975237,0
-0.89696735,3.0362091,4.6979895,0.063232988,0.91541052,0.3975237,0
1.7284659,0.059536219,-4.0308075,0.50840461,0.31321454,-0.80213547,0
-0.32139373,-4.2488132,-1.5300887,-0.063232988,-0.91541052,-0.3975237,0
1.5538244,4.9604168,-0.090377331,0.063232988,0.91541052,0.3975237,0
2.2430344,0.13421893,-3.6721742,0.50840461,0.31321454,-0.80213547,0
2.2145295,-1.6224601,-4.4116125,0.50840461,0.31321454,-0.80213547,0
-1.910547,-2.3679857,2.627624,-0.50840461,-0.31321454,0.80213547,0
0.62782103,-1.3536363,-3.4817126,-0.8587935,0.25282431,-0.44559348,0
0.51924878,-0.90866846,-2.5193229,-0.8587935,0.25282431,-0.44559348,0
0.36026621,-4.0210662,-1.9414942,-0.063232988,-0.91541052,-0.3975237,0
2.4582186,3.1693738,-2.124552,0.50840461,0.31321454,-0.80213547,0
0.92211318,4.7942457,-0.1765635,0.063232988,0.91541052,0.3975237,0
-2.2353363,-4.8904157,1.8440377,-0.50840461,-0.31321454,0.80213547,0
-1.9099747,0.47973448,3.238991,-0.8587935,0.25282431,-0.44559348,0
0.77136493,1.9721298,-1.8795208,-0.8587935,0.25282431,-0.44559348,0
-1.882962,-2.9156723,2.7643046,-0.50840461,-0.31321454,0.80213547,0
-0.65311193,-4.3543301,-0.70303965,-0.063232988,-0.91541052,-0.3975237,0
0.31252778,4.1671162,2.0108926,0.063232988,0.91541052,0.3975237,0
-1.0586276,3.6263332,3.5731122,0.063232988,0.91541052,0.3975237,0
2.0332441,2.8075509,-1.4296236,0.8587935,-0.25282431,0.44559348,0
-1.1366947,2.072849,2.1869998,-0.8587935,0.25282431,-0.44559348,0
-1.9489738,0.012602925,3.8345499,-0.50840461,-0.31321454,0.80213547,0
0.61881983,-3.460855,-3.6797404,-0.063232988,-0.91541052,-0.3975237,0
-1.8954198,-1.4032464,3.2877934,-0.50840461,-0.31321454,0.80213547,0
0.81386197,0.12378612,-0.74389982,0.8587935,-0.25282431,0.44559348,0
-1.7131962,-0.44989216,1.6380218,-0.8587935,0.25282431,-0.44559348,0
2.1172791,5.0242839,-0.76247072,0.063232988,0.91541052,0.3975237,0
0.44989657,-3.9842997,-1.9844308,-0.063232988,-0.91541052,-0.3975237,0
1.6887407,-1.1264915,-4.1895108,0.50840461,0.31321454,-0.80213547,0
0.59184802,3.3862324,1.8512506,0.8587935,-0.25282431,0.44559348,0
-0.96197748,-4.6800222,-0.035543919,-0.063232988,-0.91541052,-0.3975237,0
0.83316302,4.3888302,0.58679104,0.063232988,0.91541052,0.3975237,0
1.5014105,-2.8876367,-4.5685959,-0.063232988,-0.91541052,-0.3975237,0
2.7142444,2.1052153,-2.6445935,0.50840461,0.31321454,-0.80213547,0
2.1210361,-0.91184098,-3.2204008,0.8587935,-0.25282431,0.44559348,0
1.6284976,-1.7118092,-4.8417921,0.50840461,0.31321454,-0.80213547,0
-2.2988787,-0.36657566,3.3615141,-0.50840461,-0.31321454,0.80213547,0
-0.68607497,3.4170287,3.0713279,0.063232988,0.91541052,0.3975237,0
-2.7742703,-5.1378102,1.1788437,-0.50840461,-0.31321454,0.80213547,0
1.5739578,-1.6580549,-4.697144,0.50840461,0.31321454,-0.80213547,0
2.4773021,5.3810759,-1.1290889,0.063232988,0.91541052,0.3975237,0
-2.0919423,0.59306884,4.1160684,-0.50840461,-0.31321454,0.80213547,0
0.87106216,-3.1957145,-3.8674459,-0.063232988,-0.91541052,-0.3975237,0
-2.3277385,0.16099072,3.5536518,-0.50840461,-0.31321454,0.80213547,0
-2.3016984,-1.260779,2.8452752,-0.50840461,-0.31321454,0.80213547,0
1.3870782,1.4721774,-2.9620457,-0.8587935,0.25282431,-0.44559348,0
1.5273179,-1.5487807,-4.5151768,-0.8587935,0.25282431,-0.44559348,0
1.3824358,-3.4554775,-3.8888617,-0.063232988,-0.91541052,-0.3975237,0
2.1920493,5.0424285,-0.46863651,0.063232988,0.91541052,0.3975237,0
-0.98287272,3.082427,3.9411666,0.063232988,0.91541052,0.3975237,0
-1.6196809,-4.3812838,-0.53565073,-0.8587935,0.25282431,-0.44559348,0
1.0548725,4.6113014,0.54626536,0.063232988,0.91541052,0.3975237,0
-2.1550033,-2.4267309,2.8060431,-0.50840461,-0.31321454,0.80213547,0
-0.53268945,-4.1058974,-1.3140805,-0.063232988,-0.91541052,-0.3975237,0
1.3266107,-2.7511935,-3.1495905,0.8587935,-0.25282431,0.44559348,0
2.5258651,0.39400637,-3.4219382,0.50840461,0.31321454,-0.80213547,0
0.79341769,0.89667803,0.45804727,0.8587935,-0.25282431,0.44559348,0
-1.3912597,1.4443059,4.539958,-0.50840461,-0.31321454,0.80213547,0
-2.3463314,-1.8833829,3.0054688,-0.50840461,-0.31321454,0.80213547,0
-0.073065996,-4.0848045,-2.1797121,-0.063232988,-0.91541052,-0.3975237,0
-0.58937478,-2.1470261,1.3850175,0.8587935,-0.25282431,0.44559348,0
-1.8345711,2.2961264,4.8813758,-0.50840461,-0.31321454,0.80213547,0
0.57016218,-1.9064292,-3.3685651,-0.8587935,0.25282431,-0.44559348,0
-1.4440086,-3.2555828,2.4658744,0.8587935,-0.25282431,0.44559348,0
-2.3299055,-3.7309422,1.6004503,-0.8587935,0.25282431,-0.44559348,0
2.1945696,3.6926525,-2.1402531,0.50840461,0.31321454,-0.80213547,0
-0.53038931,-0.47225136,-0.50972015,-0.8587935,0.25282431,-0.44559348,0
-1.3998989,-0.37035334,3.8629103,0.8587935,-0.25282431,0.44559348,0
-0.052553892,3.7774625,2.413012,0.063232988,0.91541052,0.3975237,0
-0.7396884,-4.6618576,-0.54684091,-0.063232988,-0.91541052,-0.3975237,0
-0.88462067,1.9847379,1.4121588,-0.8587935,0.25282431,-0.44559348,0
1.1324031,-2.1946747,-2.398746,0.8587935,-0.25282431,0.44559348,0
0.084265947,4.1560965,1.3041553,0.063232988,0.91541052,0.3975237,0
-1.7110269,-1.8112032,3.3686833,-0.50840461,-0.31321454,0.80213547,0
0.70005184,1.9754786,1.2521651,0.8587935,-0.25282431,0.44559348,0
-0.35463887,3.3748097,3.2584419,0.063232988,0.91541052,0.3975237,0
-1.9596716,2.2294931,4.1145053,-0.8587935,0.25282431,-0.44559348,0
-1.1637115,-4.1587567,-0.83808422,-0.8587935,0.25282431,-0.44559348,0
2.1309888,5.5274811,-1.372997,0.063232988,0.91541052,0.3975237,0
0.051027656,-4.102756,-1.9238303,-0.063232988,-0.91541052,-0.3975237,0
2.2212605,3.1805444,-2.2969472,0.50840461,0.31321454,-0.80213547,0
-2.2861056,2.5710876,4.5565143,-0.50840461,-0.31321454,0.80213547,0
-1.021867,-4.3650155,-0.95991611,-0.063232988,-0.91541052,-0.3975237,0
-0.59793258,3.6655397,3.2047348,0.063232988,0.91541052,0.3975237,0
1.7391338,-0.41644764,-4.1430092,0.50840461,0.31321454,-0.80213547,0
2.2950549,4.91465,-0.42961931,0.063232988,0.91541052,0.3975237,0
1.7794207,0.54881692,-3.7681191,0.50840461,0.31321454,-0.80213547,0
-1.7767541,-1.3899822,3.277622,-0.50840461,-0.31321454,0.80213547,0
1.444911,1.8478092,-2.7579627,-0.8587935,0.25282431,-0.44559348,0
1.907753,0.87190616,-3.6111281,0.50840461,0.31321454,-0.80213547,0
0.92537224,4.1237707,1.5445423,0.063232988,0.91541052,0.3975237,0
-1.3667753,-4.8326249,0.081522942,-0.063232988,-0.91541052,-0.3975237,0
1.9345589,5.2999067,-1.5500321,0.063232988,0.91541052,0.3975237,0
1.2044339,-3.5224481,-3.4442322,-0.063232988,-0.91541052,-0.3975237,0
-0.69638491,3.14908,4.2774,0.063232988,0.91541052,0.3975237,0
-0.98318028,-2.6961117,-1.1458118,-0.8587935,0.25282431,-0.44559348,0
-2.1315351,1.5075947,4.4684448,-0.50840461,-0.31321454,0.80213547,0
-2.1227601,0.8304708,4.0061522,-0.50840461,-0.31321454,0.80213547,0
1.3316457,-2.1168048,-5.0346231,0.50840461,0.31321454,-0.80213547,0
2.2257736,4.1279821,-1.8484343,0.50840461,0.31321454,-0.80213547,0
1.9395943,4.8320055,-0.37595654,0.063232988,0.91541052,0.3975237,0
2.2947054,-2.3691497,-4.4327693,0.50840461,0.31321454,-0.80213547,0
0.55573344,4.5443201,0.89112067,0.063232988,0.91541052,0.3975237,0
0.80196047,4.3716006,0.98461223,0.063232988,0.91541052,0.3975237,0
-0.55540037,3.8160586,2.4621828,0.063232988,0.91541052,0.3975237,0
1.787923,-1.1472733,-4.0686007,0.50840461,0.31321454,-0.80213547,0
-1.8691545,-4.9508429,0.53893471,-0.063232988,-0.91541052,-0.3975237,0
1.5339417,-0.23823285,-4.1480746,0.50840461,0.31321454,-0.80213547,0
-0.72589916,3.0285783,4.2278852,0.063232988,0.91541052,0.3975237,0
0.72287273,0.84924674,0.3050071,0.8587935,-0.25282431,0.44559348,0
-1.3354075,3.0867,4.1511831,0.063232988,0.91541052,0.3975237,0
-0.54034269,-4.127656,-1.2668214,-0.063232988,-0.91541052,-0.3975237,0
-0.38491306,2.3759809,1.4110585,-0.8587935,0.25282431,-0.44559348,0
-1.207386,3.478837,3.263166,0.063232988,0.91541052,0.3975237,0
-1.8470707,-5.1022391,0.40645647,-0.063232988,-0.91541052,-0.3975237,0
-2.0693836,-2.8451545,2.4336109,-0.50840461,-0.31321454,0.80213547,0
0.74284041,-3.1515632,-4.0028896,-0.063232988,-0.91541052,-0.3975237,0
0.80432367,-3.2719831,-2.0041585,0.8587935,-0.25282431,0.44559348,0
-1.5652819,-5.2626748,0.85426784,-0.063232988,-0.91541052,-0.3975237,0
2.3985085,0.603863,-3.2637537,0.50840461,0.31321454,-0.80213547,0
-2.456574,-5.0256553,0.81479359,-0.063232988,-0.91541052,-0.3975237,0
1.0463005,1.1030672,-2.2416661,-0.8587935,0.25282431,-0.44559348,0
-0.43748847,0.66743284,-0.016346812,-0.8587935,0.25282431,-0.44559348,0
0.017958045,2.630764,2.232367,0.8587935,-0.25282431,0.44559348,0
-2.3396816,-4.5567865,1.7997342,-0.50840461,-0.31321454,0.80213547,0
1.5682551,-0.94510365,-4.2664957,-0.8587935,0.25282431,-0.44559348,0
0.038422108,4.3195181,0.99591279,0.063232988,0.91541052,0.3975237,0
-1.3280218,-0.21654451,3.8157623,0.8587935,-0.25282431,0.44559348,0
0.37980151,4.1876698,1.6554677,0.063232988,0.91541052,0.3975237,0
-1.6689484,-3.813179,2.2369277,-0.50840461,-0.31321454,0.80213547,0
-1.534987,-4.8494186,0.042698145,-0.063232988,-0.91541052,-0.3975237,0
-0.74954367,-4.7131205,0.24676704,0.8587935,-0.25282431,0.44559348,0
1.3841672,4.9835916,-0.66957188,0.063232988,0.91541052,0.3975237,0
-0.45177877,0.99204069,2.8668578,0.8587935,-0.25282431,0.44559348,0
-2.2923746,1.6469909,4.0358758,-0.50840461,-0.31321454,0.80213547,0
2.2022443,0.2903592,-2.710907,0.8587935,-0.25282431,0.44559348,0
0.75716895,0.94614798,-0.21597975,0.8587935,-0.25282431,0.44559348,0
0.074431255,0.21624488,1.0624595,0.8587935,-0.25282431,0.44559348,0
2.3934567,4.9820848,-1.0905457,0.8587935,-0.25282431,0.44559348,0
0.95400488,4.3160329,1.6750941,0.063232988,0.91541052,0.3975237,0
0.90167499,2.7560074,1.2343724,0.8587935,-0.25282431,0.44559348,0
-0.87767023,3.5828526,3.3856568,0.063232988,0.91541052,0.3975237,0
-0.21811199,-3.6096241,-0.44675422,0.8587935,-0.25282431,0.44559348,0
-2.2608991,-0.53816247,3.5085583,-0.50840461,-0.31321454,0.80213547,0
-0.12733078,-4.4850521,-1.0212095,-0.063232988,-0.91541052,-0.3975237,0
2.313077,4.7611322,-0.32884312,0.063232988,0.91541052,0.3975237,0
1.5436288,0.95710862,-3.3870702,0.50840461,0.31321454,-0.80213547,0
1.9645929,4.8692389,-0.085088968,0.063232988,0.91541052,0.3975237,0
-0.55908132,-4.2568374,-0.97749996,-0.063232988,-0.91541052,-0.3975237,0
1.7162777,0.27144146,-3.8844705,0.50840461,0.31321454,-0.80213547,0
-0.1188149,-1.183643,-1.8876972,-0.8587935,0.25282431,-0.44559348,0
-1.8559871,-3.3637972,0.85634255,-0.8587935,0.25282431,-0.44559348,0
0.69254589,-3.2426169,-4.2782888,-0.063232988,-0.91541052,-0.3975237,0
-1.410139,-0.61944044,3.7668965,-0.50840461,-0.31321454,0.80213547,0
1.8483007,-2.0073013,-4.8427773,0.50840461,0.31321454,-0.80213547,0
1.8430803,-2.2014043,-4.7794504,0.50840461,0.31321454,-0.80213547,0
1.6716439,-3.2892747,-4.288332,-0.063232988,-0.91541052,-0.3975237,0
-1.8987019,-4.0452757,-0.19773912,-0.8587935,0.25282431,-0.44559348,0
2.401917,3.1066899,-2.1131897,0.50840461,0.31321454,-0.80213547,0
0.92508239,-0.27495599,-0.93305898,0.8587935,-0.25282431,0.44559348,0
-2.4681141,-3.3268323,1.533278,-0.8587935,0.25282431,-0.44559348,0
1.8734124,5.1387601,-0.92253923,0.063232988,0.91541052,0.3975237,0
-2.076581,-0.11406362,3.7474334,-0.50840461,-0.31321454,0.80213547,0
-2.1415923,2.64573,4.5828857,-0.50840461,-0.31321454,0.80213547,0
2.1139352,2.4150147,-2.8917546,0.50840461,0.31321454,-0.80213547,0
1.8293309,4.8668184,-0.63542342,0.063232988,0.91541052,0.3975237,0
-2.1117489,2.268199,4.6245775,-0.50840461,-0.31321454,0.80213547,0
2.399802,3.957907,-0.95938158,0.8587935,-0.25282431,0.44559348,0
-1.6038895,3.3959408,4.0683084,0.063232988,0.91541052,0.3975237,0
-0.75350285,-3.2914462,1.0769624,0.8587935,-0.25282431,0.44559348,0
1.5035653,-2.6636112,-4.9085636,0.50840461,0.31321454,-0.80213547,0
-1.8711462,-5.1112585,0.54656339,-0.063232988,-0.91541052,-0.3975237,0
-0.87559628,3.1405325,4.1064043,0.063232988,0.91541052,0.3975237,0
-0.42684364,-4.3378386,-1.5236256,-0.063232988,-0.91541052,-0.3975237,0
-0.37378514,-0.8444699,0.95464098,0.8587935,-0.25282431,0.44559348,0
0.51214784,-1.0190564,-3.1230121,-0.8587935,0.25282431,-0.44559348,0
-1.3169082,2.8421154,3.1646709,-0.8587935,0.25282431,-0.44559348,0
1.7184031,1.6055284,-3.1344123,0.50840461,0.31321454,-0.80213547,0
-1.7747805,-0.27405357,2.369206,-0.8587935,0.25282431,-0.44559348,0
-1.8287263,-2.2215841,1.3482091,-0.8587935,0.25282431,-0.44559348,0
0.27996325,-3.3981194,-1.6407604,0.8587935,-0.25282431,0.44559348,0
1.4178828,-0.3472743,-4.1113563,0.50840461,0.31321454,-0.80213547,0
0.016028136,-1.104979,-2.1520395,-0.8587935,0.25282431,-0.44559348,0
0.52640271,4.226017,1.6092689,0.063232988,0.91541052,0.3975237,0
2.1856291,2.8394687,-1.6740146,0.8587935,-0.25282431,0.44559348,0
2.4328575,1.6657081,-2.7995486,0.50840461,0.31321454,-0.80213547,0
1.7171946,0.011976361,-4.0856552,0.50840461,0.31321454,-0.80213547,0
1.9013844,5.2059789,-0.8412466,0.063232988,0.91541052,0.3975237,0
-0.97834337,-2.9710426,-0.67427564,-0.8587935,0.25282431,-0.44559348,0
-1.3378567,0.19093359,4.0964622,-0.50840461,-0.31321454,0.80213547,0
0.62594903,3.9952538,1.5723898,0.063232988,0.91541052,0.3975237,0
1.5141931,-2.878274,-4.9382591,0.50840461,0.31321454,-0.80213547,0
-1.6375721,-4.2458591,1.5207026,0.8587935,-0.25282431,0.44559348,0
-2.2066321,0.13286805,3.5939379,-0.50840461,-0.31321454,0.80213547,0
-0.21308434,2.1570148,3.1990457,0.8587935,-0.25282431,0.44559348,0
0.95587003,-3.3883533,-3.5438485,-0.063232988,-0.91541052,-0.3975237,0
1.6922352,5.0468898,-0.24711847,0.063232988,0.91541052,0.3975237,0
2.4751027,4.3452163,-1.446744,0.8587935,-0.25282431,0.44559348,0
-1.5510812,1.1452374,2.2217174,-0.8587935,0.25282431,-0.44559348,0
-1.1838365,-5.04496,0.2369833,-0.063232988,-0.91541052,-0.3975237,0
0.8445586,-3.9140682,-2.8411393,-0.063232988,-0.91541052,-0.3975237,0
0.85457122,3.4680853,1.424309,0.8587935,-0.25282431,0.44559348,0
1.6171843,2.6177144,-0.13656402,0.8587935,-0.25282431,0.44559348,0
1.2177577,2.8974657,0.046493053,0.8587935,-0.25282431,0.44559348,0
-2.0637829,2.9046497,4.4895506,0.063232988,0.91541052,0.3975237,0
1.6268978,3.0343451,-2.5808833,0.50840461,0.31321454,-0.80213547,0
0.81852627,3.5363479,-0.4475441,-0.8587935,0.25282431,-0.44559348,0
0.09981823,-4.2357607,-1.8921664,-0.063232988,-0.91541052,-0.3975237,0
-1.9579976,1.8694054,4.6996708,-0.50840461,-0.31321454,0.80213547,0
-2.2686777,1.4567777,4.1238356,-0.50840461,-0.31321454,0.80213547,0
1.7585101,3.0848956,-0.92804861,0.8587935,-0.25282431,0.44559348,0
-1.9157958,-4.0026889,0.46904182,-0.8587935,0.25282431,-0.44559348,0
-1.6675644,1.7092954,4.4135203,-0.50840461,-0.31321454,0.80213547,0
-0.90098953,-3.3959882,1.1827526,0.8587935,-0.25282431,0.44559348,0
1.4886928,-3.3063474,-4.3438463,-0.063232988,-0.91541052,-0.3975237,0
1.6170487,5.3128157,-0.77019095,0.063232988,0.91541052,0.3975237,0
0.97127396,-3.848233,-2.7241211,-0.063232988,-0.91541052,-0.3975237,0
1.5140557,5.0462747,-0.50279188,0.063232988,0.91541052,0.3975237,0
0.69279897,2.6669972,-1.1155592,-0.8587935,0.25282431,-0.44559348,0
-0.55165863,3.8944433,2.1532357,0.063232988,0.91541052,0.3975237,0
-1.665283,-3.7389059,0.1011405,-0.8587935,0.25282431,-0.44559348,0
1.9494646,4.1248865,-0.18528938,0.8587935,-0.25282431,0.44559348,0
-1.5091918,1.5152011,4.6776505,-0.50840461,-0.31321454,0.80213547,0
-1.2450627,-1.6082326,0.043456197,-0.8587935,0.25282431,-0.44559348,0
1.8649557,4.8714943,-0.36124945,0.063232988,0.91541052,0.3975237,0
-1.9322042,-0.43447006,3.4785354,-0.50840461,-0.31321454,0.80213547,0
-0.82179272,1.6927392,1.1970841,-0.8587935,0.25282431,-0.44559348,0
0.36733767,-0.89252847,-0.45764592,0.8587935,-0.25282431,0.44559348,0
1.4480641,5.091363,-0.49719548,0.063232988,0.91541052,0.3975237,0
2.3749335,1.0404627,-2.8586326,0.50840461,0.31321454,-0.80213547,0
-1.5256146,2.9593148,4.6878757,0.063232988,0.91541052,0.3975237,0
1.5785936,3.1246259,-0.31618428,0.8587935,-0.25282431,0.44559348,0
1.1921413,4.507503,1.2426324,0.063232988,0.91541052,0.3975237,0
1.2201467,4.8624258,-0.28308654,0.063232988,0.91541052,0.3975237,0
-1.9581195,-2.258904,1.6498582,-0.8587935,0.25282431,-0.44559348,0
-0.16293776,-3.8121099,-2.4989028,-0.063232988,-0.91541052,-0.3975237,0
0.56836653,4.1458879,2.1374319,0.063232988,0.91541052,0.3975237,0
1.2548277,-3.4060626,-4.1314449,-0.063232988,-0.91541052,-0.3975237,0
1.9442739,4.1154022,-2.0260201,0.50840461,0.31321454,-0.80213547,0
-2.3516304,-1.5719199,2.7005491,-0.50840461,-0.31321454,0.80213547,0
0.50517052,-3.8650773,-2.2184436,-0.063232988,-0.91541052,-0.3975237,0
-2.2379255,-2.8782797,1.1562837,-0.8587935,0.25282431,-0.44559348,0
1.9823461,-1.1385282,-4.2727566,0.50840461,0.31321454,-0.80213547,0
-1.5380104,1.4674149,4.5374789,-0.50840461,-0.31321454,0.80213547,0
-2.4921179,0.61678612,3.7242594,-0.50840461,-0.31321454,0.80213547,0
2.052145,3.572125,-2.1350529,0.50840461,0.31321454,-0.80213547,0
1.3177969,4.3620896,0.5796802,0.063232988,0.91541052,0.3975237,0
1.7183833,-3.1173437,-4.8327184,-0.063232988,-0.91541052,-0.3975237,0
-0.20684755,-2.0555987,-0.087621331,0.8587935,-0.25282431,0.44559348,0
2.2477043,2.6501853,-1.4811418,0.8587935,-0.25282431,0.44559348,0
-1.8291237,-4.2987304,0.04592061,-0.8587935,0.25282431,-0.44559348,0
-0.36469203,3.7817883,2.6007631,0.063232988,0.91541052,0.3975237,0
-1.1433957,-1.990033,1.7841591,0.8587935,-0.25282431,0.44559348,0
1.5575027,0.94720435,-3.8669729,0.50840461,0.31321454,-0.80213547,0
-2.2369599,-2.5715365,2.6067915,-0.50840461,-0.31321454,0.80213547,0
2.192755,3.578759,-1.9631889,0.50840461,0.31321454,-0.80213547,0
1.0659505,1.5182056,-1.9513457,-0.8587935,0.25282431,-0.44559348,0
-1.216511,-1.4867117,-0.067712069,-0.8587935,0.25282431,-0.44559348,0
0.24251057,-1.1634593,-2.4055238,-0.8587935,0.25282431,-0.44559348,0
-0.99220133,-4.3966312,-1.0923245,-0.063232988,-0.91541052,-0.3975237,0
0.57687569,-3.2936909,-3.9109154,-0.063232988,-0.91541052,-0.3975237,0
1.2323205,-1.835559,-1.9873493,0.8587935,-0.25282431,0.44559348,0
-1.2531214,0.58387578,4.0148845,0.8587935,-0.25282431,0.44559348,0
0.5376581,-3.8473706,-2.9611754,-0.063232988,-0.91541052,-0.3975237,0
0.39283234,-3.9285336,-2.589035,-0.063232988,-0.91541052,-0.3975237,0
2.1424365,-2.5657971,-4.7984967,0.50840461,0.31321454,-0.80213547,0
-0.28251737,3.7156715,2.9945488,0.063232988,0.91541052,0.3975237,0
1.8749073,3.1492352,-2.5932689,0.50840461,0.31321454,-0.80213547,0
0.58278996,-3.4796531,-3.7358367,-0.063232988,-0.91541052,-0.3975237,0
0.21442389,2.8903582,0.37269187,-0.8587935,0.25282431,-0.44559348,0
-0.37029874,3.3377542,3.607012,0.063232988,0.91541052,0.3975237,0
-0.13514136,1.6427867,2.0183363,0.8587935,-0.25282431,0.44559348,0
0.79065585,4.6995668,0.83666539,0.063232988,0.91541052,0.3975237,0
2.2168014,2.9828026,-2.2157843,0.50840461,0.31321454,-0.80213547,0
2.4183333,4.3981757,-0.72676229,0.8587935,-0.25282431,0.44559348,0
0.080694109,-0.51684219,-1.2338713,-0.8587935,0.25282431,-0.44559348,0
-0.10766983,4.1151304,2.0036917,0.063232988,0.91541052,0.3975237,0
1.5846108,-3.2262449,-4.1291871,-0.063232988,-0.91541052,-0.3975237,0
-0.68587053,-4.0754538,-2.184257,-0.063232988,-0.91541052,-0.3975237,0
1.5217237,-3.3148012,-4.218194,-0.063232988,-0.91541052,-0.3975237,0
-2.0895286,1.7411399,4.3645492,-0.50840461,-0.31321454,0.80213547,0
1.9003203,0.74221265,-3.6137955,0.50840461,0.31321454,-0.80213547,0
0.018749267,0.48132664,1.5527214,0.8587935,-0.25282431,0.44559348,0
-1.5602021,-4.8643041,0.50557685,-0.063232988,-0.91541052,-0.3975237,0
1.8765054,3.3859122,-2.4254646,0.50840461,0.31321454,-0.80213547,0
1.9944353,2.1485298,-2.8574462,0.50840461,0.31321454,-0.80213547,0
-1.157014,-0.56405401,2.7089069,0.8587935,-0.25282431,0.44559348,0
-1.9260204,-4.0457039,-0.094600916,-0.8587935,0.25282431,-0.44559348,0
-1.0403317,-0.85869145,2.7958846,0.8587935,-0.25282431,0.44559348,0
0.94630045,-3.7300978,-2.6222491,-0.063232988,-0.91541052,-0.3975237,0
1.0526483,4.5241981,0.90718579,0.063232988,0.91541052,0.3975237,0
-0.12174559,2.5957787,0.71633518,-0.8587935,0.25282431,-0.44559348,0
1.5793104,4.4522114,-1.2715261,-0.8587935,0.25282431,-0.44559348,0
-2.0678849,2.8672328,4.833149,0.063232988,0.91541052,0.3975237,0
-1.4675971,2.1732321,4.9134645,-0.50840461,-0.31321454,0.80213547,0
-0.020351171,1.9955783,-0.083753586,-0.8587935,0.25282431,-0.44559348,0
0.13661873,4.073019,2.1102986,0.063232988,0.91541052,0.3975237,0
-2.1516981,-0.18648601,3.4361193,-0.50840461,-0.31321454,0.80213547,0
1.9974594,3.2483714,-2.4607456,0.50840461,0.31321454,-0.80213547,0
-1.6986187,-5.2612047,0.8715651,-0.063232988,-0.91541052,-0.3975237,0
0.62534451,-3.2389672,-3.9312954,-0.063232988,-0.91541052,-0.3975237,0
2.073072,-3.0545993,-4.2716422,-0.063232988,-0.91541052,-0.3975237,0
1.8203945,3.8176432,-2.5383391,0.50840461,0.31321454,-0.80213547,0
-0.89747822,3.3594651,3.411792,0.063232988,0.91541052,0.3975237,0
1.9104151,-0.50055969,-3.94696,0.50840461,0.31321454,-0.80213547,0
-2.0253301,0.24165475,2.886548,-0.8587935,0.25282431,-0.44559348,0
-2.5350099,-4.4197083,1.8184252,-0.50840461,-0.31321454,0.80213547,0
-2.3046312,-3.4508398,2.0363259,-0.50840461,-0.31321454,0.80213547,0
-1.2186499,-3.9007771,1.2873927,0.8587935,-0.25282431,0.44559348,0
-2.0867617,-1.4738088,3.0329573,-0.50840461,-0.31321454,0.80213547,0
1.7805204,4.2426906,-2.0047185,0.50840461,0.31321454,-0.80213547,0
1.0119545,-2.0649118,-2.3536992,0.8587935,-0.25282431,0.44559348,0
1.5599809,-0.5141077,-4.3834634,0.50840461,0.31321454,-0.80213547,0
-0.6653266,3.8851564,2.4209824,0.063232988,0.91541052,0.3975237,0
1.5043674,-1.6747161,-4.5609221,0.50840461,0.31321454,-0.80213547,0
2.1609035,-1.3335136,-3.3575907,0.8587935,-0.25282431,0.44559348,0
-1.3215985,-0.41451764,0.99239683,-0.8587935,0.25282431,-0.44559348,0
-0.95639253,-1.6947603,-0.021070838,-0.8587935,0.25282431,-0.44559348,0
-1.8400033,-2.5597887,2.8434572,0.8587935,-0.25282431,0.44559348,0
1.2325385,1.7463754,-0.66790068,0.8587935,-0.25282431,0.44559348,0
1.161057,-2.7116013,-5.1612086,0.50840461,0.31321454,-0.80213547,0
2.2003691,-0.35429162,-3.717078,0.50840461,0.31321454,-0.80213547,0
-2.4136479,-1.6339664,2.9869833,-0.50840461,-0.31321454,0.80213547,0
-1.4140133,0.40987968,4.2553358,-0.50840461,-0.31321454,0.80213547,0
1.7221961,-0.226735,-3.7343724,0.50840461,0.31321454,-0.80213547,0
-0.80452299,-4.7471504,-0.64619613,-0.063232988,-0.91541052,-0.3975237,0
0.43592608,4.29915,1.7088883,0.063232988,0.91541052,0.3975237,0
1.9669824,0.70184064,-1.843972,0.8587935,-0.25282431,0.44559348,0
-1.8183057,-1.1488137,3.4252174,-0.50840461,-0.31321454,0.80213547,0
1.668692,-2.8062708,-4.9116554,-0.063232988,-0.91541052,-0.3975237,0
-1.7872186,-4.9420514,1.7107543,-0.50840461,-0.31321454,0.80213547,0
0.17432654,3.7729025,2.2264392,0.063232988,0.91541052,0.3975237,0
0.8431735,3.807632,1.6185195,0.8587935,-0.25282431,0.44559348,0
-1.6472563,-2.9005365,0.25374699,-0.8587935,0.25282431,-0.44559348,0
1.0518863,4.8639088,0.30018973,0.063232988,0.91541052,0.3975237,0
0.84497905,4.5303001,-0.35956693,-0.8587935,0.25282431,-0.44559348,0
1.2168136,4.733252,0.36282039,0.063232988,0.91541052,0.3975237,0
1.9399867,-1.482179,-4.2099681,0.50840461,0.31321454,-0.80213547,0
-2.2083366,2.7127542,4.6724977,-0.50840461,-0.31321454,0.80213547,0
1.543357,0.07076335,-3.8090172,0.50840461,0.31321454,-0.80213547,0
1.7420269,-0.7104578,-4.3914394,0.50840461,0.31321454,-0.80213547,0
-0.62933969,3.7403369,3.0209129,0.063232988,0.91541052,0.3975237,0
2.0007949,4.8089876,-1.9245875,0.50840461,0.31321454,-0.80213547,0
-1.8250206,-4.9161043,0.10354686,-0.063232988,-0.91541052,-0.3975237,0
-2.4773576,-3.6367795,2.0845308,-0.50840461,-0.31321454,0.80213547,0
-1.958415,-0.14170629,2.965579,-0.8587935,0.25282431,-0.44559348,0
-0.61983967,-3.6429067,0.59188926,0.8587935,-0.25282431,0.44559348,0
1.7990593,-0.92482579,-4.0693898,0.50840461,0.31321454,-0.80213547,0
1.2332728,-0.96279216,-1.358067,0.8587935,-0.25282431,0.44559348,0
2.6285212,4.5560775,-1.1804888,0.8587935,-0.25282431,0.44559348,0
-1.5484858,-5.4099183,1.0872078,-0.063232988,-0.91541052,-0.3975237,0
-1.6746325,2.9449458,4.8826618,0.063232988,0.91541052,0.3975237,0
1.842829,-3.157443,-4.3581419,-0.063232988,-0.91541052,-0.3975237,0
-2.125138,-3.6836114,0.5702424,-0.8587935,0.25282431,-0.44559348,0
-2.3419671,-4.1830597,1.6861613,-0.50840461,-0.31321454,0.80213547,0
-2.4927788,-0.9677276,3.1042237,-0.8587935,0.25282431,-0.44559348,0
-2.2615507,-0.23327482,3.3528047,-0.50840461,-0.31321454,0.80213547,0
1.6770873,-1.39767,-4.466188,0.50840461,0.31321454,-0.80213547,0
-0.76130217,-0.31903493,0.31339663,-0.8587935,0.25282431,-0.44559348,0
-0.36433029,3.2910287,3.5833697,0.063232988,0.91541052,0.3975237,0
-2.3318529,-2.6377501,2.247566,-0.8587935,0.25282431,-0.44559348,0
0.10503834,1.3588115,2.0803819,0.8587935,-0.25282431,0.44559348,0
-0.21866286,1.4097066,2.023916,0.8587935,-0.25282431,0.44559348,0
-2.6721199,-4.8832402,1.2160416,-0.50840461,-0.31321454,0.80213547,0
-1.8215011,-0.17281902,3.8268228,-0.50840461,-0.31321454,0.80213547,0
-0.44580972,-3.7527757,-2.2455237,-0.063232988,-0.91541052,-0.3975237,0
0.95132846,-1.4297593,-3.7440143,-0.8587935,0.25282431,-0.44559348,0
-0.54475284,3.6569726,2.9756739,0.063232988,0.91541052,0.3975237,0
1.1065841,4.4221087,0.74532723,0.063232988,0.91541052,0.3975237,0
-2.130363,-1.1245095,3.3889182,-0.50840461,-0.31321454,0.80213547,0
1.4966083,2.4490428,-0.55242765,0.8587935,-0.25282431,0.44559348,0
2.2592564,1.4781547,-3.0773749,0.50840461,0.31321454,-0.80213547,0
-2.2405286,-2.8388717,2.4050608,-0.50840461,-0.31321454,0.80213547,0
2.1592462,-0.22861493,-3.6676657,0.50840461,0.31321454,-0.80213547,0
0.88073218,1.5061215,-2.3998184,-0.8587935,0.25282431,-0.44559348,0
1.5907375,0.037516594,-3.8000326,0.50840461,0.31321454,-0.80213547,0
1.4346368,1.8279682,-3.0058746,-0.8587935,0.25282431,-0.44559348,0
1.9237665,-0.0018211603,-3.8133204,0.50840461,0.31321454,-0.80213547,0
-0.099889293,2.0163007,2.2171421,0.8587935,-0.25282431,0.44559348,0
-0.01115799,-4.3819427,-1.6811302,-0.063232988,-0.91541052,-0.3975237,0
-1.8779423,-4.8907208,0.11373758,-0.063232988,-0.91541052,-0.3975237,0
2.2801242,-0.27533829,-3.6703112,0.50840461,0.31321454,-0.80213547,0
1.5515246,1.9726293,-0.59392083,0.8587935,-0.25282431,0.44559348,0
0.29827511,-4.2370849,-2.0767848,-0.063232988,-0.91541052,-0.3975237,0
0.19540673,-0.31341195,0.67910838,0.8587935,-0.25282431,0.44559348,0
1.891059,0.035372734,-2.8105164,0.8587935,-0.25282431,0.44559348,0
1.4112375,4.9650865,-0.55448914,0.063232988,0.91541052,0.3975237,0
-2.4846692,-5.2090454,1.4029121,-0.50840461,-0.31321454,0.80213547,0
1.3237255,-2.5522058,-5.1811008,-0.063232988,-0.91541052,-0.3975237,0
1.6257658,5.1337976,-0.46123147,0.063232988,0.91541052,0.3975237,0
-1.7021351,1.0221537,3.0502026,-0.8587935,0.25282431,-0.44559348,0
0.68529892,4.3218069,1.5232544,0.063232988,0.91541052,0.3975237,0
2.2352133,-0.85889226,-3.9825268,0.50840461,0.31321454,-0.80213547,0
1.7417005,-3.2062063,-4.6461487,-0.063232988,-0.91541052,-0.3975237,0
-1.7244179,-4.5479951,-0.16926694,-0.063232988,-0.91541052,-0.3975237,0
-2.5887606,-5.2572465,1.1389856,-0.50840461,-0.31321454,0.80213547,0
-1.5382872,0.44232154,4.0500855,-0.50840461,-0.31321454,0.80213547,0
-2.2000535,-3.3591599,0.96838605,-0.8587935,0.25282431,-0.44559348,0
1.7817354,2.6058209,-2.7268076,0.50840461,0.31321454,-0.80213547,0
0.31289482,4.3602934,1.6322944,0.063232988,0.91541052,0.3975237,0
1.0434418,-3.0961056,-4.4930367,-0.063232988,-0.91541052,-0.3975237,0
-1.4115071,-0.98467457,2.955997,0.8587935,-0.25282431,0.44559348,0
-0.99540591,-3.349468,-0.82884812,-0.8587935,0.25282431,-0.44559348,0
-1.4040111,0.61280262,1.9290137,-0.8587935,0.25282431,-0.44559348,0
0.94156963,-3.1392179,-4.0586801,-0.063232988,-0.91541052,-0.3975237,0
-1.2463318,0.28372225,1.4389285,-0.8587935,0.25282431,-0.44559348,0
0.91570699,0.28889763,-3.1289003,-0.8587935,0.25282431,-0.44559348,0
2.4049315,2.622407,-2.2029433,0.50840461,0.31321454,-0.80213547,0
0.1688391,-4.2072344,-1.5620246,-0.063232988,-0.91541052,-0.3975237,0
-1.8214302,-1.7325965,3.0473566,-0.50840461,-0.31321454,0.80213547,0
2.9162467,4.2165194,-1.7364281,0.50840461,0.31321454,-0.80213547,0
1.9020172,-0.96001804,-4.2607594,0.50840461,0.31321454,-0.80213547,0
-2.0076082,-2.8355319,2.5306973,-0.50840461,-0.31321454,0.80213547,0
-2.1491785,-3.4503942,2.2224786,-0.50840461,-0.31321454,0.80213547,0
1.5405371,1.8705623,-0.7459656,0.8587935,-0.25282431,0.44559348,0
1.5711677,-0.67579138,-2.5987689,0.8587935,-0.25282431,0.44559348,0
-0.83274394,2.7077031,3.9429774,0.8587935,-0.25282431,0.44559348,0
0.75101608,-3.3076816,-4.0597191,-0.063232988,-0.91541052,-0.3975237,0
2.4023616,1.8879462,-2.5652061,0.50840461,0.31321454,-0.80213547,0
0.70552635,-1.3958236,-3.2497985,-0.8587935,0.25282431,-0.44559348,0
-2.1890266,-0.98324674,2.975199,-0.50840461,-0.31321454,0.80213547,0
-1.461421,-4.7293363,-0.32746792,-0.063232988,-0.91541052,-0.3975237,0
1.1550796,-1.2380036,-3.6910546,-0.8587935,0.25282431,-0.44559348,0
-2.0876403,0.63412839,3.5147333,-0.8587935,0.25282431,-0.44559348,0
0.88964474,-1.8214482,-3.5856197,-0.8587935,0.25282431,-0.44559348,0
1.5315244,-0.8984865,-2.6219761,0.8587935,-0.25282431,0.44559348,0
-0.89689815,-2.0021353,1.6642557,0.8587935,-0.25282431,0.44559348,0
-1.3787547,-2.4332111,-0.22637129,-0.8587935,0.25282431,-0.44559348,0
1.7485574,0.32014418,-3.6096931,0.50840461,0.31321454,-0.80213547,0
-1.4377239,-4.8632441,0.25255847,-0.063232988,-0.91541052,-0.3975237,0
-1.6851189,-5.079536,0.43583536,-0.063232988,-0.91541052,-0.3975237,0
-1.0678999,3.1028028,3.9023829,0.063232988,0.91541052,0.3975237,0
1.4123522,0.37644887,-3.8808529,-0.8587935,0.25282431,-0.44559348,0
1.9826815,-2.1809444,-4.5515242,0.50840461,0.31321454,-0.80213547,0
-2.2789106,-5.1260538,1.2073493,-0.063232988,-0.91541052,-0.3975237,0
-1.6763043,-5.2972517,1.1534584,0.8587935,-0.25282431,0.44559348,0
-1.9847089,-0.09730494,3.7322576,-0.50840461,-0.31321454,0.80213547,0
-2.4067633,-4.5143013,0.68314791,-0.8587935,0.25282431,-0.44559348,0
1.694087,-2.5590572,-3.4163728,0.8587935,-0.25282431,0.44559348,0
-1.2331896,-4.5550728,-0.78141475,-0.063232988,-0.91541052,-0.3975237,0
-2.6388409,-1.9882317,2.7842004,-0.50840461,-0.31321454,0.80213547,0
0.025134325,4.0798178,1.6331317,0.063232988,0.91541052,0.3975237,0
2.0127347,-0.64035326,-3.8331759,0.50840461,0.31321454,-0.80213547,0
-1.8705518,2.4307032,4.9201584,-0.50840461,-0.31321454,0.80213547,0
-0.5165903,3.6775899,2.8741937,0.063232988,0.91541052,0.3975237,0
0.19015205,3.8302424,1.9921064,0.063232988,0.91541052,0.3975237,0
1.808202,-2.9271564,-4.8945255,-0.063232988,-0.91541052,-0.3975237,0
-0.13020779,2.4395773,2.6983378,0.8587935,-0.25282431,0.44559348,0
0.60984492,4.4183059,0.85712385,0.063232988,0.91541052,0.3975237,0
0.1168139,4.1148777,1.4384868,0.063232988,0.91541052,0.3975237,0
-0.051978588,1.0457487,-0.6604194,-0.8587935,0.25282431,-0.44559348,0
-1.3377156,2.7852619,4.7889261,0.063232988,0.91541052,0.3975237,0
-1.6741753,-1.6469471,3.4789286,-0.50840461,-0.31321454,0.80213547,0
1.2929677,-3.0554895,-4.5149517,-0.063232988,-0.91541052,-0.3975237,0
-0.92320555,3.1002688,4.7376456,0.063232988,0.91541052,0.3975237,0
-1.0844643,3.1722546,3.9715154,0.063232988,0.91541052,0.3975237,0
0.17736936,-4.1340904,-2.0998175,-0.063232988,-0.91541052,-0.3975237,0
0.54249215,4.1673031,1.7817881,0.063232988,0.91541052,0.3975237,0
1.5546372,1.8046514,-3.0789843,0.50840461,0.31321454,-0.80213547,0
1.8738854,5.1806302,-1.7991965,0.50840461,0.31321454,-0.80213547,0
0.37093037,0.77123398,-1.0888386,-0.8587935,0.25282431,-0.44559348,0
1.8237764,0.6629914,-3.6130807,0.50840461,0.31321454,-0.80213547,0
2.029716,-0.84655041,-3.8078547,0.50840461,0.31321454,-0.80213547,0
1.6130543,3.6124372,-2.4227936,0.50840461,0.31321454,-0.80213547,0
-2.0266218,-2.0085368,3.1180696,-0.50840461,-0.31321454,0.80213547,0
-0.081888556,2.8053279,0.62872994,-0.8587935,0.25282431,-0.44559348,0
0.61276597,-3.6004968,-3.530086,-0.063232988,-0.91541052,-0.3975237,0
-1.4667437,-4.9491858,0.67478991,-0.063232988,-0.91541052,-0.3975237,0
1.5941765,3.548053,-1.8645092,-0.8587935,0.25282431,-0.44559348,0
-1.3567268,-2.3122454,0.29091275,-0.8587935,0.25282431,-0.44559348,0
1.8881607,4.2901506,-2.2412305,0.50840461,0.31321454,-0.80213547,0
0.65795481,-2.8694344,-2.1277514,0.8587935,-0.25282431,0.44559348,0
1.2750727,-3.0770497,-4.0942769,-0.063232988,-0.91541052,-0.3975237,0
-1.5576363,3.4737897,3.9681585,0.063232988,0.91541052,0.3975237,0
-1.0454276,-2.8927653,-0.45550227,-0.8587935,0.25282431,-0.44559348,0
-1.209849,3.1297913,4.006258,0.063232988,0.91541052,0.3975237,0
0.75991845,3.0817146,0.96939373,0.8587935,-0.25282431,0.44559348,0
-1.9391395,-0.42618155,3.7108939,-0.50840461,-0.31321454,0.80213547,0
1.5233884,-2.6851115,-5.0831757,-0.063232988,-0.91541052,-0.3975237,0
1.4322593,4.3945131,0.80565262,0.063232988,0.91541052,0.3975237,0
1.6094959,1.127746,-3.7093725,0.50840461,0.31321454,-0.80213547,0
1.540117,4.3411665,0.27185345,0.8587935,-0.25282431,0.44559348,0
-0.28022349,-4.020709,-1.7983527,-0.063232988,-0.91541052,-0.3975237,0
-2.2853403,0.41799271,3.5891454,-0.50840461,-0.31321454,0.80213547,0
-0.55898917,-3.9194775,-1.743273,-0.063232988,-0.91541052,-0.3975237,0
0.78733706,-2.9919987,-4.4346304,-0.063232988,-0.91541052,-0.3975237,0
1.6406051,-0.030626535,-4.1005797,0.50840461,0.31321454,-0.80213547,0
2.1223364,3.1892464,-2.212002,0.50840461,0.31321454,-0.80213547,0
-2.1096001,-2.242866,2.7496743,-0.50840461,-0.31321454,0.80213547,0
1.8381554,1.3658165,-1.6606339,0.8587935,-0.25282431,0.44559348,0
-0.33585405,-3.9620202,-2.016432,-0.063232988,-0.91541052,-0.3975237,0
0.8864342,0.40632403,-2.7224166,-0.8587935,0.25282431,-0.44559348,0
-1.8965793,-0.74226308,3.5809522,-0.50840461,-0.31321454,0.80213547,0
-1.4580414,-4.5773001,-0.89158225,-0.063232988,-0.91541052,-0.3975237,0
0.39366269,4.4433184,1.0373025,0.063232988,0.91541052,0.3975237,0
0.13258946,-4.2414398,-2.0214989,-0.063232988,-0.91541052,-0.3975237,0
2.6537368,4.4154453,-1.3217936,0.8587935,-0.25282431,0.44559348,0
-2.0285659,2.0620899,4.4201937,-0.50840461,-0.31321454,0.80213547,0
-1.5082793,3.1515782,4.3916163,0.063232988,0.91541052,0.3975237,0
0.75994855,-3.7915037,-2.981333,-0.063232988,-0.91541052,-0.3975237,0
1.0321815,2.3324628,0.49670339,0.8587935,-0.25282431,0.44559348,0
1.2680156,2.5589652,-2.41956,-0.8587935,0.25282431,-0.44559348,0
-2.1708226,1.7278341,4.1003618,-0.50840461,-0.31321454,0.80213547,0
0.84236968,4.1250563,1.6643503,0.063232988,0.91541052,0.3975237,0
2.2706904,-1.5623182,-4.261487,0.50840461,0.31321454,-0.80213547,0
-0.07789509,-0.41701046,-0.773157,-0.8587935,0.25282431,-0.44559348,0
0.49711275,2.3830943,1.0941417,0.8587935,-0.25282431,0.44559348,0
2.2279232,1.4449015,-2.6360028,0.8587935,-0.25282431,0.44559348,0
-1.5490061,3.1580896,4.7742281,0.063232988,0.91541052,0.3975237,0
-2.1617296,-3.9113202,1.9743195,-0.50840461,-0.31321454,0.80213547,0
-1.1930715,3.7410483,3.2618008,0.063232988,0.91541052,0.3975237,0
2.2190328,0.35405207,-3.4846871,0.50840461,0.31321454,-0.80213547,0
-0.71207213,-4.7583737,-0.61653638,-0.063232988,-0.91541052,-0.3975237,0
-1.2598338,-3.7115769,1.7198353,0.8587935,-0.25282431,0.44559348,0
1.1639984,4.7521677,-0.22507572,0.063232988,0.91541052,0.3975237,0
-1.6785583,-2.8939257,2.2998943,0.8587935,-0.25282431,0.44559348,0
1.5070808,0.85459751,-1.1588629,0.8587935,-0.25282431,0.44559348,0
-2.1334915,-3.9141643,1.9043046,-0.50840461,-0.31321454,0.80213547,0
-0.7581417,3.5989947,3.2819684,0.063232988,0.91541052,0.3975237,0
-2.0788383,-2.0069146,2.999073,-0.50840461,-0.31321454,0.80213547,0
2.4504402,4.8510561,-1.6218874,0.50840461,0.31321454,-0.80213547,0
2.4494483,2.5125108,-2.414228,0.50840461,0.31321454,-0.80213547,0
1.9796908,5.4507756,-1.1592326,0.063232988,0.91541052,0.3975237,0
1.6975979,-3.4250276,-4.1354342,-0.063232988,-0.91541052,-0.3975237,0
0.49539256,4.5776262,1.1000896,0.063232988,0.91541052,0.3975237,0
-0.81576663,3.467968,3.6169481,0.063232988,0.91541052,0.3975237,0
1.9344735,3.0555692,-0.62269187,0.8587935,-0.25282431,0.44559348,0
0.0010484457,-3.2605584,-1.1492567,0.8587935,-0.25282431,0.44559348,0
1.8470647,3.6145258,0.05740428,0.8587935,-0.25282431,0.44559348,0
1.3641255,2.3821449,-2.0680552,-0.8587935,0.25282431,-0.44559348,0
-0.86934668,3.6569259,3.2318866,0.063232988,0.91541052,0.3975237,0
-0.55764586,3.8056417,2.8613501,0.063232988,0.91541052,0.3975237,0
-0.47164118,-2.1622162,-1.5966489,-0.8587935,0.25282431,-0.44559348,0
-2.0270312,2.7933745,4.6722889,-0.50840461,-0.31321454,0.80213547,0
-1.4494631,2.1147935,3.3089008,-0.8587935,0.25282431,-0.44559348,0
-2.4501464,-3.1596556,2.0629029,-0.50840461,-0.31321454,0.80213547,0
-1.5333427,2.5001643,4.7609954,-0.50840461,-0.31321454,0.80213547,0
0.77177048,-3.6780558,-3.4027231,-0.063232988,-0.91541052,-0.3975237,0
-1.7561909,0.98926491,4.4895678,-0.50840461,-0.31321454,0.80213547,0
1.8610005,5.43997,-1.1494184,0.063232988,0.91541052,0.3975237,0
-0.88381642,0.59588468,1.2420636,-0.8587935,0.25282431,-0.44559348,0
0.26970506,4.2182279,0.68839502,-0.8587935,0.25282431,-0.44559348,0
-1.2954493,-4.7844419,-0.3385644,-0.063232988,-0.91541052,-0.3975237,0
-1.4044063,-4.6510835,-0.081777811,-0.063232988,-0.91541052,-0.3975237,0
-1.3633792,-4.8654127,-0.29285479,-0.063232988,-0.91541052,-0.3975237,0
-2.4879844,-1.2560256,2.8253937,-0.50840461,-0.31321454,0.80213547,0
0.87541664,4.266634,1.6516304,0.063232988,0.91541052,0.3975237,0
-0.13569188,-3.4331312,-2.7928455,-0.8587935,0.25282431,-0.44559348,0
-0.67455399,-0.79308206,0.068647504,-0.8587935,0.25282431,-0.44559348,0
-0.79605758,-4.1789007,-2.0348034,-0.063232988,-0.91541052,-0.3975237,0
-1.9899434,2.5062716,4.5750732,-0.50840461,-0.31321454,0.80213547,0
-2.1962297,-1.6951587,2.8841419,-0.50840461,-0.31321454,0.80213547,0
-2.3233917,-3.381547,2.2274983,-0.50840461,-0.31321454,0.80213547,0
-0.36518669,-4.7013497,-0.69341516,-0.063232988,-0.91541052,-0.3975237,0
-1.885981,0.82463819,4.0421782,-0.50840461,-0.31321454,0.80213547,0
-2.5586071,-2.7670546,2.2305243,-0.50840461,-0.31321454,0.80213547,0
-2.2621315,-1.9869646,1.9678693,-0.8587935,0.25282431,-0.44559348,0
-1.2215749,0.58556914,3.824403,0.8587935,-0.25282431,0.44559348,0
-1.045604,-0.914711,2.9563231,0.8587935,-0.25282431,0.44559348,0
-2.5560522,-5.0333314,1.3717339,-0.50840461,-0.31321454,0.80213547,0
2.261735,1.8851748,-2.7303867,0.50840461,0.31321454,-0.80213547,0
-1.1711223,-5.0793986,0.063905478,-0.063232988,-0.91541052,-0.3975237,0
1.1671722,4.2810888,1.313082,0.063232988,0.91541052,0.3975237,0
2.0059252,2.5753052,-2.935137,0.50840461,0.31321454,-0.80213547,0
-0.95987308,-0.41588426,2.5328205,0.8587935,-0.25282431,0.44559348,0
1.844735,-1.0037981,-4.3559275,0.50840461,0.31321454,-0.80213547,0
2.0187793,-1.5630249,-4.2792134,0.50840461,0.31321454,-0.80213547,0
-0.39971116,2.567929,3.3271139,0.8587935,-0.25282431,0.44559348,0
1.0384545,-2.3424335,-4.8127599,-0.8587935,0.25282431,-0.44559348,0
-1.9595484,-0.53408432,3.2895157,-0.50840461,-0.31321454,0.80213547,0
1.9004052,-2.425725,-4.6011267,0.50840461,0.31321454,-0.80213547,0
-1.6680727,-2.6195788,2.9145718,0.8587935,-0.25282431,0.44559348,0
0.99088645,-0.44592142,-3.1392024,-0.8587935,0.25282431,-0.44559348,0
-1.492987,1.1050406,4.2671933,-0.50840461,-0.31321454,0.80213547,0
0.41751301,3.6894052,2.2823374,0.063232988,0.91541052,0.3975237,0
-0.27407742,-4.4581618,-1.4238877,-0.063232988,-0.91541052,-0.3975237,0
1.6067129,-1.9574506,-4.9044971,0.50840461,0.31321454,-0.80213547,0
1.5551455,-2.9962494,-4.4491997,-0.063232988,-0.91541052,-0.3975237,0
-0.2938447,-4.6716919,-0.93494511,-0.063232988,-0.91541052,-0.3975237,0
1.9602098,1.4895766,-3.2164826,0.50840461,0.31321454,-0.80213547,0
1.947608,0.17855287,-3.830574,0.50840461,0.31321454,-0.80213547,0
-0.42781341,-3.9499822,-2.3979356,-0.063232988,-0.91541052,-0.3975237,0
-0.80360174,-4.5908127,-0.39278793,-0.063232988,-0.91541052,-0.3975237,0
1.8253794,-2.0421476,-4.7137914,0.50840461,0.31321454,-0.80213547,0
0.90187556,-2.9596179,-4.5558305,-0.8587935,0.25282431,-0.44559348,0
-1.6563818,-5.0435276,0.40373731,-0.063232988,-0.91541052,-0.3975237,0
-2.1929498,1.9382374,4.2872086,-0.50840461,-0.31321454,0.80213547,0
-1.8425531,-1.1265182,3.5813692,-0.50840461,-0.31321454,0.80213547,0
1.8129795,1.4736587,-1.5157458,0.8587935,-0.25282431,0.44559348,0
-0.44972491,2.6270165,3.4832132,0.8587935,-0.25282431,0.44559348,0
1.9489868,2.0024333,-2.7860031,0.50840461,0.31321454,-0.80213547,0
-2.4790704,-2.2765989,2.595819,-0.50840461,-0.31321454,0.80213547,0
-2.0146227,-1.1009297,3.4434223,-0.50840461,-0.31321454,0.80213547,0
2.3375058,1.2382684,-3.1949992,0.50840461,0.31321454,-0.80213547,0
-2.3032515,-3.2604957,2.1147239,-0.50840461,-0.31321454,0.80213547,0
1.2155788,-0.19990452,-1.6495275,0.8587935,-0.25282431,0.44559348,0
-1.8964696,-1.0991256,3.2398219,-0.50840461,-0.31321454,0.80213547,0
2.184474,1.1515045,-3.1245904,0.50840461,0.31321454,-0.80213547,0
0.35727727,-0.84532028,-2.3470833,-0.8587935,0.25282431,-0.44559348,0
-0.07888341,-4.2068734,-1.1194403,-0.063232988,-0.91541052,-0.3975237,0
-0.2304635,3.9102297,2.420923,0.063232988,0.91541052,0.3975237,0
0.28432488,4.4038515,1.2245009,0.063232988,0.91541052,0.3975237,0
-1.2659245,2.8122175,2.7481451,-0.8587935,0.25282431,-0.44559348,0
1.5240374,-2.5027432,-3.2664638,0.8587935,-0.25282431,0.44559348,0
2.2063463,-2.283812,-4.6086497,0.50840461,0.31321454,-0.80213547,0
0.79159284,2.7746341,-1.4000841,-0.8587935,0.25282431,-0.44559348,0
0.56841731,4.5219707,1.1450367,0.063232988,0.91541052,0.3975237,0
-2.1182137,-4.791317,1.806789,-0.50840461,-0.31321454,0.80213547,0
0.35772961,-3.6958823,-3.235456,-0.063232988,-0.91541052,-0.3975237,0
0.11789691,3.7945156,2.5655403,0.063232988,0.91541052,0.3975237,0
1.1679994,-0.60046625,-3.6017666,-0.8587935,0.25282431,-0.44559348,0
-0.86144519,-4.3057413,-1.1977787,-0.063232988,-0.91541052,-0.3975237,0
1.216691,2.7450836,-1.7447633,-0.8587935,0.25282431,-0.44559348,0
-1.47664,-5.2980022,0.6709981,-0.063232988,-0.91541052,-0.3975237,0
1.0999401,4.5651336,0.7292521,0.063232988,0.91541052,0.3975237,0
-0.60493529,3.8551159,2.9152272,0.063232988,0.91541052,0.3975237,0
0.25435543,-3.8295798,-2.396935,-0.063232988,-0.91541052,-0.3975237,0
0.34010661,1.0036159,-1.3900189,-0.8587935,0.25282431,-0.44559348,0
2.2585628,5.1221037,-1.6917276,0.50840461,0.31321454,-0.80213547,0
-0.48442569,3.5513606,2.7605653,0.063232988,0.91541052,0.3975237,0
0.71446991,4.1309943,1.539535,0.063232988,0.91541052,0.3975237,0
-1.1737632,2.5351198,4.713017,0.8587935,-0.25282431,0.44559348,0
1.418406,-0.71993637,-2.119585,0.8587935,-0.25282431,0.44559348,0
-2.1394577,-5.1640954,0.79014254,-0.063232988,-0.91541052,-0.3975237,0
0.66334534,4.8198471,0.53901267,0.063232988,0.91541052,0.3975237,0
1.9636484,0.64341795,-2.0479212,0.8587935,-0.25282431,0.44559348,0
-1.6039184,0.77431881,4.0302429,-0.50840461,-0.31321454,0.80213547,0
-1.2427442,-3.8038344,0.99292457,0.8587935,-0.25282431,0.44559348,0
0.6711154,2.5243626,1.7081041,0.8587935,-0.25282431,0.44559348,0
0.66085172,4.3111048,1.1258512,0.063232988,0.91541052,0.3975237,0
1.8921432,-1.4538234,-4.1713042,0.50840461,0.31321454,-0.80213547,0
1.7615573,4.6879563,-2.0813303,0.50840461,0.31321454,-0.80213547,0
1.6194139,-1.9760269,-4.5294552,0.50840461,0.31321454,-0.80213547,0
1.23913,4.6107554,0.46681142,0.063232988,0.91541052,0.3975237,0
2.113122,-2.3704419,-4.6852369,0.50840461,0.31321454,-0.80213547,0
1.3359637,4.4240541,0.44396496,0.063232988,0.91541052,0.3975237,0
2.2268887,5.206748,-1.5606532,0.50840461,0.31321454,-0.80213547,0
-1.7711048,-1.8122474,3.1477611,-0.50840461,-0.31321454,0.80213547,0
-1.6195762,0.89064652,4.0719032,-0.50840461,-0.31321454,0.80213547,0
-1.0757582,3.3865156,3.7221749,0.063232988,0.91541052,0.3975237,0
2.3386817,-1.1000478,-3.7683356,0.8587935,-0.25282431,0.44559348,0
1.0558451,-3.228548,-4.4797106,-0.063232988,-0.91541052,-0.3975237,0
1.0254626,-0.49567223,-3.2653549,-0.8587935,0.25282431,-0.44559348,0
1.522248,5.2746816,-0.93227005,0.063232988,0.91541052,0.3975237,0
-0.96674752,3.7767897,3.0225167,0.063232988,0.91541052,0.3975237,0
-1.3502644,3.5177817,3.8943288,0.063232988,0.91541052,0.3975237,0
-1.6640124,1.5500894,4.2998624,-0.50840461,-0.31321454,0.80213547,0
-1.8734615,-4.4621134,2.1271465,-0.50840461,-0.31321454,0.80213547,0
-1.6645138,2.8063788,4.8661175,0.063232988,0.91541052,0.3975237,0
