4.8012567,1.754009,-2.3208971,0.68420523,0.69859362,-0.20935637,0
-3.8343232,-2.5951865,1.7445593,-0.68420523,-0.69859362,0.20935637,0
-2.1360073,-4.9820471,-0.2980566,-0.68420523,-0.69859362,0.20935637,0
0.96587706,-3.0098841,-1.7644347,-0.46339017,0.19477534,-0.86448371,0
5.1177139,1.5010633,-2.574713,0.68420523,0.69859362,-0.20935637,0
2.1011577,5.2580209,-0.20341778,0.68420523,0.69859362,-0.20935637,0
-2.305645,2.8919849,1.6749415,-0.5631454,0.68849796,0.45698771,0
2.1883912,-2.4325554,-2.4374623,-0.46339017,0.19477534,-0.86448371,0
1.1847219,6.2427292,0.91636372,-0.5631454,0.68849796,0.45698771,0
-1.0382967,3.3612444,2.0833664,0.46339017,-0.19477534,0.86448371,0
-1.4517214,-0.15818229,1.2454344,0.46339017,-0.19477534,0.86448371,0
-1.6889985,-4.5087738,-0.82670093,-0.46339017,0.19477534,-0.86448371,0
0.72220892,-0.040925086,0.0088466853,0.46339017,-0.19477534,0.86448371,0
5.0529518,0.032755733,-2.3726435,0.5631454,-0.68849796,-0.45698771,0
0.88724542,5.8170094,1.3691649,-0.5631454,0.68849796,0.45698771,0
-1.0647266,4.2189651,1.2999439,-0.5631454,0.68849796,0.45698771,0
-4.6936188,-2.0908494,1.907465,-0.68420523,-0.69859362,0.20935637,0
5.4541035,0.94264197,-3.1548989,0.68420523,0.69859362,-0.20935637,0
1.6638736,1.9466571,0.22118759,0.46339017,-0.19477534,0.86448371,0
-0.90409064,4.0887499,1.4827394,-0.5631454,0.68849796,0.45698771,0
-0.60468125,1.6729033,0.14424241,-0.46339017,0.19477534,-0.86448371,0
-1.22803,3.7557998,1.2619333,-0.5631454,0.68849796,0.45698771,0
-2.9153361,2.0884409,1.7595704,-0.5631454,0.68849796,0.45698771,0
4.2653718,-0.70867532,-2.3573844,0.5631454,-0.68849796,-0.45698771,0
-4.1253223,-2.3570032,1.7118273,-0.68420523,-0.69859362,0.20935637,0
2.2303705,4.5760999,-0.54400349,0.68420523,0.69859362,-0.20935637,0
-1.1434293,4.0750628,1.3300881,-0.5631454,0.68849796,0.45698771,0
-1.6200895,-4.6317935,-0.70120096,-0.46339017,0.19477534,-0.86448371,0
4.6367183,2.046463,-2.2059515,0.68420523,0.69859362,-0.20935637,0
-2.5621033,0.73597056,2.0587585,0.46339017,-0.19477534,0.86448371,0
-0.21495461,-3.7580936,-0.051006794,0.46339017,-0.19477534,0.86448371,0
4.2933316,-0.68898326,-2.376509,0.5631454,-0.68849796,-0.45698771,0
1.3071759,5.7617755,0.41829538,0.68420523,0.69859362,-0.20935637,0
0.93379068,-4.279604,-1.0687683,0.5631454,-0.68849796,-0.45698771,0
4.4183674,2.1696835,-2.4144454,0.68420523,0.69859362,-0.20935637,0
-4.0270205,-3.1069918,1.1861405,-0.68420523,-0.69859362,0.20935637,0
1.1222684,-4.073698,-1.3726251,0.5631454,-0.68849796,-0.45698771,0
-4.607121,0.7243064,2.0267813,-0.5631454,0.68849796,0.45698771,0
-0.80043006,4.156003,1.8826597,-0.5631454,0.68849796,0.45698771,0
2.4576011,-2.5532043,-2.2954512,0.5631454,-0.68849796,-0.45698771,0
0.24941999,1.2261945,-0.61749947,-0.46339017,0.19477534,-0.86448371,0
-3.264436,-3.9122367,1.0599809,-0.68420523,-0.69859362,0.20935637,0
1.9296587,3.4384811,-0.69078588,-0.46339017,0.19477534,-0.86448371,0
4.2975016,-0.37292421,-2.8580167,0.5631454,-0.68849796,-0.45698771,0
-3.6928189,1.5139234,1.8554945,-0.5631454,0.68849796,0.45698771,0
-0.77635705,-1.9072669,0.40012634,0.46339017,-0.19477534,0.86448371,0
2.0707645,-0.076362073,-0.38877219,0.46339017,-0.19477534,0.86448371,0
-1.9241577,-4.7601495,-0.5990119,-0.46339017,0.19477534,-0.86448371,0
-2.4284036,-3.9861808,-0.33111477,-0.46339017,0.19477534,-0.86448371,0
-0.1631242,1.4796176,1.1706191,0.46339017,-0.19477534,0.86448371,0
-3.8221362,-3.0278118,0.96493554,-0.68420523,-0.69859362,0.20935637,0
-4.108593,-2.9604232,0.81576133,-0.46339017,0.19477534,-0.86448371,0
0.95298076,-3.0519042,-1.6286196,-0.46339017,0.19477534,-0.86448371,0
-0.53549075,-4.7081475,-0.38022995,0.46339017,-0.19477534,0.86448371,0
-0.89663053,3.9604135,1.7609159,-0.5631454,0.68849796,0.45698771,0
-5.1297522,-1.0799153,2.6736948,-0.68420523,-0.69859362,0.20935637,0
0.7253176,-0.85463053,-1.2779738,-0.46339017,0.19477534,-0.86448371,0
2.7739604,4.3563499,-0.40244579,0.68420523,0.69859362,-0.20935637,0
2.076365,5.0511055,-0.40982389,0.68420523,0.69859362,-0.20935637,0
1.0542369,6.1961479,0.56268358,0.68420523,0.69859362,-0.20935637,0
0.47950721,-4.4663944,-1.2354705,0.5631454,-0.68849796,-0.45698771,0
-5.3092165,-0.41132832,2.5581422,-0.5631454,0.68849796,0.45698771,0
-1.8597133,1.6396511,1.7839658,0.46339017,-0.19477534,0.86448371,0
0.7605896,2.6803045,-0.43571711,-0.46339017,0.19477534,-0.86448371,0
3.2493289,3.5514159,-0.98311472,0.68420523,0.69859362,-0.20935637,0
3.4831214,3.1262202,-1.3922205,0.68420523,0.69859362,-0.20935637,0
0.95527291,4.9769592,0.23936796,-0.46339017,0.19477534,-0.86448371,0
3.5565155,3.7331767,-0.48311663,0.68420523,0.69859362,-0.20935637,0
2.1476698,-2.550703,-2.0395424,0.5631454,-0.68849796,-0.45698771,0
3.4188478,-1.5731432,-2.4659495,0.5631454,-0.68849796,-0.45698771,0
0.74651241,-4.8354735,-0.76028872,0.5631454,-0.68849796,-0.45698771,0
-2.6223595,0.0055572167,1.9412667,0.46339017,-0.19477534,0.86448371,0
0.67929959,5.451582,1.3677459,-0.5631454,0.68849796,0.45698771,0
-0.0081710815,-2.8763361,-0.28464961,0.46339017,-0.19477534,0.86448371,0
-4.1328149,0.91064799,2.444289,-0.5631454,0.68849796,0.45698771,0
2.2244325,-2.0360727,-2.1346023,-0.46339017,0.19477534,-0.86448371,0
-4.2971835,-2.6210361,2.0349581,-0.68420523,-0.69859362,0.20935637,0
3.3906984,3.505729,-0.89888024,0.68420523,0.69859362,-0.20935637,0
4.2049952,2.5881934,-1.6666279,0.68420523,0.69859362,-0.20935637,0
4.7358947,2.0789278,-1.7071767,0.68420523,0.69859362,-0.20935637,0
-2.7002976,-4.0822473,0.56151056,-0.68420523,-0.69859362,0.20935637,0
3.657249,-1.8189574,-1.9349927,0.5631454,-0.68849796,-0.45698771,0
-2.1542511,-5.174159,0.18577909,-0.68420523,-0.69859362,0.20935637,0
2.4298296,-2.5671225,-2.1437461,0.5631454,-0.68849796,-0.45698771,0
1.4825442,5.8696318,-0.1507864,0.68420523,0.69859362,-0.20935637,0
-0.56230164,-3.6686037,0.17171717,0.46339017,-0.19477534,0.86448371,0
-2.7930031,1.1424361,1.0136361,-0.46339017,0.19477534,-0.86448371,0
-4.0305357,-0.80041414,2.7552438,0.46339017,-0.19477534,0.86448371,0
1.6795835,3.1488242,0.20877218,0.46339017,-0.19477534,0.86448371,0
0.035970449,5.4616742,0.99797726,-0.5631454,0.68849796,0.45698771,0
0.51721358,5.5466199,0.65635824,-0.5631454,0.68849796,0.45698771,0
5.3376718,1.5014853,-2.1147478,0.68420523,0.69859362,-0.20935637,0
4.4302163,2.3093309,-2.2750833,0.68420523,0.69859362,-0.20935637,0
-2.5464544,2.5725739,1.6260204,-0.5631454,0.68849796,0.45698771,0
1.6703269,5.7694187,0.73254251,0.68420523,0.69859362,-0.20935637,0
-4.8090711,-1.8122511,2.0073569,-0.68420523,-0.69859362,0.20935637,0
4.7473941,1.7767017,-2.4983532,0.68420523,0.69859362,-0.20935637,0
-2.8089135,-4.3340826,0.0033884048,-0.68420523,-0.69859362,0.20935637,0
3.3508453,3.4040849,-0.89147377,0.68420523,0.69859362,-0.20935637,0
-1.9874525,-5.3810754,0.37788916,-0.68420523,-0.69859362,0.20935637,0
4.4696541,-0.83800685,-2.159528,0.5631454,-0.68849796,-0.45698771,0
-1.4662323,-5.861804,-0.65451717,-0.68420523,-0.69859362,0.20935637,0
-5.2331309,-1.2080624,2.0827429,-0.68420523,-0.69859362,0.20935637,0
0.85628343,-3.8457897,-1.7162929,0.5631454,-0.68849796,-0.45698771,0
2.0550575,5.4608097,0.43027735,0.68420523,0.69859362,-0.20935637,0
1.8423398,5.4379816,0.82663679,0.68420523,0.69859362,-0.20935637,0
0.37100768,-4.2147183,-1.7579782,-0.46339017,0.19477534,-0.86448371,0
2.9420464,4.2623215,-0.2353301,0.68420523,0.69859362,-0.20935637,0
1.1177747,6.0249062,0.80475092,0.68420523,0.69859362,-0.20935637,0
-3.6307712,-3.1035237,0.8633697,-0.68420523,-0.69859362,0.20935637,0
-2.9705632,-3.8147652,0.55982351,-0.68420523,-0.69859362,0.20935637,0
-3.8056912,-3.1943064,0.6743958,-0.68420523,-0.69859362,0.20935637,0
-1.3400072,-2.6642771,0.88446403,0.46339017,-0.19477534,0.86448371,0
0.29875004,1.7278836,-0.33704007,-0.46339017,0.19477534,-0.86448371,0
4.7406707,-0.19679037,-2.85075,0.5631454,-0.68849796,-0.45698771,0
-2.6218567,-4.346209,0.020001411,-0.68420523,-0.69859362,0.20935637,0
4.0411534,2.5508802,-1.3861856,0.68420523,0.69859362,-0.20935637,0
-3.3060861,-3.6242332,0.77871847,-0.68420523,-0.69859362,0.20935637,0
-3.6470478,0.17312711,1.5491097,-0.46339017,0.19477534,-0.86448371,0
0.26584864,-4.7773323,-1.4877946,0.5631454,-0.68849796,-0.45698771,0
2.0047989,-2.6651073,-2.4210186,0.5631454,-0.68849796,-0.45698771,0
-1.296284,2.3797772,0.55398476,-0.46339017,0.19477534,-0.86448371,0
-0.51781845,-3.6075492,-1.2589028,-0.46339017,0.19477534,-0.86448371,0
0.96295905,5.5049672,1.2966132,-0.5631454,0.68849796,0.45698771,0
4.0697637,-1.11668,-2.4723423,0.5631454,-0.68849796,-0.45698771,0
4.5617123,2.0541444,-2.0714006,0.68420523,0.69859362,-0.20935637,0
-3.9276154,1.23852,2.0748961,-0.5631454,0.68849796,0.45698771,0
-1.036395,-3.6394162,-0.83313346,-0.46339017,0.19477534,-0.86448371,0
-2.6931138,-4.3793268,0.89687252,-0.68420523,-0.69859362,0.20935637,0
4.4210086,2.1586528,-2.0610745,0.68420523,0.69859362,-0.20935637,0
3.1569924,3.6031842,-0.93809652,0.68420523,0.69859362,-0.20935637,0
4.4584365,1.8750358,-1.5259352,0.46339017,-0.19477534,0.86448371,0
4.8819637,1.3874824,-2.5511646,0.68420523,0.69859362,-0.20935637,0
0.63849092,-0.76937616,0.28649491,0.46339017,-0.19477534,0.86448371,0
-4.5957923,0.62726653,2.3602648,-0.5631454,0.68849796,0.45698771,0
3.5598457,3.0676248,-1.58003,0.68420523,0.69859362,-0.20935637,0
1.2175126,-1.215525,-1.5623153,-0.46339017,0.19477534,-0.86448371,0
2.1637671,-3.3490922,-1.4783887,0.5631454,-0.68849796,-0.45698771,0
1.1916641,-0.73957413,-1.6086092,-0.46339017,0.19477534,-0.86448371,0
1.0636649,-3.4842417,-2.0323553,0.5631454,-0.68849796,-0.45698771,0
-4.4535108,-1.0296696,2.6469452,0.46339017,-0.19477534,0.86448371,0
-2.0159063,0.18791759,0.49275488,-0.46339017,0.19477534,-0.86448371,0
-5.2604394,-0.58602989,3.0430682,0.46339017,-0.19477534,0.86448371,0
1.1004066,5.9302044,1.141655,-0.5631454,0.68849796,0.45698771,0
4.7148418,1.8001752,-2.7762313,0.68420523,0.69859362,-0.20935637,0
2.4829307,-2.4579473,-2.2878091,0.5631454,-0.68849796,-0.45698771,0
2.84183,2.985239,-0.26188779,0.46339017,-0.19477534,0.86448371,0
-4.6042132,-2.0555179,2.0079207,-0.68420523,-0.69859362,0.20935637,0
0.67982906,-0.079396486,-1.1244323,-0.46339017,0.19477534,-0.86448371,0
1.5159013,-3.4740107,-1.9566315,0.5631454,-0.68849796,-0.45698771,0
-3.8374674,0.9958905,2.4089534,-0.5631454,0.68849796,0.45698771,0
1.5543929,4.7332325,0.81284189,0.46339017,-0.19477534,0.86448371,0
5.2652411,1.4147395,-2.2318459,0.68420523,0.69859362,-0.20935637,0
-0.6385603,-5.9356065,-0.50989914,0.5631454,-0.68849796,-0.45698771,0
-0.48447561,4.6010876,1.008153,-0.5631454,0.68849796,0.45698771,0
-2.6059933,2.7243867,1.6807904,-0.5631454,0.68849796,0.45698771,0
4.634315,-0.58181024,-2.522552,0.5631454,-0.68849796,-0.45698771,0
-1.919745,-5.5054069,-0.24305105,-0.68420523,-0.69859362,0.20935637,0
2.7062182,4.6092997,-0.14362621,0.68420523,0.69859362,-0.20935637,0
-2.8075323,1.6763529,2.3349323,-0.5631454,0.68849796,0.45698771,0
-0.23245025,4.409349,0.44820738,-0.46339017,0.19477534,-0.86448371,0
1.7778337,5.4517298,0.27134275,0.68420523,0.69859362,-0.20935637,0
-3.1510184,-3.9447093,0.91521311,-0.68420523,-0.69859362,0.20935637,0
3.6085725,2.4696758,-0.9041748,0.46339017,-0.19477534,0.86448371,0
-5.4799986,-0.82001275,2.6553416,-0.68420523,-0.69859362,0.20935637,0
3.2569134,-0.79471457,-2.5426347,-0.46339017,0.19477534,-0.86448371,0
-0.14009142,-3.4354305,-1.2749398,-0.46339017,0.19477534,-0.86448371,0
-2.1406584,-4.9282317,-0.1267457,-0.68420523,-0.69859362,0.20935637,0
0.25124216,-4.8572488,-1.5129416,0.5631454,-0.68849796,-0.45698771,0
-5.7556343,-0.63073659,2.3553457,-0.68420523,-0.69859362,0.20935637,0
-5.4156027,-1.2560538,2.0947213,-0.68420523,-0.69859362,0.20935637,0
-2.7058222,-4.6140594,0.47740316,-0.68420523,-0.69859362,0.20935637,0
-1.3714505,-1.6564082,1.0055161,0.46339017,-0.19477534,0.86448371,0
-3.2127042,-3.4828913,1.0675235,-0.68420523,-0.69859362,0.20935637,0
1.7496972,5.5200734,-0.10879421,0.68420523,0.69859362,-0.20935637,0
-1.5099757,-5.9430857,-0.55445337,-0.68420523,-0.69859362,0.20935637,0
1.2485235,6.2292895,0.39032555,0.68420523,0.69859362,-0.20935637,0
-3.3410954,1.3620003,2.7541795,-0.5631454,0.68849796,0.45698771,0
-3.7300391,-1.2285297,1.1008562,-0.46339017,0.19477534,-0.86448371,0
3.8680475,2.7337155,-1.2481484,0.68420523,0.69859362,-0.20935637,0
-3.6377251,-3.189965,1.4877658,-0.68420523,-0.69859362,0.20935637,0
-1.8157108,0.53481781,0.71227556,-0.46339017,0.19477534,-0.86448371,0
-0.54525888,-0.12617147,-0.17552157,-0.46339017,0.19477534,-0.86448371,0
-2.3469501,-1.9082996,0.37986326,-0.46339017,0.19477534,-0.86448371,0
-0.1379528,-4.9967446,-1.2272508,0.5631454,-0.68849796,-0.45698771,0
-0.18905902,5.0047607,1.2862253,-0.5631454,0.68849796,0.45698771,0
-3.0935235,2.3291759,1.5915697,-0.5631454,0.68849796,0.45698771,0
-1.7953646,-5.8976951,-1.0856013,-0.68420523,-0.69859362,0.20935637,0
2.6457961,0.14519826,-2.0883512,-0.46339017,0.19477534,-0.86448371,0
-0.82125258,4.3668566,0.8087697,-0.5631454,0.68849796,0.45698771,0
0.024958372,-5.3474779,-0.97897053,0.5631454,-0.68849796,-0.45698771,0
3.6686344,3.5070605,-0.5618825,0.68420523,0.69859362,-0.20935637,0
-0.47416759,4.5679526,1.5146294,-0.5631454,0.68849796,0.45698771,0
0.9982667,3.0112202,-0.56747603,-0.46339017,0.19477534,-0.86448371,0
-2.277729,2.8589406,1.4876256,-0.5631454,0.68849796,0.45698771,0
2.0795522,-1.2677013,-1.8792022,-0.46339017,0.19477534,-0.86448371,0
0.8371141,-3.1214414,-0.53112364,0.46339017,-0.19477534,0.86448371,0
-2.0515664,-5.3513451,-0.62441254,-0.68420523,-0.69859362,0.20935637,0
-4.0035377,-0.52475929,2.5764101,0.46339017,-0.19477534,0.86448371,0
2.435221,-1.1417691,-0.98545039,0.46339017,-0.19477534,0.86448371,0
2.7553439,-2.326973,-2.0818172,0.5631454,-0.68849796,-0.45698771,0
2.5614481,4.0000634,-0.91479301,-0.46339017,0.19477534,-0.86448371,0
0.13224834,0.52912974,-0.54450411,-0.46339017,0.19477534,-0.86448371,0
5.2878642,1.5244924,-2.3612783,0.68420523,0.69859362,-0.20935637,0
-4.9734468,0.24841017,2.5537117,-0.5631454,0.68849796,0.45698771,0
1.0118825,-3.705893,-1.6461173,0.5631454,-0.68849796,-0.45698771,0
-0.90062952,-5.6907272,-1.1707635,0.5631454,-0.68849796,-0.45698771,0
2.6913135,0.69370848,-1.639104,-0.46339017,0.19477534,-0.86448371,0
1.1829709,-1.9301238,-0.51573539,0.46339017,-0.19477534,0.86448371,0
2.0821567,5.0561886,0.040985584,0.68420523,0.69859362,-0.20935637,0
1.2337341,5.6581225,-0.063697338,-0.46339017,0.19477534,-0.86448371,0
1.8013651,0.48413086,-1.2061799,-0.46339017,0.19477534,-0.86448371,0
-1.1699877,-6.3059926,-0.59201002,-0.68420523,-0.69859362,0.20935637,0
2.1835709,-2.649756,-1.7979125,0.5631454,-0.68849796,-0.45698771,0
2.3384566,2.6096113,-1.0249329,-0.46339017,0.19477534,-0.86448371,0
-1.97647,-5.4798408,-0.12135458,-0.68420523,-0.69859362,0.20935637,0
-3.6585512,-3.2156367,1.2180204,-0.68420523,-0.69859362,0.20935637,0
-2.4661989,2.8234136,1.3198292,-0.5631454,0.68849796,0.45698771,0
-2.4584579,-4.4648709,0.13893318,-0.68420523,-0.69859362,0.20935637,0
-1.8028498,1.518155,2.0730553,0.46339017,-0.19477534,0.86448371,0
0.20931149,1.7607949,0.99718189,0.46339017,-0.19477534,0.86448371,0
1.7599077,2.7528841,-0.94834661,-0.46339017,0.19477534,-0.86448371,0
2.6190422,4.3137398,-0.42432117,0.68420523,0.69859362,-0.20935637,0
2.5243006,-2.3047054,-2.1587479,0.5631454,-0.68849796,-0.45698771,0
2.9996946,-2.2303002,-1.3656739,0.5631454,-0.68849796,-0.45698771,0
2.4793301,4.7058706,-0.16839743,0.68420523,0.69859362,-0.20935637,0
-4.0895247,-1.1469706,1.4121119,-0.46339017,0.19477534,-0.86448371,0
1.3118117,-3.726264,-1.2747271,0.5631454,-0.68849796,-0.45698771,0
1.1023772,6.3227658,0.64574766,-0.5631454,0.68849796,0.45698771,0
0.87400365,3.4815276,-0.30080581,-0.46339017,0.19477534,-0.86448371,0
-2.0009532,3.5659165,1.1963328,-0.5631454,0.68849796,0.45698771,0
-1.521426,-5.6424031,0.17317915,-0.68420523,-0.69859362,0.20935637,0
0.54248405,5.7474089,0.79494905,-0.5631454,0.68849796,0.45698771,0
-0.75063205,4.3625197,1.5960605,-0.5631454,0.68849796,0.45698771,0
1.8511322,0.13676226,-1.3641597,-0.46339017,0.19477534,-0.86448371,0
-3.0560122,-1.5244008,0.75067401,-0.46339017,0.19477534,-0.86448371,0
-3.4339526,-0.34478647,1.2924886,-0.46339017,0.19477534,-0.86448371,0
-0.48854065,-5.376152,-1.1045847,0.5631454,-0.68849796,-0.45698771,0
-5.0276818,-1.6324451,2.6925652,-0.68420523,-0.69859362,0.20935637,0
-0.46853018,-0.4724884,-0.61680919,-0.46339017,0.19477534,-0.86448371,0
-0.82971954,-3.7709069,0.30666685,0.46339017,-0.19477534,0.86448371,0
-0.35726243,-1.0039499,0.41976666,0.46339017,-0.19477534,0.86448371,0
-2.671262,-2.9097872,1.4897661,0.46339017,-0.19477534,0.86448371,0
-5.0655804,-1.4633311,2.0228615,-0.68420523,-0.69859362,0.20935637,0
-4.6850262,0.19170129,2.6780396,-0.5631454,0.68849796,0.45698771,0
1.0311623,-4.1907964,-1.4130132,0.5631454,-0.68849796,-0.45698771,0
3.3232303,3.6255851,-1.3805616,0.68420523,0.69859362,-0.20935637,0
-0.74885702,-2.3778164,0.40444946,0.46339017,-0.19477534,0.86448371,0
3.8348184,3.0586717,-1.0569291,0.68420523,0.69859362,-0.20935637,0
0.27374077,5.5101352,1.1152425,-0.5631454,0.68849796,0.45698771,0
5.0907187,0.15927118,-2.9558303,0.5631454,-0.68849796,-0.45698771,0
-2.0002532,1.8948843,2.2498617,0.46339017,-0.19477534,0.86448371,0
-5.9353962,-0.43880272,2.3048201,-0.5631454,0.68849796,0.45698771,0
-1.5142486,-6.1237712,-1.3700938,0.5631454,-0.68849796,-0.45698771,0
0.28525651,2.306675,0.90597391,0.46339017,-0.19477534,0.86448371,0
3.4900489,3.4091349,-1.0753314,0.68420523,0.69859362,-0.20935637,0
1.7084987,-3.4314187,-1.5391996,0.5631454,-0.68849796,-0.45698771,0
-0.70114762,1.0791973,0.086374581,-0.46339017,0.19477534,-0.86448371,0
2.046855,-2.8763647,-1.7171987,0.5631454,-0.68849796,-0.45698771,0
0.18718815,-4.8900628,-0.99685526,0.5631454,-0.68849796,-0.45698771,0
-0.29134417,-3.5479987,-1.0874991,-0.46339017,0.19477534,-0.86448371,0
2.4391291,-2.7551486,-1.6382676,0.5631454,-0.68849796,-0.45698771,0
1.3074932,-3.4774563,-1.8903729,0.5631454,-0.68849796,-0.45698771,0
-2.9212236,2.001889,2.1113145,-0.5631454,0.68849796,0.45698771,0
-2.3223364,-4.8641911,-0.2391777,-0.68420523,-0.69859362,0.20935637,0
-1.8804905,-5.8113441,-0.73352671,-0.68420523,-0.69859362,0.20935637,0
-4.1747246,0.92904317,2.3624427,-0.5631454,0.68849796,0.45698771,0
-1.7632301,3.1930165,1.9960005,-0.5631454,0.68849796,0.45698771,0
0.39645338,5.6807103,1.0585561,-0.5631454,0.68849796,0.45698771,0
-2.6603913,1.7790606,2.4710002,-0.5631454,0.68849796,0.45698771,0
1.1488293,-2.7900727,-1.702163,-0.46339017,0.19477534,-0.86448371,0
4.5358243,-0.42267501,-2.2378831,0.5631454,-0.68849796,-0.45698771,0
-2.0762546,-2.9234488,1.1564655,0.46339017,-0.19477534,0.86448371,0
1.6721072,-3.0929494,-1.9931777,0.5631454,-0.68849796,-0.45698771,0
5.0925369,1.6281339,-2.420866,0.68420523,0.69859362,-0.20935637,0
4.1616354,0.59284198,-2.7583256,-0.46339017,0.19477534,-0.86448371,0
-1.7504547,3.1598959,2.0645885,-0.5631454,0.68849796,0.45698771,0
-5.0535469,0.14518863,2.6132247,-0.5631454,0.68849796,0.45698771,0
-2.9060264,-1.9308996,1.8353102,0.46339017,-0.19477534,0.86448371,0
0.7140274,6.0644279,0.2908082,-0.5631454,0.68849796,0.45698771,0
3.7023442,2.9514823,-1.0398672,0.68420523,0.69859362,-0.20935637,0
0.16832042,-2.8155935,-0.36747909,0.46339017,-0.19477534,0.86448371,0
-4.3049994,-2.461287,2.0213771,-0.68420523,-0.69859362,0.20935637,0
4.0620022,1.4946727,-2.3076575,-0.46339017,0.19477534,-0.86448371,0
-4.6726751,-1.1360656,2.9854219,0.46339017,-0.19477534,0.86448371,0
-2.0970926,-4.9201441,0.1890173,-0.68420523,-0.69859362,0.20935637,0
4.0468445,2.8906124,-1.8049705,0.68420523,0.69859362,-0.20935637,0
-1.4275949,3.4930339,1.6038671,-0.5631454,0.68849796,0.45698771,0
1.4093361,-3.5486233,-1.6009609,0.5631454,-0.68849796,-0.45698771,0
2.525948,-2.4617388,-1.6779391,0.5631454,-0.68849796,-0.45698771,0
1.8976073,5.0455194,-0.19686222,0.68420523,0.69859362,-0.20935637,0
3.6435263,3.2993309,-1.0440812,0.68420523,0.69859362,-0.20935637,0
4.1669097,1.0979519,-1.4419167,0.46339017,-0.19477534,0.86448371,0
-3.9334664,0.69535989,2.4703496,-0.5631454,0.68849796,0.45698771,0
3.3239999,3.6269817,-1.2664361,0.68420523,0.69859362,-0.20935637,0
2.2559023,-2.8300581,-1.4126012,0.5631454,-0.68849796,-0.45698771,0
-3.1117668,-3.9046369,1.366601,-0.68420523,-0.69859362,0.20935637,0
0.22647405,-1.9883546,-0.1200695,0.46339017,-0.19477534,0.86448371,0
-1.983809,-2.6033041,1.047694,0.46339017,-0.19477534,0.86448371,0
2.1638408,-3.1405172,-1.4990871,0.5631454,-0.68849796,-0.45698771,0
5.125195,-0.014354467,-2.4146485,0.5631454,-0.68849796,-0.45698771,0
-0.0083038807,4.6909838,1.3464637,-0.5631454,0.68849796,0.45698771,0
2.1929748,4.833293,-0.18190193,0.68420523,0.69859362,-0.20935637,0
4.0012937,-1.110309,-1.9679816,0.5631454,-0.68849796,-0.45698771,0
-0.78653359,0.53332514,-0.24179995,-0.46339017,0.19477534,-0.86448371,0
-3.6878982,0.68649578,2.7270412,0.46339017,-0.19477534,0.86448371,0
0.47015047,0.93763059,0.45555609,0.46339017,-0.19477534,0.86448371,0
-4.9592018,-0.8137657,3.019568,0.46339017,-0.19477534,0.86448371,0
-2.2043633,-5.4041128,-0.77361536,-0.46339017,0.19477534,-0.86448371,0
1.8822101,1.3747244,-0.15238369,0.46339017,-0.19477534,0.86448371,0
0.95847857,0.38536561,-0.85087597,-0.46339017,0.19477534,-0.86448371,0
1.7835259,-0.23892038,-1.4399273,-0.46339017,0.19477534,-0.86448371,0
-0.6322186,-2.5200651,0.13638926,0.46339017,-0.19477534,0.86448371,0
0.85781264,6.2695131,0.46472645,-0.5631454,0.68849796,0.45698771,0
-1.6358067,-1.0977819,-0.14766157,-0.46339017,0.19477534,-0.86448371,0
-3.7518446,1.2584909,2.4444296,-0.5631454,0.68849796,0.45698771,0
2.170485,5.2049513,-0.17695999,0.68420523,0.69859362,-0.20935637,0
-1.9680414,-5.3070326,0.36906147,-0.68420523,-0.69859362,0.20935637,0
-5.3544178,-0.11329579,2.6485388,-0.5631454,0.68849796,0.45698771,0
-0.92175841,-4.6634531,-1.145678,-0.46339017,0.19477534,-0.86448371,0
-2.0148828,-0.55143875,0.43376172,-0.46339017,0.19477534,-0.86448371,0
4.4889765,1.8709613,-2.5580122,0.68420523,0.69859362,-0.20935637,0
-3.2647889,-3.6128943,0.90927553,-0.68420523,-0.69859362,0.20935637,0
-2.9707189,-3.8346989,0.98312664,-0.68420523,-0.69859362,0.20935637,0
3.8205297,-0.73640871,-2.992888,0.5631454,-0.68849796,-0.45698771,0
4.9037237,0.46999052,-3.1162605,0.5631454,-0.68849796,-0.45698771,0
-0.040479779,0.43260348,0.5345487,0.46339017,-0.19477534,0.86448371,0
2.9504676,-1.1149246,-2.3919504,-0.46339017,0.19477534,-0.86448371,0
-1.3683379,-5.8121095,-0.83075333,-0.68420523,-0.69859362,0.20935637,0
5.1662478,0.34333086,-3.1866844,0.5631454,-0.68849796,-0.45698771,0
-5.3851538,-1.0972282,2.2549129,-0.68420523,-0.69859362,0.20935637,0
-3.1773889,-0.52432454,0.93823183,-0.46339017,0.19477534,-0.86448371,0
-4.6770296,-1.7672639,2.5033634,-0.68420523,-0.69859362,0.20935637,0
1.7610645,5.3551574,0.07280159,0.68420523,0.69859362,-0.20935637,0
0.66695595,-3.9693005,-1.6009572,0.5631454,-0.68849796,-0.45698771,0
0.56438684,1.2230058,0.76917166,0.46339017,-0.19477534,0.86448371,0
-4.292181,-2.0536442,2.4925711,-0.68420523,-0.69859362,0.20935637,0
-1.726418,3.4516633,1.6015861,-0.5631454,0.68849796,0.45698771,0
5.6187906,1.0873796,-2.0036731,0.68420523,0.69859362,-0.20935637,0
1.7479706,-2.1603339,-2.2153575,-0.46339017,0.19477534,-0.86448371,0
-3.2569208,-0.22055888,1.215678,-0.46339017,0.19477534,-0.86448371,0
3.4243274,3.3318996,-0.77522445,0.68420523,0.69859362,-0.20935637,0
-1.6580708,3.4284425,1.7558361,-0.5631454,0.68849796,0.45698771,0
3.2442772,3.7279201,-0.70344782,0.68420523,0.69859362,-0.20935637,0
-1.0671117,1.3237967,1.531145,0.46339017,-0.19477534,0.86448371,0
-2.1965773,-1.5560874,1.4230084,0.46339017,-0.19477534,0.86448371,0
-3.8137259,-2.3577368,2.2839525,0.46339017,-0.19477534,0.86448371,0
-2.1921055,2.9233804,1.9415107,-0.5631454,0.68849796,0.45698771,0
-3.3516948,0.43063003,1.2087356,-0.46339017,0.19477534,-0.86448371,0
-1.9204112,2.7113445,2.1880851,-0.5631454,0.68849796,0.45698771,0
-2.8008375,2.1201375,1.6976039,-0.5631454,0.68849796,0.45698771,0
-1.8002284,3.4347358,1.3938522,-0.5631454,0.68849796,0.45698771,0
5.2296958,-0.14249074,-2.5133355,0.5631454,-0.68849796,-0.45698771,0
5.6229787,0.68744284,-3.0673442,0.68420523,0.69859362,-0.20935637,0
4.145175,2.6786909,-1.8330245,0.68420523,0.69859362,-0.20935637,0
-0.8966611,-0.19434136,-0.17339253,-0.46339017,0.19477534,-0.86448371,0
3.5040274,-1.4836192,-1.8146961,0.5631454,-0.68849796,-0.45698771,0
2.2490211,-1.6093442,-0.83997011,0.46339017,-0.19477534,0.86448371,0
-2.222584,2.291152,0.92170972,-0.46339017,0.19477534,-0.86448371,0
2.7103114,4.677948,-0.36719227,0.68420523,0.69859362,-0.20935637,0
-1.8677027,2.7342207,2.0997949,-0.5631454,0.68849796,0.45698771,0
-5.2033339,-1.045305,2.7329669,-0.68420523,-0.69859362,0.20935637,0
3.107409,3.4249551,-1.6786914,0.68420523,0.69859362,-0.20935637,0
4.3755183,2.2249033,-1.3056412,0.68420523,0.69859362,-0.20935637,0
4.0330052,-0.84730369,-2.8374729,0.5631454,-0.68849796,-0.45698771,0
2.5663035,4.2834182,-0.93056631,0.68420523,0.69859362,-0.20935637,0
0.74053717,-4.4585333,-0.7174778,0.5631454,-0.68849796,-0.45698771,0
-3.1831145,-3.7827163,0.80927229,-0.68420523,-0.69859362,0.20935637,0
-0.31083274,4.81598,0.75259662,-0.5631454,0.68849796,0.45698771,0
-4.0315785,-2.7723718,0.95708585,-0.68420523,-0.69859362,0.20935637,0
-2.0361505,0.80848509,1.8627217,0.46339017,-0.19477534,0.86448371,0
-3.0289814,1.4933244,2.4045818,-0.5631454,0.68849796,0.45698771,0
5.3029451,0.85122359,-3.1402111,0.68420523,0.69859362,-0.20935637,0
-4.176342,-1.7088102,2.2554092,0.46339017,-0.19477534,0.86448371,0
1.2692325,-3.917069,-1.1829884,0.46339017,-0.19477534,0.86448371,0
2.9757261,3.8771853,-0.94391251,0.68420523,0.69859362,-0.20935637,0
1.7217786,5.6513944,0.046397686,0.68420523,0.69859362,-0.20935637,0
3.5101397,0.095877238,-2.6287761,-0.46339017,0.19477534,-0.86448371,0
0.40337491,-2.2410583,-1.2239666,-0.46339017,0.19477534,-0.86448371,0
2.9734557,3.90996,-0.61733627,0.68420523,0.69859362,-0.20935637,0
0.023112059,5.0428872,1.0964715,-0.5631454,0.68849796,0.45698771,0
1.1358922,1.8943418,0.37747407,0.46339017,-0.19477534,0.86448371,0
-0.12884903,3.9514821,0.18081236,-0.46339017,0.19477534,-0.86448371,0
4.2765031,2.1240971,-2.2879465,0.68420523,0.69859362,-0.20935637,0
2.5912595,4.4977589,-0.57170391,0.68420523,0.69859362,-0.20935637,0
-4.013588,-2.7298131,1.977721,-0.68420523,-0.69859362,0.20935637,0
2.0069196,4.5940528,0.69570017,0.46339017,-0.19477534,0.86448371,0
-2.446804,-4.7285333,0.57523346,-0.68420523,-0.69859362,0.20935637,0
-1.2051618,1.0977637,1.3656807,0.46339017,-0.19477534,0.86448371,0
-0.2276926,3.969523,1.5882301,0.46339017,-0.19477534,0.86448371,0
2.4262657,-2.8529239,-1.896489,0.5631454,-0.68849796,-0.45698771,0
-3.0106647,1.7733884,2.1813645,-0.5631454,0.68849796,0.45698771,0
3.3752611,0.74789107,-1.2058932,0.46339017,-0.19477534,0.86448371,0
4.292985,-0.1726944,-2.7315805,-0.46339017,0.19477534,-0.86448371,0
0.73773336,-0.49814832,0.0578053,0.46339017,-0.19477534,0.86448371,0
4.548573,2.0541291,-1.6793339,0.68420523,0.69859362,-0.20935637,0
-1.8657198,3.4919128,1.5192137,-0.5631454,0.68849796,0.45698771,0
-1.2531261,-0.31825998,1.0735284,0.46339017,-0.19477534,0.86448371,0
0.36999154,-5.0444293,-1.0272059,0.5631454,-0.68849796,-0.45698771,0
-0.083549976,2.8807497,0.17684436,-0.46339017,0.19477534,-0.86448371,0
-4.7950935,-1.7066175,2.1071584,-0.68420523,-0.69859362,0.20935637,0
-0.026858091,-3.0181103,0.08772397,0.46339017,-0.19477534,0.86448371,0
1.5866326,2.4916344,-0.98437214,-0.46339017,0.19477534,-0.86448371,0
2.6386662,-1.799893,-2.2419713,-0.46339017,0.19477534,-0.86448371,0
-3.1432645,0.47154692,1.4111508,-0.46339017,0.19477534,-0.86448371,0
-2.7361965,-4.5635118,0.28116369,-0.68420523,-0.69859362,0.20935637,0
-1.3465325,1.1673045,1.6679566,0.46339017,-0.19477534,0.86448371,0
-4.6057243,-1.7221169,2.4148419,-0.68420523,-0.69859362,0.20935637,0
1.3380826,5.6547074,0.21593904,0.68420523,0.69859362,-0.20935637,0
1.5010891,6.0194716,0.20504904,0.68420523,0.69859362,-0.20935637,0
2.0548215,5.0353346,0.084929943,0.68420523,0.69859362,-0.20935637,0
2.988544,4.0622406,-0.27554369,0.68420523,0.69859362,-0.20935637,0
-4.033978,0.19440246,1.4369383,-0.46339017,0.19477534,-0.86448371,0
3.0653183,2.2685781,-0.60802174,0.46339017,-0.19477534,0.86448371,0
-5.0649438,-0.56399071,2.9791307,-0.5631454,0.68849796,0.45698771,0
-4.5219908,-1.7645234,2.3039312,-0.68420523,-0.69859362,0.20935637,0
2.0386388,-1.4725552,-2.1403189,-0.46339017,0.19477534,-0.86448371,0
-4.5057082,0.013177365,2.9444056,-0.5631454,0.68849796,0.45698771,0
-4.2093434,-2.7979631,1.4720314,-0.68420523,-0.69859362,0.20935637,0
-2.7462845,1.926468,1.098851,-0.46339017,0.19477534,-0.86448371,0
1.3773581,-2.9072104,-1.9163438,-0.46339017,0.19477534,-0.86448371,0
1.1720552,6.0633554,0.78191805,0.68420523,0.69859362,-0.20935637,0
0.3882978,-4.2768979,-1.6436896,0.5631454,-0.68849796,-0.45698771,0
1.3963544,-4.0229416,-1.1463161,0.5631454,-0.68849796,-0.45698771,0
-1.0657892,-5.8663712,-0.91194439,0.5631454,-0.68849796,-0.45698771,0
-0.63909769,-5.6112905,-0.70594263,0.5631454,-0.68849796,-0.45698771,0
1.6908269,-3.0870636,-1.919248,0.5631454,-0.68849796,-0.45698771,0
0.31141901,5.3178358,0.73347855,-0.5631454,0.68849796,0.45698771,0
1.1425848,5.868938,0.96892118,-0.5631454,0.68849796,0.45698771,0
1.0703881,6.2646403,0.38982868,0.68420523,0.69859362,-0.20935637,0
-5.5640264,-0.828192,3.0632648,-0.5631454,0.68849796,0.45698771,0
-3.238626,-3.6384397,1.5710201,-0.68420523,-0.69859362,0.20935637,0
-5.1689577,-1.2418398,2.7913015,-0.68420523,-0.69859362,0.20935637,0
4.0640149,-0.8568753,-2.7816167,0.5631454,-0.68849796,-0.45698771,0
1.3667586,-4.2070599,-1.0775299,0.5631454,-0.68849796,-0.45698771,0
-3.9997969,-2.5317454,1.7233291,-0.68420523,-0.69859362,0.20935637,0
0.95127797,-3.6330783,-1.7102669,0.5631454,-0.68849796,-0.45698771,0
2.6012597,4.5256381,-0.046583652,0.68420523,0.69859362,-0.20935637,0
-4.6988773,0.047657877,2.9762411,-0.5631454,0.68849796,0.45698771,0
2.650804,4.0823679,-0.050787449,0.46339017,-0.19477534,0.86448371,0
5.4347491,0.11294603,-2.6560962,0.5631454,-0.68849796,-0.45698771,0
0.86833167,6.1951308,0.20675611,0.68420523,0.69859362,-0.20935637,0
5.4358363,0.063044786,-2.5292869,0.5631454,-0.68849796,-0.45698771,0
-4.7094221,0.23256224,2.6396351,-0.5631454,0.68849796,0.45698771,0
-4.5062652,-1.718789,2.6473377,-0.68420523,-0.69859362,0.20935637,0
-1.549403,-0.57463872,0.093438208,-0.46339017,0.19477534,-0.86448371,0
-3.0639198,-3.9777298,0.7228446,-0.68420523,-0.69859362,0.20935637,0
4.2885971,2.1655571,-1.874804,0.68420523,0.69859362,-0.20935637,0
-1.866375,0.66170037,1.811322,0.46339017,-0.19477534,0.86448371,0
-0.64012289,-5.6066213,-1.1399994,0.5631454,-0.68849796,-0.45698771,0
-5.8916326,-0.71010578,2.6196218,-0.68420523,-0.69859362,0.20935637,0
3.7658105,-1.2887509,-2.023289,0.5631454,-0.68849796,-0.45698771,0
1.3929057,6.1613784,0.4487524,0.68420523,0.69859362,-0.20935637,0
-3.2963636,-3.9909997,0.74447298,-0.68420523,-0.69859362,0.20935637,0
-0.36611867,4.7030554,1.2970662,-0.5631454,0.68849796,0.45698771,0
4.0600276,3.0804119,-0.77172494,0.68420523,0.69859362,-0.20935637,0
-0.25590944,-5.2676525,-1.078012,0.5631454,-0.68849796,-0.45698771,0
5.443954,1.3359394,-2.3949738,0.68420523,0.69859362,-0.20935637,0
-3.9348383,-2.7650199,1.4993432,-0.68420523,-0.69859362,0.20935637,0
0.67269135,-4.172956,-1.3372469,0.5631454,-0.68849796,-0.45698771,0
4.2831955,-0.38206238,-2.540555,0.5631454,-0.68849796,-0.45698771,0
0.24193239,-3.8491409,-0.49755311,0.46339017,-0.19477534,0.86448371,0
-3.4968574,-3.4692073,1.4849761,-0.68420523,-0.69859362,0.20935637,0
0.1475656,5.0622902,1.2553365,-0.5631454,0.68849796,0.45698771,0
-2.8363183,-3.7082353,1.3027062,-0.68420523,-0.69859362,0.20935637,0
2.9086952,0.016689993,-1.9452667,-0.46339017,0.19477534,-0.86448371,0
-5.1197448,0.11771578,2.4960117,-0.5631454,0.68849796,0.45698771,0
-1.73458,-1.0777627,0.001067996,-0.46339017,0.19477534,-0.86448371,0
-5.0287123,-1.8087978,2.1829162,-0.68420523,-0.69859362,0.20935637,0
-2.6970761,-4.214601,0.31539536,-0.68420523,-0.69859362,0.20935637,0
-3.2962422,-3.6325805,1.6836205,-0.68420523,-0.69859362,0.20935637,0
1.9790685,2.9879441,-0.87744474,-0.46339017,0.19477534,-0.86448371,0
3.9640064,1.8356931,-1.2335544,0.46339017,-0.19477534,0.86448371,0
-2.2947092,-4.7372317,0.10232353,-0.68420523,-0.69859362,0.20935637,0
-4.1151266,-0.96083879,1.225173,-0.46339017,0.19477534,-0.86448371,0
-1.3191159,-6.1204681,-0.67640877,-0.68420523,-0.69859362,0.20935637,0
0.66429138,5.931932,0.69300938,-0.5631454,0.68849796,0.45698771,0
1.6245052,-0.40379596,-0.29996607,0.46339017,-0.19477534,0.86448371,0
0.29873145,1.1795459,0.61682105,0.46339017,-0.19477534,0.86448371,0
-5.3940845,-0.13194966,2.6202471,-0.5631454,0.68849796,0.45698771,0
0.99014044,6.131021,0.36425829,-0.5631454,0.68849796,0.45698771,0
2.5600891,-2.6113939,-1.7178278,0.5631454,-0.68849796,-0.45698771,0
-2.3611093,2.6989846,1.6006017,-0.5631454,0.68849796,0.45698771,0
1.2098435,-2.7522147,-1.6614039,-0.46339017,0.19477534,-0.86448371,0
0.82643056,4.1047587,0.96365595,0.46339017,-0.19477534,0.86448371,0
-1.6906252,-2.8110688,0.8500731,0.46339017,-0.19477534,0.86448371,0
4.318985,-0.16258177,-2.8790212,0.5631454,-0.68849796,-0.45698771,0
0.67427325,-3.4458172,-0.5244832,0.46339017,-0.19477534,0.86448371,0
-1.6801226,-6.0222993,-0.88898134,-0.68420523,-0.69859362,0.20935637,0
-4.6564031,-2.0265584,1.6534669,-0.68420523,-0.69859362,0.20935637,0
-4.3111677,-1.6271392,1.4883764,-0.46339017,0.19477534,-0.86448371,0
0.48750702,0.60688502,0.50276625,0.46339017,-0.19477534,0.86448371,0
-2.8919747,-4.0375862,0.91759682,-0.68420523,-0.69859362,0.20935637,0
2.8328199,-2.3344195,-1.9145238,0.5631454,-0.68849796,-0.45698771,0
-1.9152851,3.1668749,1.4479296,-0.5631454,0.68849796,0.45698771,0
4.0982642,2.8472447,-1.6228826,0.68420523,0.69859362,-0.20935637,0
5.3169909,1.3603537,-2.4828463,0.68420523,0.69859362,-0.20935637,0
2.0753794,5.036572,0.49012089,0.68420523,0.69859362,-0.20935637,0
-3.9513953,-2.9879751,1.4821928,-0.68420523,-0.69859362,0.20935637,0
-2.373004,-4.6360068,0.72883701,-0.68420523,-0.69859362,0.20935637,0
3.129801,3.5520387,-1.2399428,0.68420523,0.69859362,-0.20935637,0
5.3861713,0.89969122,-2.3342516,0.68420523,0.69859362,-0.20935637,0
-2.4303961,-5.0462332,-0.18229294,-0.68420523,-0.69859362,0.20935637,0
-0.33672905,4.4285541,1.7256515,-0.5631454,0.68849796,0.45698771,0
3.3666492,2.9373279,-1.9459696,-0.46339017,0.19477534,-0.86448371,0
-1.8365475,-3.3326964,0.8434279,0.46339017,-0.19477534,0.86448371,0
-2.4839578,-4.4789863,0.055225849,-0.68420523,-0.69859362,0.20935637,0
-2.3039122,-2.4903793,1.1616471,0.46339017,-0.19477534,0.86448371,0
-1.3461897,3.9243555,1.0505652,-0.5631454,0.68849796,0.45698771,0
-0.10722661,-1.7995439,0.37450957,0.46339017,-0.19477534,0.86448371,0
3.9006569,-0.95681888,-2.3390088,0.5631454,-0.68849796,-0.45698771,0
1.8352787,5.736805,0.31385183,0.68420523,0.69859362,-0.20935637,0
-2.064734,2.5791659,1.9746515,-0.5631454,0.68849796,0.45698771,0
-4.3160143,0.4240813,2.6132724,-0.5631454,0.68849796,0.45698771,0
-3.9830298,-2.8178113,1.9524114,-0.68420523,-0.69859362,0.20935637,0
2.5216603,0.16297109,-2.076046,-0.46339017,0.19477534,-0.86448371,0
-3.8218493,0.87461019,2.6543818,-0.5631454,0.68849796,0.45698771,0
-2.5447173,-4.6354656,-0.14458036,-0.68420523,-0.69859362,0.20935637,0
5.3158545,-0.11384523,-2.2068789,0.5631454,-0.68849796,-0.45698771,0
-3.322994,-3.2591023,1.5703187,-0.68420523,-0.69859362,0.20935637,0
-1.5816143,-5.2544136,0.042817116,0.46339017,-0.19477534,0.86448371,0
-4.940011,0.25180644,2.3731618,-0.5631454,0.68849796,0.45698771,0
-4.5284424,-2.5125444,1.6018057,-0.68420523,-0.69859362,0.20935637,0
-5.6202574,-0.45306903,2.827076,-0.5631454,0.68849796,0.45698771,0
5.1902218,0.9907639,-2.8348351,0.68420523,0.69859362,-0.20935637,0
-2.9928541,-4.1063738,0.95744181,-0.68420523,-0.69859362,0.20935637,0
-4.5692997,-1.1362501,1.6506839,-0.46339017,0.19477534,-0.86448371,0
-4.4382801,-1.9150628,2.6149306,-0.68420523,-0.69859362,0.20935637,0
5.1805658,1.2922488,-2.6352129,0.68420523,0.69859362,-0.20935637,0
2.5957074,-2.2613714,-1.9040527,0.5631454,-0.68849796,-0.45698771,0
-4.8997245,-0.25790548,2.7943001,-0.5631454,0.68849796,0.45698771,0
-3.214932,1.9413041,1.8079572,-0.5631454,0.68849796,0.45698771,0
-1.7676904,-5.429563,-0.4275136,-0.68420523,-0.69859362,0.20935637,0
-1.7950161,-5.4622645,-0.71912384,-0.68420523,-0.69859362,0.20935637,0
3.2181425,3.6048725,-0.39667845,0.68420523,0.69859362,-0.20935637,0
-2.0418816,-4.8364739,0.33429098,-0.68420523,-0.69859362,0.20935637,0
0.49438488,3.2071095,0.034228563,-0.46339017,0.19477534,-0.86448371,0
-3.9623909,0.22318633,2.5961757,0.46339017,-0.19477534,0.86448371,0
5.2664113,0.30404794,-2.6069083,0.5631454,-0.68849796,-0.45698771,0
0.0049219131,-4.6264873,-1.7710586,0.5631454,-0.68849796,-0.45698771,0
4.0607009,-0.60417414,-2.5947156,0.5631454,-0.68849796,-0.45698771,0
-5.5673642,-1.3017213,2.1527584,-0.68420523,-0.69859362,0.20935637,0
5.3171434,1.6154661,-1.8433406,0.68420523,0.69859362,-0.20935637,0
0.26865315,-3.701128,-1.6505365,-0.46339017,0.19477534,-0.86448371,0
2.5639119,-1.1863819,-2.2695022,-0.46339017,0.19477534,-0.86448371,0
5.2019262,1.5552607,-2.4553943,0.68420523,0.69859362,-0.20935637,0
1.5937514,2.5876007,-0.61992049,-0.46339017,0.19477534,-0.86448371,0
-3.4155667,-3.2763345,1.1335857,-0.68420523,-0.69859362,0.20935637,0
1.8827748,4.0254598,-0.4797411,-0.46339017,0.19477534,-0.86448371,0
-1.6958442,-5.7669005,-0.57148027,-0.68420523,-0.69859362,0.20935637,0
2.002203,-3.2535634,-1.5398811,0.5631454,-0.68849796,-0.45698771,0
0.79650664,5.6219835,0.84978437,-0.5631454,0.68849796,0.45698771,0
1.2129853,-2.8435478,-2.0567744,-0.46339017,0.19477534,-0.86448371,0
0.50902462,-4.26756,-1.4230592,0.5631454,-0.68849796,-0.45698771,0
-2.4454579,-4.5136962,0.29434013,-0.68420523,-0.69859362,0.20935637,0
2.097827,4.0478354,-0.99642038,-0.46339017,0.19477534,-0.86448371,0
-3.3675506,1.1510677,2.5943358,-0.5631454,0.68849796,0.45698771,0
-1.2977564,3.9029381,1.2958827,-0.5631454,0.68849796,0.45698771,0
-2.3517718,-1.7106279,1.4905852,0.46339017,-0.19477534,0.86448371,0
2.2558718,5.2996745,0.66679382,0.68420523,0.69859362,-0.20935637,0
-1.0224026,-0.74372113,-0.15357935,-0.46339017,0.19477534,-0.86448371,0
-4.3289766,-2.3199852,1.6321971,-0.68420523,-0.69859362,0.20935637,0
-3.4275537,1.3686762,1.5709933,-0.46339017,0.19477534,-0.86448371,0
-1.2964318,3.886605,1.6351691,-0.5631454,0.68849796,0.45698771,0
1.4283638,4.9642196,-0.44435549,-0.46339017,0.19477534,-0.86448371,0
1.4075294,-3.0108502,-2.0987747,0.5631454,-0.68849796,-0.45698771,0
-2.3177328,2.7650669,1.9655555,-0.5631454,0.68849796,0.45698771,0
1.9504859,5.6236801,0.64334536,0.68420523,0.69859362,-0.20935637,0
2.4180412,4.7152166,-0.2244029,0.68420523,0.69859362,-0.20935637,0
0.82118225,-4.4554462,-0.98738265,0.5631454,-0.68849796,-0.45698771,0
2.8216419,4.0456085,-0.26338816,0.68420523,0.69859362,-0.20935637,0
-1.1252221,1.6663861,1.5148604,0.46339017,-0.19477534,0.86448371,0
-0.51055837,4.5341382,1.6554058,-0.5631454,0.68849796,0.45698771,0
2.4847469,4.4276304,-0.18209028,0.68420523,0.69859362,-0.20935637,0
-2.8729613,1.1120018,1.2610259,-0.46339017,0.19477534,-0.86448371,0
-5.6020098,-0.39507365,2.3447595,-0.5631454,0.68849796,0.45698771,0
1.378865,-3.3758111,-1.6102191,0.5631454,-0.68849796,-0.45698771,0
-2.2973628,-3.9772546,-0.11646414,-0.46339017,0.19477534,-0.86448371,0
1.3933246,6.1974382,0.6805501,0.68420523,0.69859362,-0.20935637,0
0.047859192,2.8810251,1.0758902,0.46339017,-0.19477534,0.86448371,0
0.8249259,6.2404232,0.48571634,-0.5631454,0.68849796,0.45698771,0
-3.963881,1.3053138,2.0207205,-0.5631454,0.68849796,0.45698771,0
0.76124382,-4.0824685,-1.4975691,0.5631454,-0.68849796,-0.45698771,0
4.6183395,2.0453107,-2.2200599,0.68420523,0.69859362,-0.20935637,0
-2.0926034,1.4599469,0.65304267,-0.46339017,0.19477534,-0.86448371,0
-2.1557045,-1.7218826,1.4815329,0.46339017,-0.19477534,0.86448371,0
0.97427058,-4.0529819,-1.1550076,0.5631454,-0.68849796,-0.45698771,0
-4.2440901,-2.4966538,1.800056,-0.68420523,-0.69859362,0.20935637,0
1.3181527,6.1389923,0.61276627,0.68420523,0.69859362,-0.20935637,0
-2.3243208,2.2412779,2.262197,-0.5631454,0.68849796,0.45698771,0
-5.4143462,-1.4487036,1.9154882,-0.68420523,-0.69859362,0.20935637,0
2.4032934,-0.46483105,-0.62331241,0.46339017,-0.19477534,0.86448371,0
-2.9975524,2.3869534,1.8989892,-0.5631454,0.68849796,0.45698771,0
1.7075527,2.8917294,0.18351984,0.46339017,-0.19477534,0.86448371,0
0.44035792,-4.6485124,-1.4505551,0.5631454,-0.68849796,-0.45698771,0
-1.9038128,-5.0747552,0.16537619,-0.68420523,-0.69859362,0.20935637,0
-1.3544669,-5.7030845,-1.1664367,-0.46339017,0.19477534,-0.86448371,0
-5.2879958,-0.67156899,3.3391566,-0.5631454,0.68849796,0.45698771,0
3.2261238,3.6295941,-1.2287214,0.68420523,0.69859362,-0.20935637,0
-2.8923571,-3.5111077,0.11951375,-0.46339017,0.19477534,-0.86448371,0
4.1189594,2.5990992,-2.396971,0.68420523,0.69859362,-0.20935637,0
4.6976309,-0.051960737,-2.7509933,0.5631454,-0.68849796,-0.45698771,0
-1.9479966,3.0934765,1.9785674,-0.5631454,0.68849796,0.45698771,0
-2.4451332,-2.2618692,0.13697147,-0.46339017,0.19477534,-0.86448371,0
0.32267761,-4.6952338,-1.591172,0.5631454,-0.68849796,-0.45698771,0
5.4647031,0.81069636,-2.4701848,0.68420523,0.69859362,-0.20935637,0
-3.3748026,-3.8537936,0.73712778,-0.68420523,-0.69859362,0.20935637,0
2.5767899,-2.0418792,-2.3810792,0.5631454,-0.68849796,-0.45698771,0
-2.5895722,-2.1206896,1.6275744,0.46339017,-0.19477534,0.86448371,0
1.8788431,0.22505362,-1.5115738,-0.46339017,0.19477534,-0.86448371,0
-2.7470098,-3.6185722,0.15368176,-0.46339017,0.19477534,-0.86448371,0
-3.3775725,1.3318367,2.4190087,-0.5631454,0.68849796,0.45698771,0
-5.2998009,-1.4274073,2.7512841,-0.68420523,-0.69859362,0.20935637,0
2.8630877,-1.8760008,-2.1570096,0.5631454,-0.68849796,-0.45698771,0
-2.2485631,-3.2085991,0.88205457,0.46339017,-0.19477534,0.86448371,0
5.4148936,0.20398271,-2.523654,0.5631454,-0.68849796,-0.45698771,0
-1.4872499,-5.9960394,-0.38677454,-0.68420523,-0.69859362,0.20935637,0
-5.3117557,-0.22470081,2.3137388,-0.5631454,0.68849796,0.45698771,0
1.4274685,-3.5379827,-1.3707017,0.5631454,-0.68849796,-0.45698771,0
2.3752694,5.2627573,0.64032555,0.68420523,0.69859362,-0.20935637,0
-0.408283,-5.6096458,-1.0396624,0.5631454,-0.68849796,-0.45698771,0
1.0262413,6.0991063,0.53492928,0.68420523,0.69859362,-0.20935637,0
0.78943825,5.7029705,0.85047674,-0.5631454,0.68849796,0.45698771,0
1.7270894,5.5833526,0.60083628,0.68420523,0.69859362,-0.20935637,0
-1.768325,-2.6723769,-0.053191185,-0.46339017,0.19477534,-0.86448371,0
1.4585718,0.96131396,-1.2032858,-0.46339017,0.19477534,-0.86448371,0
5.3211336,1.5150348,-2.1938472,0.68420523,0.69859362,-0.20935637,0
-1.9272556,-5.5363898,0.04491806,-0.68420523,-0.69859362,0.20935637,0
4.5577102,0.85789579,-2.7150545,-0.46339017,0.19477534,-0.86448371,0
-5.7805843,-0.32915223,2.3472428,-0.5631454,0.68849796,0.45698771,0
-3.2243631,-3.9043303,0.91930199,-0.68420523,-0.69859362,0.20935637,0
-4.2321076,-2.559629,1.7105799,-0.68420523,-0.69859362,0.20935637,0
1.508533,-0.71887326,-1.5469315,-0.46339017,0.19477534,-0.86448371,0
3.5553463,3.3506193,-0.67939901,0.68420523,0.69859362,-0.20935637,0
-0.16190696,-3.4350092,-0.318362,0.46339017,-0.19477534,0.86448371,0
2.2466898,-3.1909828,-1.4624088,0.5631454,-0.68849796,-0.45698771,0
-3.7067451,1.6534587,1.8584931,-0.5631454,0.68849796,0.45698771,0
-2.2903028,2.4148073,2.2107868,0.46339017,-0.19477534,0.86448371,0
-2.9006767,2.1938319,1.9638717,-0.5631454,0.68849796,0.45698771,0
-2.5225947,-0.26599896,1.9887772,0.46339017,-0.19477534,0.86448371,0
-4.7468109,-1.408875,2.7495909,-0.68420523,-0.69859362,0.20935637,0
-3.1138704,-4.0078511,0.48517561,-0.68420523,-0.69859362,0.20935637,0
-1.9688547,-5.4600492,-0.21519756,-0.68420523,-0.69859362,0.20935637,0
-3.2840912,-4.0385852,0.23645687,-0.68420523,-0.69859362,0.20935637,0
-5.2633452,-1.5187718,2.119689,-0.68420523,-0.69859362,0.20935637,0
-1.9933257,-4.2065134,-0.63684273,-0.46339017,0.19477534,-0.86448371,0
2.5830827,-2.5816636,-1.7710233,0.5631454,-0.68849796,-0.45698771,0
-0.26809716,4.6449523,1.1831853,-0.5631454,0.68849796,0.45698771,0
1.2595849,6.1870074,0.78030682,-0.5631454,0.68849796,0.45698771,0
0.17261505,5.4231291,0.76307726,-0.5631454,0.68849796,0.45698771,0
-4.6218696,0.17792621,3.0485299,-0.5631454,0.68849796,0.45698771,0
0.018125534,-4.5429707,-1.5729322,-0.46339017,0.19477534,-0.86448371,0
3.3161447,0.51521683,-1.0632193,0.46339017,-0.19477534,0.86448371,0
-4.6473589,-1.26199,2.9434886,0.46339017,-0.19477534,0.86448371,0
-3.9890571,-2.8354824,1.4353585,-0.68420523,-0.69859362,0.20935637,0
-4.8422112,-2.0549061,2.09057,-0.68420523,-0.69859362,0.20935637,0
-3.4161224,-3.4224157,1.354569,-0.68420523,-0.69859362,0.20935637,0
3.6997643,-1.5029821,-1.9837806,0.5631454,-0.68849796,-0.45698771,0
-0.82715821,-6.0464993,-0.85895443,0.5631454,-0.68849796,-0.45698771,0
0.24203038,5.312037,1.4828925,-0.5631454,0.68849796,0.45698771,0
2.6428075,4.1844144,-0.92809963,0.68420523,0.69859362,-0.20935637,0
4.751996,-0.47698855,-2.5640752,0.5631454,-0.68849796,-0.45698771,0
0.23864126,5.3085489,0.8156743,-0.5631454,0.68849796,0.45698771,0
-1.0124052,-4.5155201,0.11852789,0.46339017,-0.19477534,0.86448371,0
-1.0963295,-5.9473991,-1.1506763,0.5631454,-0.68849796,-0.45698771,0
-4.8537683,-0.35373494,2.9992449,-0.5631454,0.68849796,0.45698771,0
-0.53322268,-3.5146189,-0.96841049,-0.46339017,0.19477534,-0.86448371,0
3.1733463,-1.5204437,-2.1409781,0.5631454,-0.68849796,-0.45698771,0
2.126853,1.8127234,-1.4720324,-0.46339017,0.19477534,-0.86448371,0
-1.0563343,-5.8844123,-0.99175215,0.5631454,-0.68849796,-0.45698771,0
3.5092027,2.9911213,-1.7997985,0.68420523,0.69859362,-0.20935637,0
1.413609,-3.6271234,-0.92029953,0.46339017,-0.19477534,0.86448371,0
-2.9577217,1.8495281,2.1060185,-0.5631454,0.68849796,0.45698771,0
4.8144193,1.7021961,-2.7653453,0.68420523,0.69859362,-0.20935637,0
-4.8472228,0.42521134,2.5691257,-0.5631454,0.68849796,0.45698771,0
2.8573666,3.8887072,-0.88846064,0.68420523,0.69859362,-0.20935637,0
0.3264811,-5.1274209,-0.82509089,0.5631454,-0.68849796,-0.45698771,0
5.0641451,1.0038071,-1.8586479,0.46339017,-0.19477534,0.86448371,0
4.4034853,2.2074146,-2.0871713,0.68420523,0.69859362,-0.20935637,0
-5.1292892,-1.3186982,2.687577,-0.68420523,-0.69859362,0.20935637,0
-4.9155741,-0.12656468,2.4575455,-0.5631454,0.68849796,0.45698771,0
0.98214746,5.8815203,0.95791531,-0.5631454,0.68849796,0.45698771,0
0.95861846,0.62265211,0.092694581,0.46339017,-0.19477534,0.86448371,0
0.58398438,-4.3162537,-1.3545136,0.5631454,-0.68849796,-0.45698771,0
-0.06937933,-5.5548353,-0.53865528,0.46339017,-0.19477534,0.86448371,0
-1.2013874,4.2544627,1.2302067,-0.5631454,0.68849796,0.45698771,0
1.5436654,5.565949,0.62396336,0.68420523,0.69859362,-0.20935637,0
-2.2157583,2.8180225,2.1305068,-0.5631454,0.68849796,0.45698771,0
5.2853026,1.1372253,-2.8910904,0.68420523,0.69859362,-0.20935637,0
-1.4011347,2.8309946,2.0718954,0.46339017,-0.19477534,0.86448371,0
-1.5707277,2.9618912,2.1833544,-0.5631454,0.68849796,0.45698771,0
-4.0742483,-0.024192333,1.5348868,-0.46339017,0.19477534,-0.86448371,0
-1.7529069,2.1426322,1.8515404,0.46339017,-0.19477534,0.86448371,0
2.2367811,4.7289896,-0.29175568,0.68420523,0.69859362,-0.20935637,0
-4.3360219,0.59705687,2.4238372,-0.5631454,0.68849796,0.45698771,0
2.664731,-2.0824399,-2.0710354,0.5631454,-0.68849796,-0.45698771,0
-2.2306979,-5.1196613,0.27681684,-0.68420523,-0.69859362,0.20935637,0
-5.609056,-0.52370632,2.3681016,-0.5631454,0.68849796,0.45698771,0
-1.2992468,-6.0847459,-0.70641422,-0.68420523,-0.69859362,0.20935637,0
5.0607052,-0.048793554,-2.4602437,0.5631454,-0.68849796,-0.45698771,0
1.7485552,5.3635039,0.40214062,0.68420523,0.69859362,-0.20935637,0
-1.6033597,0.52857709,1.7684846,0.46339017,-0.19477534,0.86448371,0
2.2865186,5.0514374,-0.27533531,0.68420523,0.69859362,-0.20935637,0
5.1757584,0.084037244,-2.8338392,0.5631454,-0.68849796,-0.45698771,0
