-1.309689,1.2232316,1.0077918,0.57341015,0.70992887,0.40890312,0
-3.4557476,1.9699734,2.3176522,-0.76144147,0.2776238,0.5857746,0
2.0672574,-0.36584258,-3.8231897,-0.57341015,-0.70992887,-0.40890312,0
2.3863604,-2.449414,-0.22062111,-0.57341015,-0.70992887,-0.40890312,0
0.64927554,2.2610552,-5.2558069,-0.30233711,0.64724493,-0.69976151,0
-3.9452493,2.1413989,1.8125484,-0.76144147,0.2776238,0.5857746,0
4.5727339,-3.2487531,0.57459259,0.57341015,0.70992887,0.40890312,0
-2.1406238,2.0155053,-1.9153214,-0.57341015,-0.70992887,-0.40890312,0
-2.989089,4.015923,-2.334826,-0.30233711,0.64724493,-0.69976151,0
-4.0005145,1.9241478,1.2687186,-0.76144147,0.2776238,0.5857746,0
-2.0803568,-0.68462205,4.9939508,-0.76144147,0.2776238,0.5857746,0
4.6926484,-4.0371103,1.2923675,0.30233711,-0.64724493,0.69976151,0
0.083343744,-1.8716891,4.8345337,0.57341015,0.70992887,0.40890312,0
5.3438892,-4.2133341,0.96665239,0.76144147,-0.2776238,-0.5857746,0
3.9927707,-3.7851591,1.7998309,0.30233711,-0.64724493,0.69976151,0
-3.7988591,4.2177978,-0.31998682,0.57341015,0.70992887,0.40890312,0
-2.0610573,-0.44862032,5.0459452,-0.76144147,0.2776238,0.5857746,0
-3.6158662,4.1332932,-1.8079333,-0.30233711,0.64724493,-0.69976151,0
-1.608807,3.0670726,-3.3659863,-0.30233711,0.64724493,-0.69976151,0
-3.8259597,3.6957788,-2.1822801,-0.30233711,0.64724493,-0.69976151,0
2.3109388,0.52289438,-4.6239796,0.76144147,-0.2776238,-0.5857746,0
-3.530709,2.5825927,-1.1945601,-0.57341015,-0.70992887,-0.40890312,0
-2.6524208,-0.41918397,4.5091395,-0.76144147,0.2776238,0.5857746,0
2.2290688,0.20116973,-4.3407702,-0.57341015,-0.70992887,-0.40890312,0
1.6465604,-3.4579048,3.4987264,0.30233711,-0.64724493,0.69976151,0
-1.4892192,-2.1623702,5.8590288,0.30233711,-0.64724493,0.69976151,0
-2.0781717,3.2290323,-3.2756329,-0.30233711,0.64724493,-0.69976151,0
0.55769348,2.49646,-3.5089176,0.57341015,0.70992887,0.40890312,0
-3.7924757,1.6434054,1.0471652,-0.57341015,-0.70992887,-0.40890312,0
0.83491933,-3.0284114,4.1389375,0.30233711,-0.64724493,0.69976151,0
-0.72063971,-0.2638042,2.8597479,0.57341015,0.70992887,0.40890312,0
-0.94998002,-2.7846856,4.8235073,0.30233711,-0.64724493,0.69976151,0
0.2241118,2.5178638,-4.9697895,-0.30233711,0.64724493,-0.69976151,0
-1.2304723,-2.315599,5.6051211,0.30233711,-0.64724493,0.69976151,0
-1.9481137,3.336518,-3.3586049,-0.30233711,0.64724493,-0.69976151,0
4.3569036,-3.7541981,1.8805213,0.30233711,-0.64724493,0.69976151,0
4.6788931,-4.3380308,1.116889,0.30233711,-0.64724493,0.69976151,0
-4.3747606,4.3114295,-1.0130692,-0.30233711,0.64724493,-0.69976151,0
-1.4047343,-1.59403,3.7944393,-0.57341015,-0.70992887,-0.40890312,0
-4.9624834,4.4273047,-1.1859918,-0.30233711,0.64724493,-0.69976151,0
-2.1494484,3.224164,-2.9799204,-0.30233711,0.64724493,-0.69976151,0
-1.4079385,-2.5122924,5.5806589,0.30233711,-0.64724493,0.69976151,0
0.10851359,2.5664721,-4.5918212,-0.30233711,0.64724493,-0.69976151,0
3.35217,-3.6137629,2.3532577,0.30233711,-0.64724493,0.69976151,0
-3.3182592,1.6296525,2.6235528,-0.76144147,0.2776238,0.5857746,0
-1.785301,-2.3658435,5.4273539,-0.57341015,-0.70992887,-0.40890312,0
4.560997,-3.1149259,-0.16988373,0.76144147,-0.2776238,-0.5857746,0
-3.6427293,3.773921,-2.3256741,-0.30233711,0.64724493,-0.69976151,0
-2.5300717,1.5275288,-0.3336463,-0.57341015,-0.70992887,-0.40890312,0
-3.9303164,4.5902591,-1.3235397,-0.30233711,0.64724493,-0.69976151,0
3.024601,0.90373635,-4.493453,0.76144147,-0.2776238,-0.5857746,0
1.0996857,-0.9432047,-0.6581369,-0.57341015,-0.70992887,-0.40890312,0
2.4265561,-3.2375522,3.2110925,0.30233711,-0.64724493,0.69976151,0
-3.8141818,1.6441121,2.263752,-0.76144147,0.2776238,0.5857746,0
2.076997,-3.243103,3.0832367,0.30233711,-0.64724493,0.69976151,0
0.64484119,0.8557446,-3.8488955,-0.57341015,-0.70992887,-0.40890312,0
3.2096274,-3.8956029,1.9588132,0.30233711,-0.64724493,0.69976151,0
-2.0800936,3.4523506,-3.3016663,-0.30233711,0.64724493,-0.69976151,0
-3.4224081,4.0291004,-1.7629814,-0.30233711,0.64724493,-0.69976151,0
-2.4802506,2.8314974,0.12279892,0.57341015,0.70992887,0.40890312,0
3.9942455,-4.0329237,1.9034939,0.30233711,-0.64724493,0.69976151,0
2.0784605,1.1977317,-5.8151836,0.76144147,-0.2776238,-0.5857746,0
-2.81464,0.58408499,3.9662399,-0.76144147,0.2776238,0.5857746,0
3.0499616,-3.7989254,2.1964388,0.30233711,-0.64724493,0.69976151,0
1.6156538,2.090039,-4.3492231,0.57341015,0.70992887,0.40890312,0
2.4983196,1.3908615,-5.0643387,0.76144147,-0.2776238,-0.5857746,0
-0.15764976,-1.3215727,4.0769386,0.57341015,0.70992887,0.40890312,0
2.7302408,-1.6091894,-1.8342124,-0.57341015,-0.70992887,-0.40890312,0
-0.69027734,-2.533534,5.2688346,0.30233711,-0.64724493,0.69976151,0
-2.2656705,-1.6787705,5.8454576,-0.76144147,0.2776238,0.5857746,0
-3.5783086,0.95577848,2.2450125,-0.76144147,0.2776238,0.5857746,0
2.2847679,2.0065899,-5.5191998,0.76144147,-0.2776238,-0.5857746,0
-1.9935596,-2.4481766,5.9140553,-0.76144147,0.2776238,0.5857746,0
1.8816848,-1.2950646,1.2629139,0.57341015,0.70992887,0.40890312,0
3.9579926,-1.6222881,-1.7261044,0.76144147,-0.2776238,-0.5857746,0
4.061276,-2.3411927,-1.0715226,0.76144147,-0.2776238,-0.5857746,0
-1.1452583,1.1417308,-1.8561237,-0.57341015,-0.70992887,-0.40890312,0
-2.3796201,4.0018196,-2.5926938,-0.30233711,0.64724493,-0.69976151,0
-4.6681194,4.549397,-0.92114782,-0.30233711,0.64724493,-0.69976151,0
-0.95196366,3.1215641,-4.0928416,-0.30233711,0.64724493,-0.69976151,0
3.8387618,-2.9185371,-1.1418734,0.76144147,-0.2776238,-0.5857746,0
3.2448614,-2.9768965,1.7641387,0.57341015,0.70992887,0.40890312,0
1.8230392,-3.0378697,3.5615568,0.30233711,-0.64724493,0.69976151,0
-3.597405,1.2811116,2.4703596,-0.76144147,0.2776238,0.5857746,0
-2.560581,0.15025115,4.2200799,-0.76144147,0.2776238,0.5857746,0
4.7530022,-4.5896869,0.47144222,0.76144147,-0.2776238,-0.5857746,0
2.7269504,-0.014594913,-2.7145822,0.57341015,0.70992887,0.40890312,0
-0.79961824,2.6053464,-4.2297182,-0.30233711,0.64724493,-0.69976151,0
0.60617959,0.76214397,-3.0266504,-0.57341015,-0.70992887,-0.40890312,0
-3.8980196,1.4108671,1.6862458,-0.57341015,-0.70992887,-0.40890312,0
2.1433072,2.0383615,-6.060442,0.76144147,-0.2776238,-0.5857746,0
-4.3820562,3.3173914,0.55945778,-0.76144147,0.2776238,0.5857746,0
-4.2903743,4.6967516,-1.1498356,-0.30233711,0.64724493,-0.69976151,0
-0.94805801,0.21494746,-0.67288089,-0.57341015,-0.70992887,-0.40890312,0
-1.5672636,-2.366992,5.7287083,0.30233711,-0.64724493,0.69976151,0
-0.74633932,0.66410506,1.5032029,0.57341015,0.70992887,0.40890312,0
0.28140283,2.5521181,-4.8988323,-0.30233711,0.64724493,-0.69976151,0
-3.5593741,1.4378089,2.1408336,-0.76144147,0.2776238,0.5857746,0
-2.1167047,1.6876624,1.3967193,0.57341015,0.70992887,0.40890312,0
-2.6597481,1.7406605,2.0303743,0.57341015,0.70992887,0.40890312,0
-1.7530985,-2.0080314,6.0336356,0.30233711,-0.64724493,0.69976151,0
-2.5171244,0.15270448,4.2713957,-0.76144147,0.2776238,0.5857746,0
-3.4895234,3.1377707,-1.3156066,-0.57341015,-0.70992887,-0.40890312,0
0.89799058,2.0658412,-3.134887,0.57341015,0.70992887,0.40890312,0
3.5848618,-2.9819245,-1.2540978,-0.57341015,-0.70992887,-0.40890312,0
0.10384297,2.5278149,-4.7474942,-0.30233711,0.64724493,-0.69976151,0
-4.1469688,4.2570362,-1.6225467,-0.30233711,0.64724493,-0.69976151,0
0.9751091,2.6736319,-4.8514977,-0.30233711,0.64724493,-0.69976151,0
-3.7894206,3.8436236,-2.1249981,-0.30233711,0.64724493,-0.69976151,0
2.7345622,0.55955386,-4.6889992,0.76144147,-0.2776238,-0.5857746,0
-0.092530489,-2.2536256,5.1506062,0.30233711,-0.64724493,0.69976151,0
0.057659984,-0.31788224,-0.54680604,-0.57341015,-0.70992887,-0.40890312,0
5.1037264,-4.1890407,0.61617565,0.76144147,-0.2776238,-0.5857746,0
2.9776225,0.31036758,-3.3971703,0.57341015,0.70992887,0.40890312,0
-1.6656001,-2.3601763,5.7905474,0.30233711,-0.64724493,0.69976151,0
-1.0734448,2.923883,-4.0838933,-0.30233711,0.64724493,-0.69976151,0
0.5396443,-1.9892511,1.3769474,-0.57341015,-0.70992887,-0.40890312,0
-4.7080231,3.8477015,-0.12378454,-0.76144147,0.2776238,0.5857746,0
0.92435706,-2.4051006,1.7676618,-0.57341015,-0.70992887,-0.40890312,0
-3.7053428,2.6296418,1.8011799,-0.76144147,0.2776238,0.5857746,0
-2.3597069,3.7221844,-2.4872131,-0.30233711,0.64724493,-0.69976151,0
2.0288141,-0.36977291,-3.9019611,-0.57341015,-0.70992887,-0.40890312,0
-3.3784404,3.5655899,-2.2786431,-0.30233711,0.64724493,-0.69976151,0
-2.7942309,3.2220449,-2.8064194,-0.30233711,0.64724493,-0.69976151,0
1.1396888,-2.9067369,3.8292847,0.30233711,-0.64724493,0.69976151,0
4.6834698,-3.5170641,0.37975121,0.76144147,-0.2776238,-0.5857746,0
-2.9143443,0.82234031,1.8034229,-0.57341015,-0.70992887,-0.40890312,0
-4.367178,2.8440351,0.98762107,-0.76144147,0.2776238,0.5857746,0
-4.2442746,1.7360914,1.5645761,-0.76144147,0.2776238,0.5857746,0
-1.7798748,3.1039634,-1.6879268,0.57341015,0.70992887,0.40890312,0
-1.706383,2.5741565,-0.72961307,0.57341015,0.70992887,0.40890312,0
2.2964172,-3.2756109,3.2261944,0.30233711,-0.64724493,0.69976151,0
-1.9994071,-2.1318257,5.8568034,-0.76144147,0.2776238,0.5857746,0
4.8793206,-3.0556796,-0.08754015,0.76144147,-0.2776238,-0.5857746,0
-3.1321483,0.33787215,3.7396631,-0.76144147,0.2776238,0.5857746,0
2.6951675,-2.1204953,1.3948247,0.57341015,0.70992887,0.40890312,0
4.6035905,-3.5646822,-0.1558876,0.76144147,-0.2776238,-0.5857746,0
4.0192332,-2.2733727,-0.78689754,0.57341015,0.70992887,0.40890312,0
4.3605909,-4.7075377,0.57351923,-0.57341015,-0.70992887,-0.40890312,0
4.781611,-4.6591892,0.97769403,0.30233711,-0.64724493,0.69976151,0
-4.33709,3.3068554,0.28310204,-0.76144147,0.2776238,0.5857746,0
1.5844693,-0.83196235,0.60447299,0.57341015,0.70992887,0.40890312,0
-2.5164051,-0.45382738,4.692626,-0.76144147,0.2776238,0.5857746,0
4.7156377,-4.1588464,0.45711565,0.76144147,-0.2776238,-0.5857746,0
-0.33624607,2.2686167,-2.0257466,0.57341015,0.70992887,0.40890312,0
1.0250399,2.2597017,-5.5665798,-0.30233711,0.64724493,-0.69976151,0
4.6224346,-2.5916476,-0.7431674,0.76144147,-0.2776238,-0.5857746,0
1.6417599,-3.8988059,2.8956752,0.30233711,-0.64724493,0.69976151,0
-2.0891838,3.6383905,-2.7192416,-0.30233711,0.64724493,-0.69976151,0
-4.1539998,2.9506047,1.1359241,-0.76144147,0.2776238,0.5857746,0
2.6689548,-3.9095731,2.3332763,0.30233711,-0.64724493,0.69976151,0
-3.8538709,1.399268,2.1139078,-0.76144147,0.2776238,0.5857746,0
4.3029399,-4.2846842,1.2630687,0.30233711,-0.64724493,0.69976151,0
1.7125018,1.8500886,-6.2350917,0.76144147,-0.2776238,-0.5857746,0
3.7181726,-2.5916877,-1.5086354,0.76144147,-0.2776238,-0.5857746,0
4.6021619,-4.2798123,0.479002,0.76144147,-0.2776238,-0.5857746,0
-2.0369642,-1.7155085,5.8942261,-0.76144147,0.2776238,0.5857746,0
-4.0953283,2.1443081,1.6059506,-0.76144147,0.2776238,0.5857746,0
2.6281466,0.27113938,-4.5379977,0.76144147,-0.2776238,-0.5857746,0
3.1158509,-3.9211266,2.0923181,0.30233711,-0.64724493,0.69976151,0
3.5283601,-1.6269017,-2.1795771,0.76144147,-0.2776238,-0.5857746,0
2.3264034,-2.9071853,3.2658477,0.30233711,-0.64724493,0.69976151,0
0.4324792,0.053378999,0.42413402,0.57341015,0.70992887,0.40890312,0
-1.7723081,3.035115,-1.1026518,0.57341015,0.70992887,0.40890312,0
-1.1732682,3.0187731,-3.9955401,-0.30233711,0.64724493,-0.69976151,0
-2.6991224,-0.85272819,4.4582734,-0.76144147,0.2776238,0.5857746,0
-0.22820421,-0.30089629,0.046908945,-0.57341015,-0.70992887,-0.40890312,0
-2.5324569,3.2566919,-3.0823145,-0.30233711,0.64724493,-0.69976151,0
-3.5556846,2.9185348,-1.6782103,-0.57341015,-0.70992887,-0.40890312,0
2.6212935,-3.460041,2.5741115,0.30233711,-0.64724493,0.69976151,0
-0.39644641,0.17872989,-0.67624646,-0.57341015,-0.70992887,-0.40890312,0
-1.076767,2.6878059,-3.9440107,-0.30233711,0.64724493,-0.69976151,0
-0.56140286,0.50609887,1.4812279,0.57341015,0.70992887,0.40890312,0
1.731885,1.5212867,-6.1866479,0.76144147,-0.2776238,-0.5857746,0
-3.1250896,1.7139366,2.4869161,-0.76144147,0.2776238,0.5857746,0
0.064497352,-0.61379874,2.0917881,0.57341015,0.70992887,0.40890312,0
0.59908485,2.8254168,-4.5837941,-0.30233711,0.64724493,-0.69976151,0
-1.8063211,3.3614421,-3.3354425,-0.30233711,0.64724493,-0.69976151,0
-2.7254195,0.78434563,0.99738169,-0.57341015,-0.70992887,-0.40890312,0
-2.388206,-0.17376566,4.6254587,-0.76144147,0.2776238,0.5857746,0
-4.0553408,4.5936837,-1.1017437,0.57341015,0.70992887,0.40890312,0
0.12784061,-1.2982042,0.87823379,-0.57341015,-0.70992887,-0.40890312,0
4.4261169,-3.5564814,-0.50105834,0.76144147,-0.2776238,-0.5857746,0
2.2924469,1.6632526,-5.2144418,0.76144147,-0.2776238,-0.5857746,0
-4.5451512,3.4555132,0.16924262,-0.76144147,0.2776238,0.5857746,0
-2.4869828,-0.96870911,5.2174935,-0.76144147,0.2776238,0.5857746,0
-3.7971416,4.4468651,-1.4802995,-0.30233711,0.64724493,-0.69976151,0
3.0842147,-2.6196811,1.3314905,0.57341015,0.70992887,0.40890312,0
-2.2151308,-0.49238384,3.0024624,-0.57341015,-0.70992887,-0.40890312,0
1.2742703,-2.4439163,3.287457,0.57341015,0.70992887,0.40890312,0
3.6773942,-2.4619365,-1.5072792,0.76144147,-0.2776238,-0.5857746,0
3.3891246,-1.8291609,-2.0857592,0.76144147,-0.2776238,-0.5857746,0
0.59378481,-2.8786108,4.4381108,0.30233711,-0.64724493,0.69976151,0
-2.8510249,-0.3520627,4.28897,-0.76144147,0.2776238,0.5857746,0
-3.2299628,3.6146605,-2.6020522,-0.30233711,0.64724493,-0.69976151,0
-0.10101914,-2.8428934,4.3884668,0.30233711,-0.64724493,0.69976151,0
0.19242239,-2.7346399,4.7655697,0.30233711,-0.64724493,0.69976151,0
-3.0376563,1.0647957,3.2618589,-0.76144147,0.2776238,0.5857746,0
3.0676522,-1.2118075,-0.58989304,0.57341015,0.70992887,0.40890312,0
-3.6628013,3.8677552,-0.011495113,0.57341015,0.70992887,0.40890312,0
3.7726154,-1.4622926,-2.3715351,0.76144147,-0.2776238,-0.5857746,0
1.3094734,-2.9347472,3.8426528,0.30233711,-0.64724493,0.69976151,0
0.80574596,0.59228992,-0.46956539,0.57341015,0.70992887,0.40890312,0
1.9300675,-1.7553099,1.6135249,0.57341015,0.70992887,0.40890312,0
3.5089264,-3.709902,2.1649351,0.30233711,-0.64724493,0.69976151,0
-3.2197795,2.5647695,-0.77832079,-0.57341015,-0.70992887,-0.40890312,0
1.7070742,1.585516,-6.4336052,0.76144147,-0.2776238,-0.5857746,0
0.077704906,-2.6616654,4.8073292,0.30233711,-0.64724493,0.69976151,0
-4.3411674,3.3712704,0.41765499,-0.76144147,0.2776238,0.5857746,0
-1.1787369,-2.36814,4.7395873,-0.57341015,-0.70992887,-0.40890312,0
1.3798581,-0.92856634,1.1196162,0.57341015,0.70992887,0.40890312,0
4.1897464,-4.1208482,1.6630487,0.30233711,-0.64724493,0.69976151,0
-3.4764168,1.5512679,2.768105,-0.76144147,0.2776238,0.5857746,0
-4.1809473,2.7741966,1.2361418,-0.76144147,0.2776238,0.5857746,0
-0.037604332,1.0041612,-3.365134,-0.57341015,-0.70992887,-0.40890312,0
-4.0730629,2.3084505,1.0515741,-0.76144147,0.2776238,0.5857746,0
2.2623284,0.82343197,-5.162859,0.76144147,-0.2776238,-0.5857746,0
-3.9329307,1.9925365,1.7517257,-0.76144147,0.2776238,0.5857746,0
0.58084226,1.3458934,-4.7378345,-0.57341015,-0.70992887,-0.40890312,0
4.0010533,-1.7476512,-1.9587512,0.76144147,-0.2776238,-0.5857746,0
4.608077,-3.3230228,-0.28336978,0.76144147,-0.2776238,-0.5857746,0
-2.8770146,3.7711873,-2.1288047,-0.30233711,0.64724493,-0.69976151,0
-0.70708525,2.6305482,-4.2233715,-0.30233711,0.64724493,-0.69976151,0
-5.1130557,4.5182104,-0.90784693,-0.76144147,0.2776238,0.5857746,0
-2.4263756,4.080287,-2.4245968,-0.30233711,0.64724493,-0.69976151,0
2.7355113,1.050621,-4.876008,0.76144147,-0.2776238,-0.5857746,0
4.5712986,-4.0266738,0.044182777,0.76144147,-0.2776238,-0.5857746,0
3.3974242,-0.8931824,-2.686919,0.76144147,-0.2776238,-0.5857746,0
4.3666673,-3.3517103,-0.38144207,0.76144147,-0.2776238,-0.5857746,0
-0.32523406,0.56782794,-2.1823227,-0.57341015,-0.70992887,-0.40890312,0
2.725666,-3.556752,2.7161465,0.30233711,-0.64724493,0.69976151,0
5.0229545,-4.3091226,0.96037865,0.30233711,-0.64724493,0.69976151,0
-4.8565617,4.3493237,-0.48786736,-0.76144147,0.2776238,0.5857746,0
-3.3437555,1.1540504,1.443773,-0.57341015,-0.70992887,-0.40890312,0
0.73934865,2.251457,-5.5529094,-0.30233711,0.64724493,-0.69976151,0
-2.9669585,4.0376148,-2.3920579,-0.30233711,0.64724493,-0.69976151,0
0.90162849,1.5747421,-5.3411217,-0.57341015,-0.70992887,-0.40890312,0
-4.7066226,4.3823175,-0.5016098,-0.76144147,0.2776238,0.5857746,0
-0.8186214,-2.4175844,5.4517384,0.30233711,-0.64724493,0.69976151,0
0.12820625,-2.2032657,5.1541643,0.57341015,0.70992887,0.40890312,0
-3.8189411,4.1153297,-1.7944736,-0.30233711,0.64724493,-0.69976151,0
-3.472991,3.9682584,-1.7814298,-0.30233711,0.64724493,-0.69976151,0
0.83860397,-0.76782382,-0.71953923,-0.57341015,-0.70992887,-0.40890312,0
0.29961419,2.6866052,-4.5795808,-0.30233711,0.64724493,-0.69976151,0
-2.2866993,3.573179,-2.9048748,-0.30233711,0.64724493,-0.69976151,0
1.5341995,1.2731674,-2.9926677,0.57341015,0.70992887,0.40890312,0
3.4457304,-1.9063075,-2.2249937,0.76144147,-0.2776238,-0.5857746,0
-0.44960153,-1.6555688,2.3777368,-0.57341015,-0.70992887,-0.40890312,0
4.7723422,-3.2033772,0.32637978,0.76144147,-0.2776238,-0.5857746,0
1.1508561,-0.9505353,-0.79332072,-0.57341015,-0.70992887,-0.40890312,0
0.64008784,2.5467932,-4.5022812,0.57341015,0.70992887,0.40890312,0
2.6113079,-3.0093119,0.67620158,-0.57341015,-0.70992887,-0.40890312,0
-0.33785295,2.3348432,-4.7123179,-0.30233711,0.64724493,-0.69976151,0
2.9675288,-3.6543701,2.4638696,0.30233711,-0.64724493,0.69976151,0
4.4401441,-2.7981119,-0.21636176,0.57341015,0.70992887,0.40890312,0
2.7871242,-3.8422098,1.3381143,-0.57341015,-0.70992887,-0.40890312,0
3.7918582,-4.1874781,1.410038,0.30233711,-0.64724493,0.69976151,0
-3.6880887,1.8799219,1.9896148,-0.76144147,0.2776238,0.5857746,0
4.1011677,-3.7863622,1.7179537,0.30233711,-0.64724493,0.69976151,0
2.1565657,0.99116063,-3.3923049,0.57341015,0.70992887,0.40890312,0
-1.5545394,-1.7372978,6.0484076,0.30233711,-0.64724493,0.69976151,0
2.9597855,-0.56043756,-3.8244896,0.76144147,-0.2776238,-0.5857746,0
-2.3544202,3.2087135,-3.347394,-0.30233711,0.64724493,-0.69976151,0
-4.1672544,2.2774284,1.0543945,-0.76144147,0.2776238,0.5857746,0
-0.70481169,-0.67990851,1.2365036,-0.57341015,-0.70992887,-0.40890312,0
-4.167181,3.2500515,0.65875411,-0.76144147,0.2776238,0.5857746,0
1.5159094,-2.9279637,1.7346854,-0.57341015,-0.70992887,-0.40890312,0
-1.2886187,-0.9346379,2.0777593,-0.57341015,-0.70992887,-0.40890312,0
0.6166203,-2.1913075,4.6396728,0.57341015,0.70992887,0.40890312,0
-1.5919324,3.4626756,-3.1933088,-0.30233711,0.64724493,-0.69976151,0
-2.9103296,1.5592387,-0.13619018,-0.57341015,-0.70992887,-0.40890312,0
-2.842989,3.3056355,-0.2460053,0.57341015,0.70992887,0.40890312,0
-3.4658086,1.8802497,2.1096656,-0.76144147,0.2776238,0.5857746,0
-4.7525148,4.3889608,-1.0633512,-0.30233711,0.64724493,-0.69976151,0
-1.6199042,3.6304431,-3.2039332,-0.30233711,0.64724493,-0.69976151,0
1.3076613,1.1344495,-5.3547192,-0.57341015,-0.70992887,-0.40890312,0
-0.7969842,-2.9002004,5.0481601,0.30233711,-0.64724493,0.69976151,0
-1.2803404,-2.2591419,5.4678411,0.30233711,-0.64724493,0.69976151,0
2.3006387,0.17046213,-4.9964323,0.76144147,-0.2776238,-0.5857746,0
0.75009561,0.70656466,-3.812947,-0.57341015,-0.70992887,-0.40890312,0
3.2850652,-0.59186453,-2.7995133,0.76144147,-0.2776238,-0.5857746,0
0.65397418,-0.28607631,-1.9749099,-0.57341015,-0.70992887,-0.40890312,0
0.19512749,-2.6947303,4.6692324,0.30233711,-0.64724493,0.69976151,0
-0.15867424,2.9179673,-4.2073441,-0.30233711,0.64724493,-0.69976151,0
-5.0554194,4.3085279,-1.0946875,-0.76144147,0.2776238,0.5857746,0
-1.84705,-1.6337521,5.7664995,-0.76144147,0.2776238,0.5857746,0
-1.6625865,-1.9629469,4.32477,-0.57341015,-0.70992887,-0.40890312,0
-2.5508628,-0.20228815,4.3353887,-0.76144147,0.2776238,0.5857746,0
-0.63998592,-0.50520527,2.5510826,0.57341015,0.70992887,0.40890312,0
2.5955682,-0.40862775,-4.080462,0.76144147,-0.2776238,-0.5857746,0
-1.9396017,-1.9385843,6.0451384,0.30233711,-0.64724493,0.69976151,0
-4.2493114,3.9093418,0.079716206,-0.76144147,0.2776238,0.5857746,0
2.1552789,1.6542773,-5.3424425,0.76144147,-0.2776238,-0.5857746,0
-3.2668009,1.7875743,0.37588441,-0.57341015,-0.70992887,-0.40890312,0
-3.7059557,1.3279235,2.2975898,-0.76144147,0.2776238,0.5857746,0
0.92170507,-2.5649295,1.5862513,-0.57341015,-0.70992887,-0.40890312,0
-0.89817297,3.153688,-3.8871088,-0.30233711,0.64724493,-0.69976151,0
-0.14283061,-2.0941343,5.3330803,0.57341015,0.70992887,0.40890312,0
3.9897752,-3.2529736,-1.2097259,0.76144147,-0.2776238,-0.5857746,0
-1.1798433,3.0255449,-3.9718766,-0.30233711,0.64724493,-0.69976151,0
-0.5196979,-1.3575305,2.3054667,-0.57341015,-0.70992887,-0.40890312,0
-1.1571879,0.99041098,-1.6377048,-0.57341015,-0.70992887,-0.40890312,0
-3.0449715,0.035530448,3.6357598,-0.76144147,0.2776238,0.5857746,0
2.1790748,-0.75226098,-0.62604088,0.57341015,0.70992887,0.40890312,0
-4.4020824,4.0960765,0.3205986,-0.76144147,0.2776238,0.5857746,0
1.0634919,-3.0047781,4.0482235,0.30233711,-0.64724493,0.69976151,0
-4.0835252,2.8250747,0.73276639,-0.76144147,0.2776238,0.5857746,0
-2.3354745,-0.71172005,3.0599885,-0.57341015,-0.70992887,-0.40890312,0
1.2511704,-3.2469144,3.7952905,0.30233711,-0.64724493,0.69976151,0
-2.3695459,0.21436834,4.459115,-0.76144147,0.2776238,0.5857746,0
1.9132936,0.92793512,-5.7170343,0.76144147,-0.2776238,-0.5857746,0
-0.47290039,-2.1348734,5.1714301,0.30233711,-0.64724493,0.69976151,0
-0.77547359,-2.853085,4.7170177,0.30233711,-0.64724493,0.69976151,0
-2.3232143,-0.79527843,4.7722635,-0.76144147,0.2776238,0.5857746,0
2.7507157,-0.22572756,-3.8814988,0.76144147,-0.2776238,-0.5857746,0
0.00043106079,2.6242118,-4.7908683,-0.30233711,0.64724493,-0.69976151,0
-0.65416503,-2.7634733,4.6218872,0.30233711,-0.64724493,0.69976151,0
-2.1192107,-0.62313104,5.1333528,-0.76144147,0.2776238,0.5857746,0
4.0589862,-4.1955528,1.5285583,0.30233711,-0.64724493,0.69976151,0
2.9019141,-2.9047847,0.10145593,-0.57341015,-0.70992887,-0.40890312,0
4.4301538,-4.0817881,1.4038396,0.30233711,-0.64724493,0.69976151,0
-4.751595,4.038455,-1.4413257,-0.30233711,0.64724493,-0.69976151,0
-0.11465898,1.5995429,-1.0287828,0.57341015,0.70992887,0.40890312,0
-1.236088,3.7617097,-3.3408136,-0.30233711,0.64724493,-0.69976151,0
-1.0666704,-2.5635111,5.0509501,0.30233711,-0.64724493,0.69976151,0
-1.4335845,2.8474178,-3.7973046,-0.30233711,0.64724493,-0.69976151,0
1.721025,-0.72424239,0.25369191,0.57341015,0.70992887,0.40890312,0
1.6696503,0.23160458,-4.1430655,-0.57341015,-0.70992887,-0.40890312,0
-2.7153435,0.45650852,3.9343109,-0.76144147,0.2776238,0.5857746,0
0.73845851,-0.67616755,-0.91438055,-0.57341015,-0.70992887,-0.40890312,0
-2.0400043,-2.0298004,5.9147148,-0.76144147,0.2776238,0.5857746,0
1.6277771,2.1043792,-6.0313601,-0.30233711,0.64724493,-0.69976151,0
-1.6521641,1.8176661,0.42948413,0.57341015,0.70992887,0.40890312,0
3.0427349,-0.98232543,-3.2845376,0.76144147,-0.2776238,-0.5857746,0
-3.5108418,0.71902055,2.8597565,-0.76144147,0.2776238,0.5857746,0
2.1245425,-1.4584082,1.0132961,0.57341015,0.70992887,0.40890312,0
-2.4424467,-0.56611562,5.0850096,-0.76144147,0.2776238,0.5857746,0
-2.2242084,-0.71015322,3.1727562,-0.57341015,-0.70992887,-0.40890312,0
0.96228904,0.83968794,-1.2723505,0.57341015,0.70992887,0.40890312,0
-3.6806197,2.7032144,1.5984386,-0.76144147,0.2776238,0.5857746,0
-0.40168023,-2.3997176,3.8645358,-0.57341015,-0.70992887,-0.40890312,0
3.1163604,-4.0711617,2.2617612,0.30233711,-0.64724493,0.69976151,0
4.2227883,-2.8371184,-0.71241021,0.76144147,-0.2776238,-0.5857746,0
-2.9186835,0.11489809,3.7381072,-0.76144147,0.2776238,0.5857746,0
-4.1108961,3.9513946,-1.4381618,-0.30233711,0.64724493,-0.69976151,0
-2.9941421,-0.41495979,3.7749276,-0.76144147,0.2776238,0.5857746,0
-2.3035283,3.7534323,-2.3988743,-0.30233711,0.64724493,-0.69976151,0
0.26547647,-2.9050479,4.2887573,0.30233711,-0.64724493,0.69976151,0
-3.136857,0.13619268,3.836998,-0.76144147,0.2776238,0.5857746,0
2.5927596,-1.2369339,-2.4163954,-0.57341015,-0.70992887,-0.40890312,0
3.5774076,-3.7469788,0.044214725,-0.57341015,-0.70992887,-0.40890312,0
4.3189764,-3.8757274,1.7810254,0.30233711,-0.64724493,0.69976151,0
0.89958656,-3.2142425,3.8661013,0.30233711,-0.64724493,0.69976151,0
-0.94186282,-2.4469845,4.5854154,-0.57341015,-0.70992887,-0.40890312,0
3.0280681,-1.7786071,-0.41537893,0.57341015,0.70992887,0.40890312,0
-2.9145827,0.91069555,3.1966939,-0.76144147,0.2776238,0.5857746,0
1.3668301,-3.4012618,2.6103282,-0.57341015,-0.70992887,-0.40890312,0
2.990891,-3.8862371,1.3320408,-0.57341015,-0.70992887,-0.40890312,0
1.0070553,0.43381846,-3.3526728,-0.57341015,-0.70992887,-0.40890312,0
-0.46136993,2.4833975,-2.021486,0.57341015,0.70992887,0.40890312,0
1.0912006,2.4632139,-4.7870712,0.57341015,0.70992887,0.40890312,0
-2.8940618,4.0113878,-2.3567576,-0.30233711,0.64724493,-0.69976151,0
-3.697125,1.5241327,2.0703211,-0.76144147,0.2776238,0.5857746,0
0.30624747,-3.1357405,4.1952491,0.30233711,-0.64724493,0.69976151,0
0.49296379,1.3855717,-4.3324971,-0.57341015,-0.70992887,-0.40890312,0
0.79480135,0.59762013,-3.342294,-0.57341015,-0.70992887,-0.40890312,0
-2.2229807,1.6663287,-0.73828793,-0.57341015,-0.70992887,-0.40890312,0
3.8546491,-2.6637788,-1.4128133,0.76144147,-0.2776238,-0.5857746,0
-1.3556254,2.719775,-3.9626241,-0.30233711,0.64724493,-0.69976151,0
-0.38199139,-1.481022,3.9586151,0.57341015,0.70992887,0.40890312,0
-1.4908111,-0.34727985,1.2834868,-0.57341015,-0.70992887,-0.40890312,0
1.720191,-2.7667956,0.88213634,-0.57341015,-0.70992887,-0.40890312,0
-2.7316186,-0.48582327,4.4180613,-0.76144147,0.2776238,0.5857746,0
4.0293436,-3.1956129,-0.64444995,0.76144147,-0.2776238,-0.5857746,0
-4.1241674,3.0117083,-0.97353411,-0.57341015,-0.70992887,-0.40890312,0
0.53887558,-3.0599079,3.0291486,-0.57341015,-0.70992887,-0.40890312,0
3.7401838,-1.8454857,-2.102361,0.76144147,-0.2776238,-0.5857746,0
2.1781063,1.5504131,-5.5234094,0.76144147,-0.2776238,-0.5857746,0
1.7121227,1.3767252,-5.9526763,0.76144147,-0.2776238,-0.5857746,0
-0.39641631,-0.32705486,1.9453015,0.57341015,0.70992887,0.40890312,0
-4.1448154,3.9766164,-1.6352048,-0.30233711,0.64724493,-0.69976151,0
0.32741952,-1.8251624,4.4077106,0.57341015,0.70992887,0.40890312,0
-0.55300832,-2.6393974,5.0441022,0.30233711,-0.64724493,0.69976151,0
4.2514982,-3.8892875,-0.0075731277,0.76144147,-0.2776238,-0.5857746,0
-3.1805961,0.096684277,3.3855608,-0.76144147,0.2776238,0.5857746,0
3.8678563,-1.7073057,-1.8221574,0.76144147,-0.2776238,-0.5857746,0
-3.0218906,1.1274062,2.9008567,-0.76144147,0.2776238,0.5857746,0
1.8447675,-0.41889942,-3.3836555,-0.57341015,-0.70992887,-0.40890312,0
1.5488038,2.0315824,-4.9177933,0.57341015,0.70992887,0.40890312,0
-0.27879357,-2.9435117,4.670784,0.30233711,-0.64724493,0.69976151,0
3.5090084,-3.867763,2.2454581,0.30233711,-0.64724493,0.69976151,0
-1.483521,-0.23740149,4.1046743,0.57341015,0.70992887,0.40890312,0
0.65861678,-2.2849641,4.5670614,0.30233711,-0.64724493,0.69976151,0
-2.1981006,1.475787,-0.82124233,-0.57341015,-0.70992887,-0.40890312,0
1.5726397,1.2305291,-5.7156024,-0.57341015,-0.70992887,-0.40890312,0
-0.52283716,3.012702,-4.3374467,-0.30233711,0.64724493,-0.69976151,0
-0.21190882,3.037982,-3.9134583,0.57341015,0.70992887,0.40890312,0
-0.74511051,-2.2811158,5.2930012,0.30233711,-0.64724493,0.69976151,0
-4.8149152,3.9867675,-0.56802702,-0.76144147,0.2776238,0.5857746,0
-0.73783857,0.82968044,1.0910718,0.57341015,0.70992887,0.40890312,0
-2.2410572,1.9400258,-1.8654053,-0.57341015,-0.70992887,-0.40890312,0
-0.44039416,2.7427516,-4.2106709,-0.30233711,0.64724493,-0.69976151,0
-3.2474058,-0.1213361,3.8078043,-0.76144147,0.2776238,0.5857746,0
3.3551409,-1.5739512,-2.6633034,0.76144147,-0.2776238,-0.5857746,0
-5.0647087,3.9702916,-0.92285633,-0.76144147,0.2776238,0.5857746,0
-1.4755628,-2.3083963,5.6499376,0.30233711,-0.64724493,0.69976151,0
-0.19573545,-1.4394108,3.6490355,0.57341015,0.70992887,0.40890312,0
-1.5861027,3.1933889,-3.4423771,-0.30233711,0.64724493,-0.69976151,0
-0.040634632,-2.497606,4.7718129,0.30233711,-0.64724493,0.69976151,0
-4.4759912,4.2781563,-1.1983113,-0.30233711,0.64724493,-0.69976151,0
1.3577321,-0.18002057,-0.20961709,0.57341015,0.70992887,0.40890312,0
2.6669374,-0.42147562,-2.158602,0.57341015,0.70992887,0.40890312,0
-4.8270454,4.0774288,-1.2678533,-0.30233711,0.64724493,-0.69976151,0
2.342531,-3.6277888,2.7151923,0.30233711,-0.64724493,0.69976151,0
1.3889397,-3.4586849,3.3621545,0.30233711,-0.64724493,0.69976151,0
-0.37835121,-2.1014409,5.3850493,0.30233711,-0.64724493,0.69976151,0
-3.0682163,0.041950822,3.8523326,-0.76144147,0.2776238,0.5857746,0
3.6274977,-3.8175244,1.9108386,0.30233711,-0.64724493,0.69976151,0
-2.781373,0.6605953,3.6019247,-0.76144147,0.2776238,0.5857746,0
0.66684318,2.9067273,-4.9515166,-0.30233711,0.64724493,-0.69976151,0
0.80576694,-2.4507849,4.0216246,0.57341015,0.70992887,0.40890312,0
1.9813814,1.5485073,-5.7866216,0.76144147,-0.2776238,-0.5857746,0
0.76610553,-1.9638734,3.1271279,0.57341015,0.70992887,0.40890312,0
1.9851065,2.2244341,-5.5821724,0.57341015,0.70992887,0.40890312,0
-3.3061795,0.53929335,2.9673235,-0.76144147,0.2776238,0.5857746,0
-1.1066387,3.4132991,-3.2343225,-0.30233711,0.64724493,-0.69976151,0
3.5617938,-0.88954228,-2.863256,0.76144147,-0.2776238,-0.5857746,0
-3.2226233,3.8249092,-2.3019314,-0.30233711,0.64724493,-0.69976151,0
2.8348079,-0.94820154,-3.2852638,0.76144147,-0.2776238,-0.5857746,0
4.2498212,-2.7081199,-0.6250968,0.76144147,-0.2776238,-0.5857746,0
0.31421566,0.99941206,-3.270638,-0.57341015,-0.70992887,-0.40890312,0
-0.62104225,-2.179877,3.8259554,-0.57341015,-0.70992887,-0.40890312,0
-0.3486557,-3.1019952,4.6238112,0.30233711,-0.64724493,0.69976151,0
2.5081663,-4.0617008,2.1837878,0.30233711,-0.64724493,0.69976151,0
1.5502988,-2.3544974,2.9938459,0.57341015,0.70992887,0.40890312,0
1.969919,1.5234556,-5.8339834,0.76144147,-0.2776238,-0.5857746,0
2.9371214,-0.94523048,-3.4021456,0.76144147,-0.2776238,-0.5857746,0
-0.77788514,3.1657746,-2.9339409,0.57341015,0.70992887,0.40890312,0
1.952612,-2.108397,2.093677,0.57341015,0.70992887,0.40890312,0
1.6513976,-1.352639,-0.90871918,-0.57341015,-0.70992887,-0.40890312,0
2.0960536,-0.26608288,-3.6180844,-0.57341015,-0.70992887,-0.40890312,0
2.4098904,-2.5263846,0.0049927235,-0.57341015,-0.70992887,-0.40890312,0
1.5340859,-3.1485336,3.5222073,0.30233711,-0.64724493,0.69976151,0
-1.3678379,-1.7944136,5.9396186,0.30233711,-0.64724493,0.69976151,0
3.5792718,-1.1469421,-2.6880763,0.76144147,-0.2776238,-0.5857746,0
0.79342246,2.3109694,-5.0966172,-0.30233711,0.64724493,-0.69976151,0
2.0811007,0.65631342,-5.0864215,0.76144147,-0.2776238,-0.5857746,0
1.557765,-0.54064643,-2.6065128,-0.57341015,-0.70992887,-0.40890312,0
3.5030005,-1.481086,-0.96551728,0.57341015,0.70992887,0.40890312,0
-2.3284483,-1.5609707,5.4984894,-0.76144147,0.2776238,0.5857746,0
-0.25372279,-0.20426285,1.5030913,0.57341015,0.70992887,0.40890312,0
1.4843426,2.453196,-5.3449831,-0.30233711,0.64724493,-0.69976151,0
-1.8125088,-1.4752519,6.1364555,-0.76144147,0.2776238,0.5857746,0
-1.3566717,0.59969711,-0.34083688,-0.57341015,-0.70992887,-0.40890312,0
3.2299328,-0.4813627,-3.4541433,0.76144147,-0.2776238,-0.5857746,0
2.0113301,-0.26390952,-1.0764685,0.57341015,0.70992887,0.40890312,0
-1.39334,-0.053617001,2.9826446,0.57341015,0.70992887,0.40890312,0
-3.60393,1.4314415,2.1620622,-0.76144147,0.2776238,0.5857746,0
0.28891543,-1.352411,0.72734118,-0.57341015,-0.70992887,-0.40890312,0
4.5169611,-3.366035,-0.24201488,0.76144147,-0.2776238,-0.5857746,0
-0.90748376,1.1883564,0.83193797,0.57341015,0.70992887,0.40890312,0
0.62566757,-2.6553051,4.1420512,0.30233711,-0.64724493,0.69976151,0
-3.2974567,1.2310574,2.542635,-0.76144147,0.2776238,0.5857746,0
-0.56295586,2.4642901,-4.5406394,-0.30233711,0.64724493,-0.69976151,0
-1.0365347,3.161823,-3.8017612,-0.30233711,0.64724493,-0.69976151,0
0.017410278,2.2573829,-5.3445306,-0.30233711,0.64724493,-0.69976151,0
-2.8253117,0.055532694,3.803185,-0.76144147,0.2776238,0.5857746,0
0.56122375,2.0675197,-5.2131648,-0.30233711,0.64724493,-0.69976151,0
2.625864,0.031883001,-4.2736974,0.76144147,-0.2776238,-0.5857746,0
0.70905924,1.8869553,-5.0129929,-0.57341015,-0.70992887,-0.40890312,0
2.6657915,1.4423575,-5.1380105,0.76144147,-0.2776238,-0.5857746,0
-1.7901276,0.13637805,3.0836535,0.57341015,0.70992887,0.40890312,0
2.7088499,-0.58095169,-3.621037,0.76144147,-0.2776238,-0.5857746,0
-0.61404002,3.411694,-3.3806591,0.57341015,0.70992887,0.40890312,0
-3.9919553,1.7741512,1.8300585,-0.76144147,0.2776238,0.5857746,0
-3.4539247,3.9246087,-1.8581381,-0.30233711,0.64724493,-0.69976151,0
3.6524053,-2.2939317,-1.7217953,0.76144147,-0.2776238,-0.5857746,0
2.0848191,1.8365502,-6.0205698,0.76144147,-0.2776238,-0.5857746,0
3.372679,-1.8233759,-2.1565688,0.76144147,-0.2776238,-0.5857746,0
2.7369809,-2.1681857,-0.90350473,-0.57341015,-0.70992887,-0.40890312,0
-4.3871822,3.4874492,0.18593645,-0.76144147,0.2776238,0.5857746,0
1.7273729,-3.6612368,2.7926579,0.30233711,-0.64724493,0.69976151,0
4.127161,-2.0274432,-1.38428,0.76144147,-0.2776238,-0.5857746,0
3.1883378,-0.96622515,-3.3253062,0.76144147,-0.2776238,-0.5857746,0
4.4621668,-3.903017,1.8181958,0.30233711,-0.64724493,0.69976151,0
3.3178639,-0.78848767,-2.7196746,0.76144147,-0.2776238,-0.5857746,0
-4.0491414,2.4258342,0.41005588,-0.57341015,-0.70992887,-0.40890312,0
-4.315259,2.1334839,1.3957367,-0.76144147,0.2776238,0.5857746,0
-3.303185,0.058463097,3.376452,-0.76144147,0.2776238,0.5857746,0
4.420763,-2.5952435,-0.83112264,0.76144147,-0.2776238,-0.5857746,0
2.1933942,2.4097745,-5.6565986,-0.30233711,0.64724493,-0.69976151,0
-4.3903618,4.4438353,-1.1435585,-0.30233711,0.64724493,-0.69976151,0
-1.0765111,3.2048814,-3.9265332,-0.30233711,0.64724493,-0.69976151,0
-0.83699775,1.9195505,-1.3658574,0.57341015,0.70992887,0.40890312,0
0.72122675,0.45680428,-0.36059523,0.57341015,0.70992887,0.40890312,0
-2.2595112,-1.0174378,3.7550685,-0.57341015,-0.70992887,-0.40890312,0
-3.1839824,0.24638867,3.1018364,-0.76144147,0.2776238,0.5857746,0
2.6548645,1.0578171,-5.0081863,0.76144147,-0.2776238,-0.5857746,0
0.72563958,1.4661918,-4.5224056,-0.57341015,-0.70992887,-0.40890312,0
-3.1252263,0.36748236,2.9268689,-0.57341015,-0.70992887,-0.40890312,0
0.98887658,1.5243787,-2.7042334,0.57341015,0.70992887,0.40890312,0
-0.80206728,-0.70716512,3.9052474,0.57341015,0.70992887,0.40890312,0
2.5756602,-3.7853112,2.5941334,0.30233711,-0.64724493,0.69976151,0
0.31548548,-2.6648629,4.5839748,0.30233711,-0.64724493,0.69976151,0
2.1750548,-1.4040818,-1.7242135,-0.57341015,-0.70992887,-0.40890312,0
-1.0147697,-0.21746612,3.2751353,0.57341015,0.70992887,0.40890312,0
0.054331064,2.3002968,-2.7540359,0.57341015,0.70992887,0.40890312,0
-3.8925819,2.3455007,1.5869422,-0.76144147,0.2776238,0.5857746,0
3.2479765,-1.2875725,-3.1761556,0.76144147,-0.2776238,-0.5857746,0
4.5719457,-4.0141306,1.3900752,0.30233711,-0.64724493,0.69976151,0
0.96393764,-3.3394313,3.8965735,0.30233711,-0.64724493,0.69976151,0
-3.9562886,2.3193038,1.6248002,-0.76144147,0.2776238,0.5857746,0
1.0990883,-3.1598477,3.5075393,0.30233711,-0.64724493,0.69976151,0
-3.798378,1.8663547,1.7321136,-0.76144147,0.2776238,0.5857746,0
3.787745,-1.4959999,-1.8493049,0.57341015,0.70992887,0.40890312,0
0.19575858,-2.6275845,4.6622462,0.30233711,-0.64724493,0.69976151,0
0.28282595,-3.1174557,4.132524,0.30233711,-0.64724493,0.69976151,0
0.97726274,2.5189977,-4.7707415,0.57341015,0.70992887,0.40890312,0
2.70436,-1.924517,-1.7569156,-0.57341015,-0.70992887,-0.40890312,0
1.7422018,1.7009032,-6.2424216,0.76144147,-0.2776238,-0.5857746,0
4.0583329,-3.1339848,0.85600615,0.57341015,0.70992887,0.40890312,0
-2.1349735,3.2666454,-2.9432616,-0.30233711,0.64724493,-0.69976151,0
-1.7361906,3.1880977,-1.848031,0.57341015,0.70992887,0.40890312,0
1.3724831,-3.1461689,3.8593178,0.30233711,-0.64724493,0.69976151,0
2.6084654,0.79593861,-4.5342698,0.76144147,-0.2776238,-0.5857746,0
2.7274742,-0.74181724,-3.634522,0.76144147,-0.2776238,-0.5857746,0
3.101758,-0.23590016,-3.7826757,0.76144147,-0.2776238,-0.5857746,0
-4.2882357,4.1055284,-0.035111904,-0.76144147,0.2776238,0.5857746,0
-4.2354999,3.6877782,0.11315966,-0.76144147,0.2776238,0.5857746,0
4.2663136,-2.9157939,0.59670949,0.57341015,0.70992887,0.40890312,0
2.3965547,1.010148,-4.8692417,0.76144147,-0.2776238,-0.5857746,0
-1.9666238,-2.1213903,6.0632281,0.30233711,-0.64724493,0.69976151,0
3.3640404,-3.9368858,1.832056,0.30233711,-0.64724493,0.69976151,0
4.2501078,-4.1942186,-0.35228395,-0.57341015,-0.70992887,-0.40890312,0
-1.6910818,-2.2356949,5.6449347,0.30233711,-0.64724493,0.69976151,0
1.4096111,-2.0585771,2.5698597,0.57341015,0.70992887,0.40890312,0
-2.9107392,2.1856101,-0.83856297,-0.57341015,-0.70992887,-0.40890312,0
3.8201811,-1.4468389,-1.9030728,0.76144147,-0.2776238,-0.5857746,0
-2.0799232,-1.7457646,5.9340367,-0.76144147,0.2776238,0.5857746,0
-1.450901,-1.6335776,5.7195177,0.57341015,0.70992887,0.40890312,0
-0.87519288,3.1404896,-3.6891603,-0.30233711,0.64724493,-0.69976151,0
3.2704706,-1.6149926,-2.3591287,0.76144147,-0.2776238,-0.5857746,0
1.0247519,1.5002407,-4.9632554,-0.57341015,-0.70992887,-0.40890312,0
-2.3107851,-1.2453678,5.4830761,-0.76144147,0.2776238,0.5857746,0
-3.5941799,1.2079034,2.6535516,-0.76144147,0.2776238,0.5857746,0
2.5231252,-3.999856,2.609272,0.30233711,-0.64724493,0.69976151,0
-1.4521236,3.2141652,-2.3149099,0.57341015,0.70992887,0.40890312,0
2.4104817,1.8553734,-5.7402072,0.76144147,-0.2776238,-0.5857746,0
-1.3234102,2.9944577,-3.6560678,-0.30233711,0.64724493,-0.69976151,0
1.1136792,1.6211264,-5.1702566,-0.57341015,-0.70992887,-0.40890312,0
2.5327294,1.3464257,-5.3077917,0.76144147,-0.2776238,-0.5857746,0
-3.3116879,1.1376565,2.5674853,-0.76144147,0.2776238,0.5857746,0
2.1475415,-2.8390102,0.52609968,-0.57341015,-0.70992887,-0.40890312,0
-3.602154,4.3331075,-1.7606058,-0.30233711,0.64724493,-0.69976151,0
3.7829692,-4.1491513,1.5281019,0.30233711,-0.64724493,0.69976151,0
-2.5951757,3.3596911,-3.0024924,-0.30233711,0.64724493,-0.69976151,0
-0.076985359,-2.1098497,5.0589924,0.30233711,-0.64724493,0.69976151,0
-4.0090251,4.2364111,-1.312747,-0.30233711,0.64724493,-0.69976151,0
-3.9037144,4.0600243,-1.4899039,-0.30233711,0.64724493,-0.69976151,0
2.5340502,-4.0590258,2.3762126,0.30233711,-0.64724493,0.69976151,0
-4.1178288,2.6904111,0.97354102,-0.76144147,0.2776238,0.5857746,0
-0.99198413,3.4377027,-3.4364934,-0.30233711,0.64724493,-0.69976151,0
3.6536624,-1.8086796,-2.2093899,0.76144147,-0.2776238,-0.5857746,0
0.93524539,-0.056321144,-2.1063693,-0.57341015,-0.70992887,-0.40890312,0
1.1083064,-2.624306,4.2051568,0.30233711,-0.64724493,0.69976151,0
4.787293,-3.4546146,0.25455284,0.76144147,-0.2776238,-0.5857746,0
-2.5393424,-1.3042868,4.9572935,-0.76144147,0.2776238,0.5857746,0
2.337431,1.199864,-5.0853767,0.76144147,-0.2776238,-0.5857746,0
-1.5957859,-2.5642905,5.6565237,0.30233711,-0.64724493,0.69976151,0
2.5588989,-3.770154,2.3133979,0.30233711,-0.64724493,0.69976151,0
-4.7981181,4.2566619,-0.60583925,-0.76144147,0.2776238,0.5857746,0
3.1415412,-0.92034054,-3.041091,0.76144147,-0.2776238,-0.5857746,0
3.1620653,-1.2554351,-0.70826906,0.57341015,0.70992887,0.40890312,0
2.4289441,-0.37970161,-3.8389521,-0.57341015,-0.70992887,-0.40890312,0
-2.8091421,1.4313822,0.66312885,-0.57341015,-0.70992887,-0.40890312,0
-1.3197688,3.506345,-3.225471,-0.30233711,0.64724493,-0.69976151,0
-2.3819523,2.5453382,0.10785437,0.57341015,0.70992887,0.40890312,0
-1.243372,-2.2392495,5.4880371,0.30233711,-0.64724493,0.69976151,0
3.1407585,-0.22382367,-3.7849009,0.76144147,-0.2776238,-0.5857746,0
3.2536008,-2.1878541,0.72557306,0.57341015,0.70992887,0.40890312,0
-0.7469005,1.2191212,-2.6703482,-0.57341015,-0.70992887,-0.40890312,0
3.8442602,-3.3298078,1.8267245,0.57341015,0.70992887,0.40890312,0
-0.69895136,2.7853203,-4.0970182,-0.30233711,0.64724493,-0.69976151,0
3.4462287,-1.7247078,-2.0801606,0.76144147,-0.2776238,-0.5857746,0
-2.4945107,-0.9940021,5.0390978,-0.76144147,0.2776238,0.5857746,0
-4.8826232,3.9326468,-1.1423011,-0.57341015,-0.70992887,-0.40890312,0
2.972611,0.21226573,-3.7307158,0.76144147,-0.2776238,-0.5857746,0
2.7372999,-3.604625,2.4114547,0.30233711,-0.64724493,0.69976151,0
1.139502,-1.0286331,-1.3132074,-0.57341015,-0.70992887,-0.40890312,0
2.7543204,-1.9449871,-1.4052943,-0.57341015,-0.70992887,-0.40890312,0
2.2315662,-1.8054305,-0.86840463,-0.57341015,-0.70992887,-0.40890312,0
0.085753441,-3.1419301,4.1943364,0.30233711,-0.64724493,0.69976151,0
-0.60560346,-1.9542086,2.7013428,-0.57341015,-0.70992887,-0.40890312,0
0.35160032,-1.8855047,1.4528797,-0.57341015,-0.70992887,-0.40890312,0
2.3915913,1.7444465,-5.5828733,0.76144147,-0.2776238,-0.5857746,0
-4.8449035,3.5755033,-0.27642775,-0.76144147,0.2776238,0.5857746,0
0.6924392,-1.0773326,0.04707849,-0.57341015,-0.70992887,-0.40890312,0
4.1311207,-2.8005733,-1.2652909,0.76144147,-0.2776238,-0.5857746,0
1.6595035,-3.6109953,3.2435918,0.30233711,-0.64724493,0.69976151,0
-0.9707489,-1.0490638,2.3999023,-0.57341015,-0.70992887,-0.40890312,0
-1.0765219,-2.5809181,5.2013474,0.30233711,-0.64724493,0.69976151,0
4.1007261,-3.730083,2.059577,0.30233711,-0.64724493,0.69976151,0
0.87358117,1.9607631,-3.5590072,0.57341015,0.70992887,0.40890312,0
-4.9316826,4.7880769,-0.82074642,-0.76144147,0.2776238,0.5857746,0
-2.4713089,-0.93788338,4.7222061,-0.76144147,0.2776238,0.5857746,0
-1.0220166,-0.49804136,1.4258879,-0.57341015,-0.70992887,-0.40890312,0
-4.1226816,3.7548254,0.69157696,-0.76144147,0.2776238,0.5857746,0
1.1170357,-3.3967524,3.668345,0.30233711,-0.64724493,0.69976151,0
-2.9810662,0.085073352,3.5168848,-0.76144147,0.2776238,0.5857746,0
0.11452413,-2.974087,4.43718,0.30233711,-0.64724493,0.69976151,0
2.4336929,0.5545119,-3.1468053,0.57341015,0.70992887,0.40890312,0
-4.561233,3.0167968,0.41357064,-0.76144147,0.2776238,0.5857746,0
3.2963481,-1.0226885,-3.1137309,0.76144147,-0.2776238,-0.5857746,0
-2.4368374,-1.4355073,5.2651291,-0.76144147,0.2776238,0.5857746,0
-2.1684098,3.7541583,-2.6118417,-0.30233711,0.64724493,-0.69976151,0
-0.87194335,3.4682355,-3.6555591,-0.30233711,0.64724493,-0.69976151,0
2.3705702,-1.3693904,0.68610775,0.57341015,0.70992887,0.40890312,0
-2.1154375,1.4821076,-0.42249763,-0.57341015,-0.70992887,-0.40890312,0
-1.0348556,-2.0282502,5.5065613,0.30233711,-0.64724493,0.69976151,0
-1.4223237,-0.47931266,3.8894684,0.57341015,0.70992887,0.40890312,0
-2.0542672,-1.1296178,5.2090406,-0.76144147,0.2776238,0.5857746,0
-2.2831905,2.9449389,-3.193604,-0.30233711,0.64724493,-0.69976151,0
2.3959246,-2.1014843,-1.0536503,-0.57341015,-0.70992887,-0.40890312,0
4.6211782,-4.4692383,1.2496014,0.30233711,-0.64724493,0.69976151,0
3.0168066,-3.3490963,2.5197859,0.30233711,-0.64724493,0.69976151,0
-3.0511444,0.38088286,2.8449254,-0.57341015,-0.70992887,-0.40890312,0
2.2168436,0.98129499,-5.4652643,0.76144147,-0.2776238,-0.5857746,0
2.6444044,-2.665292,-0.52475309,-0.57341015,-0.70992887,-0.40890312,0
2.5179949,0.97955394,-4.7096934,0.76144147,-0.2776238,-0.5857746,0
-2.1990523,3.1714745,-3.0233865,-0.30233711,0.64724493,-0.69976151,0
2.5811653,-3.2081394,3.2529716,0.30233711,-0.64724493,0.69976151,0
1.9635518,0.83614612,-5.3542557,0.76144147,-0.2776238,-0.5857746,0
-2.9901836,0.22693276,3.3693075,-0.76144147,0.2776238,0.5857746,0
-2.6410065,-0.48961425,4.3536654,-0.76144147,0.2776238,0.5857746,0
-3.2334731,1.6122402,2.5586007,-0.76144147,0.2776238,0.5857746,0
-2.4040625,0.34973168,4.0913076,-0.76144147,0.2776238,0.5857746,0
0.99501467,-2.8192723,3.8251071,0.30233711,-0.64724493,0.69976151,0
-0.73721057,1.0435809,0.62728643,0.57341015,0.70992887,0.40890312,0
-3.709609,2.5568819,-0.80939627,-0.57341015,-0.70992887,-0.40890312,0
-3.9227428,2.1196046,1.3177843,-0.76144147,0.2776238,0.5857746,0
-2.9203644,3.8751349,-2.3107114,-0.30233711,0.64724493,-0.69976151,0
2.3437927,1.6747754,-5.5231886,0.76144147,-0.2776238,-0.5857746,0
0.35573149,1.5287853,-4.5581517,-0.57341015,-0.70992887,-0.40890312,0
-3.3550525,0.30308944,3.2711365,-0.76144147,0.2776238,0.5857746,0
-2.8697977,3.2787955,-2.5996547,-0.57341015,-0.70992887,-0.40890312,0
3.3872502,-4.1015782,1.6556907,0.30233711,-0.64724493,0.69976151,0
-2.3972163,-1.1725062,3.9839408,-0.57341015,-0.70992887,-0.40890312,0
-0.9616043,-1.0982232,2.0217707,-0.57341015,-0.70992887,-0.40890312,0
-3.8339539,2.812144,1.7068169,-0.76144147,0.2776238,0.5857746,0
-2.279166,3.4483085,-2.009304,0.57341015,0.70992887,0.40890312,0
1.6378574,2.4152026,-5.109962,0.57341015,0.70992887,0.40890312,0
-1.7512121,2.4971247,-0.339252,0.57341015,0.70992887,0.40890312,0
2.0706873,-3.9108126,2.7628431,0.30233711,-0.64724493,0.69976151,0
-2.8272491,-0.028570294,3.7042937,-0.76144147,0.2776238,0.5857746,0
-2.1440718,-1.8394656,5.742166,-0.76144147,0.2776238,0.5857746,0
1.0468972,2.3888686,-4.0541353,0.57341015,0.70992887,0.40890312,0
3.0397203,-0.88924456,-3.0134902,0.76144147,-0.2776238,-0.5857746,0
3.2883296,-2.3983712,-1.4376422,-0.57341015,-0.70992887,-0.40890312,0
1.7211111,-3.712085,2.9537125,0.30233711,-0.64724493,0.69976151,0
-2.6053102,-0.23701122,2.7042851,-0.57341015,-0.70992887,-0.40890312,0
-2.6169319,-0.47250402,4.4574776,-0.76144147,0.2776238,0.5857746,0
-2.7550502,2.4630063,-1.4992688,-0.57341015,-0.70992887,-0.40890312,0
2.1825271,0.98053902,-3.1763313,0.57341015,0.70992887,0.40890312,0
0.80878174,-0.56314921,-1.3991849,-0.57341015,-0.70992887,-0.40890312,0
-4.1521749,4.4805422,-1.3872333,-0.30233711,0.64724493,-0.69976151,0
0.47694445,-1.8911495,3.3938649,0.57341015,0.70992887,0.40890312,0
3.6294661,-1.9128232,-2.1094797,0.76144147,-0.2776238,-0.5857746,0
2.9779243,-0.20454741,-3.4403951,0.76144147,-0.2776238,-0.5857746,0
-3.1475024,0.89992201,3.0581708,-0.76144147,0.2776238,0.5857746,0
-1.0037374,3.6645164,-3.476089,-0.30233711,0.64724493,-0.69976151,0
-0.24397373,-1.4287952,3.9522896,0.57341015,0.70992887,0.40890312,0
-2.6605077,2.3282158,-1.9359808,-0.57341015,-0.70992887,-0.40890312,0
-2.5151663,-0.014153957,4.2417703,-0.76144147,0.2776238,0.5857746,0
-1.5464394,3.4206069,-3.472311,-0.30233711,0.64724493,-0.69976151,0
4.111196,-4.095592,1.617908,0.30233711,-0.64724493,0.69976151,0
3.057802,-0.066462159,-3.9077125,0.76144147,-0.2776238,-0.5857746,0
-1.4756982,1.5683602,0.4191283,0.57341015,0.70992887,0.40890312,0
2.2942886,0.40476036,-4.6656809,0.76144147,-0.2776238,-0.5857746,0
-3.2091653,2.2328675,1.3581909,0.57341015,0.70992887,0.40890312,0
2.0012288,-0.72611082,-3.0565913,-0.57341015,-0.70992887,-0.40890312,0
-1.6295006,2.9702544,-3.4908934,-0.30233711,0.64724493,-0.69976151,0
0.18442249,-2.629575,4.871747,0.30233711,-0.64724493,0.69976151,0
1.4726841,1.9233556,-5.9544144,-0.30233711,0.64724493,-0.69976151,0
-3.0179634,1.3128109,2.8508067,-0.76144147,0.2776238,0.5857746,0
3.8802764,-2.2099917,-1.4491045,0.76144147,-0.2776238,-0.5857746,0
-1.5760388,3.2721603,-3.6945853,-0.30233711,0.64724493,-0.69976151,0
-0.86764979,3.2680516,-3.6415372,-0.30233711,0.64724493,-0.69976151,0
-3.1003294,-0.34130192,4.1511903,-0.76144147,0.2776238,0.5857746,0
-3.0122449,3.1038768,0.53140473,0.57341015,0.70992887,0.40890312,0
-0.097665787,2.7503181,-4.6093941,-0.30233711,0.64724493,-0.69976151,0
2.8141057,-3.2001152,2.9698176,0.30233711,-0.64724493,0.69976151,0
2.6544018,-3.7908416,1.3431201,-0.57341015,-0.70992887,-0.40890312,0
3.5189977,-3.6538956,-0.24651766,-0.57341015,-0.70992887,-0.40890312,0
0.17890668,-2.8539805,3.7127047,-0.57341015,-0.70992887,-0.40890312,0
-0.17554569,1.210434,-2.9516578,-0.57341015,-0.70992887,-0.40890312,0
-3.1751101,0.8225652,3.3761828,-0.76144147,0.2776238,0.5857746,0
-2.5595095,-0.22746599,4.2769837,-0.76144147,0.2776238,0.5857746,0
4.6537709,-4.425108,0.54208136,0.76144147,-0.2776238,-0.5857746,0
3.7675726,-2.5601952,-1.5186232,0.76144147,-0.2776238,-0.5857746,0
1.8024855,-2.894423,3.6338944,0.30233711,-0.64724493,0.69976151,0
-3.3607705,3.649446,-0.21389389,0.57341015,0.70992887,0.40890312,0
1.9802482,0.54925132,-5.2176809,0.76144147,-0.2776238,-0.5857746,0
-2.0099199,-1.9581406,6.0443916,0.30233711,-0.64724493,0.69976151,0
2.9498491,-0.36029458,-3.7849641,0.76144147,-0.2776238,-0.5857746,0
0.94417536,-1.2506622,-0.82392156,-0.57341015,-0.70992887,-0.40890312,0
-3.2467957,2.2239962,1.9366087,0.57341015,0.70992887,0.40890312,0
1.0000771,-3.4740453,3.4021435,0.30233711,-0.64724493,0.69976151,0
-3.3299446,1.5951035,0.68581712,-0.57341015,-0.70992887,-0.40890312,0
3.4016843,-4.1000085,1.6117969,0.30233711,-0.64724493,0.69976151,0
