-0.32830107,0.37165678,-1.2707821,0.28485742,0.1291759,-0.94982618,0
-0.19913957,0.18759811,1.0361171,-0.28485742,-0.1291759,0.94982618,0
-1.5519589,0.35883635,0.60105062,-0.86448807,0.46272382,-0.19633391,0
-1.3176882,0.9886893,-0.24375826,-0.86448807,0.46272382,-0.19633391,0
-0.77992302,2.1105356,-0.14064598,-0.86448807,0.46272382,-0.19633391,0
-1.786258,-0.020040691,0.60782695,-0.28485742,-0.1291759,0.94982618,0
-1.1021378,1.1737795,-0.37966025,-0.86448807,0.46272382,-0.19633391,0
-0.14984468,1.6495711,0.62682676,0.41414562,0.87704057,0.24348128,0
0.86291623,1.6436787,-0.55592942,0.28485742,0.1291759,-0.94982618,0
0.40494001,1.6316991,0.089350224,0.41414562,0.87704057,0.24348128,0
-1.0770861,0.8683852,0.73145902,-0.28485742,-0.1291759,0.94982618,0
-0.45087188,0.71846056,-1.1133683,0.28485742,0.1291759,-0.94982618,0
0.93742704,-1.8442192,-0.75296462,-0.41414562,-0.87704057,-0.24348128,0
0.82953072,-1.0332152,0.6015203,0.86448807,-0.46272382,0.19633391,0
-0.70394182,-1.457266,-0.39993083,-0.41414562,-0.87704057,-0.24348128,0
-0.40913928,-1.4570782,0.74125099,-0.28485742,-0.1291759,0.94982618,0
1.6332128,-0.16143098,-0.25976083,0.86448807,-0.46272382,0.19633391,0
-1.4140319,0.05822289,-1.3549664,-0.86448807,0.46272382,-0.19633391,0
1.1490846,-0.72813308,0.70158303,0.86448807,-0.46272382,0.19633391,0
0.015664428,-1.5456576,0.13720238,-0.41414562,-0.87704057,-0.24348128,0
0.71136129,-0.98668891,1.2674735,0.86448807,-0.46272382,0.19633391,0
0.49570447,-1.8403513,-0.49109626,-0.41414562,-0.87704057,-0.24348128,0
-0.62214613,-0.20045793,1.0246677,-0.28485742,-0.1291759,0.94982618,0
-0.38619286,-1.6867888,0.36632192,-0.41414562,-0.87704057,-0.24348128,0
0.28538913,-0.3122232,1.2666367,-0.28485742,-0.1291759,0.94982618,0
1.1913853,-0.9694823,-1.0197351,0.28485742,0.1291759,-0.94982618,0
-0.36136812,0.29919261,-0.98198044,0.28485742,0.1291759,-0.94982618,0
-1.257151,-0.62889504,-1.1950865,-0.41414562,-0.87704057,-0.24348128,0
-0.67187834,1.6221386,0.72795725,0.41414562,0.87704057,0.24348128,0
-1.6305515,-0.90803862,-0.25916481,-0.41414562,-0.87704057,-0.24348128,0
0.27215844,-0.77659661,1.1572763,-0.28485742,-0.1291759,0.94982618,0
1.5319567,0.49887812,1.3750863,0.41414562,0.87704057,0.24348128,0
-0.43683732,-1.0193676,0.69377851,-0.28485742,-0.1291759,0.94982618,0
0.070536673,1.5944592,-0.99178147,0.28485742,0.1291759,-0.94982618,0
-1.6396297,0.46698144,-0.31887156,-0.86448807,0.46272382,-0.19633391,0
-2.0278442,-0.59408087,0.30731094,-0.28485742,-0.1291759,0.94982618,0
-1.2829483,0.37182581,-0.70250535,-0.86448807,0.46272382,-0.19633391,0
0.79854697,-1.2538728,0.75890028,0.86448807,-0.46272382,0.19633391,0
0.81583273,0.14725196,1.1831657,-0.28485742,-0.1291759,0.94982618,0
-0.68966138,-1.202096,0.69037509,-0.28485742,-0.1291759,0.94982618,0
1.6237524,-0.56416297,-0.48776919,0.86448807,-0.46272382,0.19633391,0
-0.50725442,1.7459251,-0.844661,0.28485742,0.1291759,-0.94982618,0
-0.099321619,1.4093527,0.54111648,0.41414562,0.87704057,0.24348128,0
-1.9135488,-0.10397128,0.09171778,-0.86448807,0.46272382,-0.19633391,0
1.3940881,-0.62252063,0.10801565,0.86448807,-0.46272382,0.19633391,0
-0.90129417,1.8867049,0.45885384,-0.86448807,0.46272382,-0.19633391,0
1.0387365,0.015886843,-0.59518933,0.28485742,0.1291759,-0.94982618,0
-1.7041177,-0.8682918,-0.92475283,-0.41414562,-0.87704057,-0.24348128,0
1.1730827,-1.3219458,-0.89007914,0.86448807,-0.46272382,0.19633391,0
1.0237575,-0.58996832,1.2698666,-0.28485742,-0.1291759,0.94982618,0
-0.76141596,1.5667447,-0.16833985,-0.86448807,0.46272382,-0.19633391,0
0.52753353,-1.6760298,-0.52897811,-0.41414562,-0.87704057,-0.24348128,0
1.6829429,0.16047245,-0.051213503,0.86448807,-0.46272382,0.19633391,0
-1.3028512,1.2214377,-0.038981557,-0.86448807,0.46272382,-0.19633391,0
1.4617109,-0.651438,-0.16162252,0.86448807,-0.46272382,0.19633391,0
-0.10783197,0.21553397,0.94629431,-0.28485742,-0.1291759,0.94982618,0
-0.72295868,2.1813028,-0.19086432,-0.86448807,0.46272382,-0.19633391,0
0.078970522,0.48458731,1.2271907,-0.28485742,-0.1291759,0.94982618,0
0.82102931,-0.78006166,-0.76065409,0.28485742,0.1291759,-0.94982618,0
-0.89982122,1.931022,0.52626503,0.41414562,0.87704057,0.24348128,0
-0.85975206,1.5016147,0.21313441,-0.86448807,0.46272382,-0.19633391,0
-0.77353197,-1.3865705,0.082575321,-0.41414562,-0.87704057,-0.24348128,0
0.91357267,0.56537962,1.3220327,-0.28485742,-0.1291759,0.94982618,0
-0.53728151,1.9020113,0.24489212,0.41414562,0.87704057,0.24348128,0
0.99989855,-0.57472277,1.1703267,-0.28485742,-0.1291759,0.94982618,0
-0.28793639,-0.58863181,0.82302147,-0.28485742,-0.1291759,0.94982618,0
-0.70288467,-0.30777645,-1.4355689,0.28485742,0.1291759,-0.94982618,0
-1.1652917,-0.78761792,-1.2115512,-0.41414562,-0.87704057,-0.24348128,0
-1.5639321,-0.92097294,-0.59379351,-0.41414562,-0.87704057,-0.24348128,0
-1.8713591,-0.97354162,-0.2225033,-0.41414562,-0.87704057,-0.24348128,0
-1.7121716,0.41157994,0.19079641,-0.86448807,0.46272382,-0.19633391,0
1.3844241,1.2076684,-0.29081285,0.41414562,0.87704057,0.24348128,0
-1.047327,0.53537971,-1.096037,-0.86448807,0.46272382,-0.19633391,0
-0.47678807,1.8463316,-0.10195839,0.41414562,0.87704057,0.24348128,0
-1.827764,-0.1954124,-0.593481,-0.86448807,0.46272382,-0.19633391,0
-0.10538774,1.0227606,1.1702739,-0.28485742,-0.1291759,0.94982618,0
-1.6579566,-0.40759987,0.48228478,-0.28485742,-0.1291759,0.94982618,0
0.11067832,1.8698447,-0.5880152,0.41414562,0.87704057,0.24348128,0
-0.32089847,0.56474733,-1.2698853,0.28485742,0.1291759,-0.94982618,0
-1.2712826,1.3043985,0.047163308,-0.86448807,0.46272382,-0.19633391,0
0.71444458,-1.8854506,0.13472414,-0.41414562,-0.87704057,-0.24348128,0
-0.68758547,-1.0813813,-1.2563609,-0.41414562,-0.87704057,-0.24348128,0
1.2220546,-1.4927317,-0.4681735,0.86448807,-0.46272382,0.19633391,0
-0.16382611,2.2097483,-0.78541875,0.41414562,0.87704057,0.24348128,0
-0.31228411,-1.5150288,-0.020521164,-0.41414562,-0.87704057,-0.24348128,0
-1.5716377,-0.60485995,-0.68641472,-0.41414562,-0.87704057,-0.24348128,0
-0.09013617,-0.20887506,0.86470634,-0.28485742,-0.1291759,0.94982618,0
-0.056294978,-2.0995998,0.72303176,-0.41414562,-0.87704057,-0.24348128,0
-0.99290997,1.8824954,1.1238959,-0.28485742,-0.1291759,0.94982618,0
0.67738485,1.5266662,-0.67725039,0.41414562,0.87704057,0.24348128,0
1.1370615,-1.1238359,-0.0067597628,0.86448807,-0.46272382,0.19633391,0
0.113334,-1.5456861,0.98789072,-0.28485742,-0.1291759,0.94982618,0
0.86565483,-2.024565,-0.57373071,0.86448807,-0.46272382,0.19633391,0
-0.77556539,-1.4558121,0.25771427,-0.41414562,-0.87704057,-0.24348128,0
-0.66161883,-1.46279,0.53223872,-0.41414562,-0.87704057,-0.24348128,0
0.81035841,-1.616339,0.068526268,0.86448807,-0.46272382,0.19633391,0
0.88219523,-1.6735182,0.24390316,0.86448807,-0.46272382,0.19633391,0
1.0969651,-1.5319791,-0.20703924,0.86448807,-0.46272382,0.19633391,0
0.55066657,-0.98110956,-1.0567782,0.28485742,0.1291759,-0.94982618,0
-0.68428504,-1.3954842,0.70467973,-0.28485742,-0.1291759,0.94982618,0
-1.4025804,-1.1278162,0.010468364,-0.41414562,-0.87704057,-0.24348128,0
-0.29556546,-1.4891825,-0.96054316,-0.41414562,-0.87704057,-0.24348128,0
-1.3308078,0.98300695,0.93403518,-0.28485742,-0.1291759,0.94982618,0
-0.78443229,-1.1325582,-0.92282575,-0.41414562,-0.87704057,-0.24348128,0
-0.92782837,1.5220668,0.49589932,-0.86448807,0.46272382,-0.19633391,0
-1.0019798,1.5820019,1.0191491,-0.86448807,0.46272382,-0.19633391,0
1.7463973,-0.15102232,-0.41853037,0.28485742,0.1291759,-0.94982618,0
-0.98042119,-0.18919665,0.73800993,-0.28485742,-0.1291759,0.94982618,0
-1.5647777,-0.26675797,-1.3449008,-0.86448807,0.46272382,-0.19633391,0
-0.84485912,0.66674948,1.0956043,-0.28485742,-0.1291759,0.94982618,0
-2.4378712,-0.8360666,0.32029474,-0.28485742,-0.1291759,0.94982618,0
-1.2888769,-0.6673826,-1.3846239,0.28485742,0.1291759,-0.94982618,0
1.9307818,0.66737998,0.38858163,0.86448807,-0.46272382,0.19633391,0
0.6320982,-0.23455679,-1.0471596,0.28485742,0.1291759,-0.94982618,0
0.18180557,1.6738195,0.034828544,0.41414562,0.87704057,0.24348128,0
-0.073848724,0.30183196,1.0616522,-0.28485742,-0.1291759,0.94982618,0
-0.83043265,1.246053,-0.57704443,-0.86448807,0.46272382,-0.19633391,0
-1.2561914,0.41667724,-1.1329843,-0.86448807,0.46272382,-0.19633391,0
1.3682002,-0.77190334,0.061343938,0.86448807,-0.46272382,0.19633391,0
-0.67807615,-0.63603902,-1.5089899,0.28485742,0.1291759,-0.94982618,0
1.0453291,-1.4696729,-0.84275806,0.28485742,0.1291759,-0.94982618,0
-0.36163959,-0.29011524,0.79526734,-0.28485742,-0.1291759,0.94982618,0
1.3030355,1.1132486,-0.27652168,0.41414562,0.87704057,0.24348128,0
-1.6165004,-1.2362303,0.37598181,-0.41414562,-0.87704057,-0.24348128,0
0.76945233,0.69836587,-0.61789864,0.28485742,0.1291759,-0.94982618,0
0.029914379,1.230237,-1.0228986,0.28485742,0.1291759,-0.94982618,0
-1.2079014,0.16912389,0.74132872,-0.28485742,-0.1291759,0.94982618,0
-0.6537376,0.57873058,-1.2629416,0.28485742,0.1291759,-0.94982618,0
-0.97927624,-0.91786265,-1.3132268,0.28485742,0.1291759,-0.94982618,0
-0.74546129,0.96262687,-1.2726508,0.28485742,0.1291759,-0.94982618,0
1.3575658,-0.82857072,0.62321931,0.86448807,-0.46272382,0.19633391,0
1.481383,0.74251246,1.1408434,0.41414562,0.87704057,0.24348128,0
0.27667671,-0.60770082,0.96902972,-0.28485742,-0.1291759,0.94982618,0
0.12036473,0.66224444,1.2470376,-0.28485742,-0.1291759,0.94982618,0
0.32225555,-1.4283454,-1.1951232,-0.41414562,-0.87704057,-0.24348128,0
-0.7551142,2.085535,0.46525395,-0.86448807,0.46272382,-0.19633391,0
0.72927332,1.0180933,1.2263082,-0.28485742,-0.1291759,0.94982618,0
-0.38551182,2.0691199,-0.4253819,-0.86448807,0.46272382,-0.19633391,0
-1.6831552,-0.24795699,-0.33010471,-0.86448807,0.46272382,-0.19633391,0
-0.64558518,1.5869038,-0.42088735,-0.86448807,0.46272382,-0.19633391,0
0.028278172,-1.8501296,0.46675551,-0.41414562,-0.87704057,-0.24348128,0
-0.69869626,2.0296204,-0.26809657,-0.86448807,0.46272382,-0.19633391,0
0.02161786,-0.10285282,0.99998736,-0.28485742,-0.1291759,0.94982618,0
-0.43102789,1.9109036,-0.80393076,-0.86448807,0.46272382,-0.19633391,0
0.15852389,0.99926472,1.1485267,-0.28485742,-0.1291759,0.94982618,0
0.83303678,-1.7819045,-0.25736845,0.86448807,-0.46272382,0.19633391,0
0.70824134,-1.2468625,0.66983765,0.86448807,-0.46272382,0.19633391,0
-0.53025419,-1.5078856,-0.49814188,-0.41414562,-0.87704057,-0.24348128,0
0.21854752,-2.0916259,0.73876953,-0.41414562,-0.87704057,-0.24348128,0
1.1485574,0.34407842,1.3636262,-0.28485742,-0.1291759,0.94982618,0
0.25676382,-1.8546163,0.4390521,-0.41414562,-0.87704057,-0.24348128,0
-1.3673122,-1.3504633,0.43190014,-0.28485742,-0.1291759,0.94982618,0
0.12354741,-0.29954606,0.9479574,-0.28485742,-0.1291759,0.94982618,0
-1.2903922,0.63616025,-0.51884508,-0.86448807,0.46272382,-0.19633391,0
0.30631512,0.63322902,1.3753096,-0.28485742,-0.1291759,0.94982618,0
-0.25121686,1.7204297,-0.098957777,0.41414562,0.87704057,0.24348128,0
1.994133,0.25099304,-0.56663859,0.28485742,0.1291759,-0.94982618,0
-0.10119542,1.1390915,-0.74708998,0.28485742,0.1291759,-0.94982618,0
-1.8590901,-0.30420643,-0.43843114,-0.86448807,0.46272382,-0.19633391,0
-0.1281141,1.8322331,-0.83649909,0.41414562,0.87704057,0.24348128,0
2.1903315,0.64390641,-0.15768981,0.86448807,-0.46272382,0.19633391,0
-1.0328753,0.9281801,-0.61662674,-0.86448807,0.46272382,-0.19633391,0
0.64216638,-1.7907579,0.59179163,0.86448807,-0.46272382,0.19633391,0
1.2687638,-0.037402987,1.3335226,-0.28485742,-0.1291759,0.94982618,0
1.4726596,0.035455644,-0.52193892,0.28485742,0.1291759,-0.94982618,0
0.58886981,-1.2481884,1.1145664,-0.28485742,-0.1291759,0.94982618,0
-1.1824793,0.2432965,-1.2769547,0.28485742,0.1291759,-0.94982618,0
-1.8469919,-0.033327371,0.46849316,-0.86448807,0.46272382,-0.19633391,0
-0.025046051,-0.55096996,-1.1842668,0.28485742,0.1291759,-0.94982618,0
-1.9781108,-0.2813687,-0.41081256,-0.86448807,0.46272382,-0.19633391,0
1.4214239,-0.64107704,-0.16380993,0.86448807,-0.46272382,0.19633391,0
-0.84506118,0.73740095,0.82278711,-0.28485742,-0.1291759,0.94982618,0
0.55401009,-2.1794555,0.92028379,0.86448807,-0.46272382,0.19633391,0
0.53135377,-1.9399183,0.54345965,0.86448807,-0.46272382,0.19633391,0
-1.1571403,-0.57130373,-1.461777,-0.41414562,-0.87704057,-0.24348128,0
1.6355963,-0.29032949,-0.4778567,0.86448807,-0.46272382,0.19633391,0
-0.13083395,1.2529311,1.2842001,-0.28485742,-0.1291759,0.94982618,0
-1.4097495,0.68155724,0.82487088,-0.86448807,0.46272382,-0.19633391,0
-0.44651341,-1.3153731,-0.045260429,-0.41414562,-0.87704057,-0.24348128,0
1.6113141,-0.25572422,0.28872746,0.86448807,-0.46272382,0.19633391,0
-0.056206763,-0.11114848,-0.92540455,0.28485742,0.1291759,-0.94982618,0
-0.52750826,0.13981128,0.81854892,-0.28485742,-0.1291759,0.94982618,0
-0.82984954,1.2507552,1.1528993,-0.28485742,-0.1291759,0.94982618,0
-0.74989754,-0.0742203,-1.2918808,0.28485742,0.1291759,-0.94982618,0
-0.76019269,1.2760901,1.116593,-0.28485742,-0.1291759,0.94982618,0
-1.1037605,1.5287774,0.027409554,-0.86448807,0.46272382,-0.19633391,0
0.9195739,0.94472277,0.62249482,0.41414562,0.87704057,0.24348128,0
-1.7999678,-0.48804033,-1.3770512,-0.86448807,0.46272382,-0.19633391,0
0.65385622,1.1595304,-0.51136553,0.28485742,0.1291759,-0.94982618,0
1.208957,-1.2713578,0.072858453,0.86448807,-0.46272382,0.19633391,0
1.6787521,0.89737189,-0.21450877,0.41414562,0.87704057,0.24348128,0
-0.16366437,1.5998555,-0.056477785,0.41414562,0.87704057,0.24348128,0
2.0984743,0.62279385,-0.36356878,0.86448807,-0.46272382,0.19633391,0
0.13494682,0.03392899,1.1729341,-0.28485742,-0.1291759,0.94982618,0
-1.5294236,-0.033530772,-0.6676715,-0.86448807,0.46272382,-0.19633391,0
0.11452854,-1.9358671,0.95927536,-0.28485742,-0.1291759,0.94982618,0
1.6781607,0.75466263,1.2761941,0.86448807,-0.46272382,0.19633391,0
1.1284435,0.75788701,1.3850379,-0.28485742,-0.1291759,0.94982618,0
-1.9668894,-0.50838608,-0.49527931,-0.86448807,0.46272382,-0.19633391,0
1.6903493,0.87519366,-0.43610466,0.28485742,0.1291759,-0.94982618,0
-1.0706779,1.2543026,0.20938092,-0.86448807,0.46272382,-0.19633391,0
-0.61438334,-1.4758205,0.76985824,-0.28485742,-0.1291759,0.94982618,0
-1.2177999,1.2808013,0.64982224,-0.86448807,0.46272382,-0.19633391,0
0.63985169,-1.790679,-1.2327497,0.28485742,0.1291759,-0.94982618,0
0.30369142,-1.7476377,0.18274343,-0.41414562,-0.87704057,-0.24348128,0
-1.958074,-0.16628429,0.50072765,-0.28485742,-0.1291759,0.94982618,0
-0.64403623,1.5740052,-1.0477942,0.28485742,0.1291759,-0.94982618,0
0.91311437,-1.4690255,0.81198859,0.86448807,-0.46272382,0.19633391,0
-1.181708,0.81853944,-0.9298389,-0.86448807,0.46272382,-0.19633391,0
1.4548222,-0.96874583,-0.38324344,0.86448807,-0.46272382,0.19633391,0
-0.013837337,1.3278393,1.1847149,0.41414562,0.87704057,0.24348128,0
-1.5870887,0.31021833,0.0042028725,-0.86448807,0.46272382,-0.19633391,0
0.5696466,1.7048537,-0.71857667,0.41414562,0.87704057,0.24348128,0
1.2044182,-0.50711638,0.50573134,0.86448807,-0.46272382,0.19633391,0
1.9007083,0.83575028,0.71405172,0.41414562,0.87704057,0.24348128,0
1.1149507,0.05647999,-0.6932826,0.28485742,0.1291759,-0.94982618,0
1.3292985,-0.48327774,0.97737199,0.86448807,-0.46272382,0.19633391,0
1.0260305,-1.3489701,0.59817803,0.86448807,-0.46272382,0.19633391,0
-0.18454182,0.17568254,1.0882738,-0.28485742,-0.1291759,0.94982618,0
0.66749233,0.98952597,-0.53602421,0.28485742,0.1291759,-0.94982618,0
-1.1206191,-0.67488497,0.68602157,-0.28485742,-0.1291759,0.94982618,0
-0.82433331,1.3713174,0.12637305,-0.86448807,0.46272382,-0.19633391,0
-0.38008112,1.2915876,-0.81683254,0.28485742,0.1291759,-0.94982618,0
-0.459288,2.1037455,0.06774807,0.41414562,0.87704057,0.24348128,0
1.1623219,-0.98748261,0.43266612,0.86448807,-0.46272382,0.19633391,0
-0.79430866,-1.3538356,0.13490117,-0.41414562,-0.87704057,-0.24348128,0
-1.122095,1.8199617,0.61039269,-0.86448807,0.46272382,-0.19633391,0
1.7823071,0.72919244,0.68714976,0.41414562,0.87704057,0.24348128,0
0.14354557,0.36748153,-0.90618277,0.28485742,0.1291759,-0.94982618,0
-1.5572975,-0.49594605,-1.4898262,-0.86448807,0.46272382,-0.19633391,0
1.2122905,-0.63339877,-0.081175148,0.86448807,-0.46272382,0.19633391,0
-0.10122368,-0.23852408,1.0232894,-0.28485742,-0.1291759,0.94982618,0
-0.33629072,1.7791047,-0.39770734,0.41414562,0.87704057,0.24348128,0
0.31691456,0.56034321,-0.8667894,0.28485742,0.1291759,-0.94982618,0
0.039604597,-1.5053066,-1.1426516,-0.41414562,-0.87704057,-0.24348128,0
-1.8855251,-0.80117363,-0.27460039,-0.86448807,0.46272382,-0.19633391,0
-0.33433601,0.95848513,-0.87828428,0.28485742,0.1291759,-0.94982618,0
0.55587161,-2.1561885,0.49496436,0.86448807,-0.46272382,0.19633391,0
-1.0907022,0.95610952,0.85139936,-0.28485742,-0.1291759,0.94982618,0
1.4112104,-0.56702399,-0.58227235,0.86448807,-0.46272382,0.19633391,0
-1.7943375,-0.62932545,-0.39182627,-0.41414562,-0.87704057,-0.24348128,0
1.2426403,1.0449636,0.60912502,0.41414562,0.87704057,0.24348128,0
0.70943749,1.1696287,-0.83743787,0.28485742,0.1291759,-0.94982618,0
1.1669223,-0.91927725,0.89448696,0.86448807,-0.46272382,0.19633391,0
-1.2119076,1.6017835,0.53621262,-0.86448807,0.46272382,-0.19633391,0
-1.8527468,0.075652659,0.54190189,-0.86448807,0.46272382,-0.19633391,0
1.4910957,-0.055083632,0.14782321,0.86448807,-0.46272382,0.19633391,0
1.2478948,-1.2404864,-0.68290377,0.86448807,-0.46272382,0.19633391,0
1.4218016,-0.8132385,-0.38444287,0.86448807,-0.46272382,0.19633391,0
1.5845323,-0.22059327,0.73226857,0.86448807,-0.46272382,0.19633391,0
-0.058335632,0.3973707,1.291873,-0.28485742,-0.1291759,0.94982618,0
-0.23310375,-0.50825679,1.0149273,-0.28485742,-0.1291759,0.94982618,0
-0.68610668,1.7377876,0.88200331,0.41414562,0.87704057,0.24348128,0
-0.32662994,-1.4905961,0.64941633,-0.28485742,-0.1291759,0.94982618,0
0.96360987,-0.67282474,1.1487038,0.86448807,-0.46272382,0.19633391,0
-0.27417707,1.6078811,0.50572979,0.41414562,0.87704057,0.24348128,0
-1.1106468,1.0952332,0.71857405,-0.28485742,-0.1291759,0.94982618,0
-1.1022474,1.3112152,-0.11860818,-0.86448807,0.46272382,-0.19633391,0
1.1844819,-1.1476897,0.28943604,0.86448807,-0.46272382,0.19633391,0
1.1117613,0.86093616,1.2188575,0.41414562,0.87704057,0.24348128,0
0.44521058,1.171988,0.52179122,0.41414562,0.87704057,0.24348128,0
0.25877383,1.4872465,1.0349754,0.41414562,0.87704057,0.24348128,0
0.11868562,0.026470542,-0.89753598,0.28485742,0.1291759,-0.94982618,0
1.1972195,-1.1382207,0.57043678,0.86448807,-0.46272382,0.19633391,0
-0.95043999,0.79002589,0.81337339,-0.28485742,-0.1291759,0.94982618,0
-0.12870866,-1.3931998,0.95377123,-0.28485742,-0.1291759,0.94982618,0
-0.6056022,-1.6366866,0.24092889,-0.41414562,-0.87704057,-0.24348128,0
0.52055275,-1.6088132,-0.55696774,-0.41414562,-0.87704057,-0.24348128,0
-0.021631956,-1.0110793,0.94431579,-0.28485742,-0.1291759,0.94982618,0
1.5690366,-0.48833275,0.32500571,0.86448807,-0.46272382,0.19633391,0
1.7394007,0.84612215,0.56591105,0.41414562,0.87704057,0.24348128,0
-1.8228357,-0.90927351,0.1243701,-0.41414562,-0.87704057,-0.24348128,0
-1.234484,0.81311184,-0.77255529,-0.86448807,0.46272382,-0.19633391,0
1.0654199,0.14254588,-0.60464597,0.28485742,0.1291759,-0.94982618,0
-1.0179857,-0.91849035,-0.82561457,-0.41414562,-0.87704057,-0.24348128,0
-0.8702026,1.1007836,-0.48946005,-0.86448807,0.46272382,-0.19633391,0
0.44514138,-1.8018199,-0.82988954,-0.41414562,-0.87704057,-0.24348128,0
2.1189744,0.81475812,-0.45139003,0.28485742,0.1291759,-0.94982618,0
1.545802,0.15640128,0.51582313,0.86448807,-0.46272382,0.19633391,0
1.3408532,-0.24183404,1.2849278,0.86448807,-0.46272382,0.19633391,0
-1.9718742,0.0060613155,0.61889255,-0.28485742,-0.1291759,0.94982618,0
0.20011979,-2.1502686,0.95083952,0.86448807,-0.46272382,0.19633391,0
-1.5520784,-0.29566139,-0.70346737,-0.86448807,0.46272382,-0.19633391,0
-0.47781223,0.92920578,-1.1580064,0.28485742,0.1291759,-0.94982618,0
0.45923892,1.1710949,1.0599291,0.41414562,0.87704057,0.24348128,0
0.5841502,-0.77964228,0.93828464,-0.28485742,-0.1291759,0.94982618,0
-1.0224037,1.089921,-1.0400286,-0.86448807,0.46272382,-0.19633391,0
-1.1730961,0.10228503,-1.276273,-0.86448807,0.46272382,-0.19633391,0
0.26176307,0.82708615,-1.0665274,0.28485742,0.1291759,-0.94982618,0
1.2622778,1.264508,-0.46552944,0.28485742,0.1291759,-0.94982618,0
1.6373245,0.75756276,1.4076564,0.41414562,0.87704057,0.24348128,0
-0.25961447,0.97639394,1.1643941,-0.28485742,-0.1291759,0.94982618,0
0.94254208,-0.55784225,-0.72936988,0.28485742,0.1291759,-0.94982618,0
-0.50679958,2.028161,0.36555016,-0.86448807,0.46272382,-0.19633391,0
0.53084302,1.3242126,0.87058055,0.41414562,0.87704057,0.24348128,0
1.5348808,0.52690065,-0.59981847,0.28485742,0.1291759,-0.94982618,0
-0.89821947,-0.19738501,0.82646537,-0.28485742,-0.1291759,0.94982618,0
-0.60219026,-1.3000953,-1.0491464,-0.41414562,-0.87704057,-0.24348128,0
-1.4754541,0.4429855,-0.084535539,-0.86448807,0.46272382,-0.19633391,0
-1.4448915,-0.9122715,-1.2178624,-0.41414562,-0.87704057,-0.24348128,0
-0.59465349,-1.2787659,0.11601484,-0.41414562,-0.87704057,-0.24348128,0
1.7860093,0.93496764,0.50959194,0.41414562,0.87704057,0.24348128,0
-0.33827826,1.8619273,0.23115468,0.41414562,0.87704057,0.24348128,0
-1.9843243,-0.64113158,-0.6098814,-0.86448807,0.46272382,-0.19633391,0
-0.98284775,-1.3486941,0.2098614,-0.41414562,-0.87704057,-0.24348128,0
0.14542976,1.8461702,-0.3834312,0.41414562,0.87704057,0.24348128,0
1.4602861,0.3902615,-0.58371508,0.28485742,0.1291759,-0.94982618,0
0.0032635778,1.1777846,1.1375275,-0.28485742,-0.1291759,0.94982618,0
-1.0313114,1.1521633,-0.84356403,-0.86448807,0.46272382,-0.19633391,0
-1.7409202,-0.25191021,-0.22869563,-0.86448807,0.46272382,-0.19633391,0
0.25280666,-1.9624836,0.3755374,-0.41414562,-0.87704057,-0.24348128,0
1.7754179,0.62648684,0.31768131,0.41414562,0.87704057,0.24348128,0
0.84299749,0.28580201,1.410161,-0.28485742,-0.1291759,0.94982618,0
0.58057833,-0.97574341,0.97103131,-0.28485742,-0.1291759,0.94982618,0
-1.3141646,-0.16683364,-1.3631047,0.28485742,0.1291759,-0.94982618,0
-0.60126615,2.0342374,0.073479414,0.41414562,0.87704057,0.24348128,0
1.7947731,0.022145778,-0.27545542,0.86448807,-0.46272382,0.19633391,0
1.380623,-0.41181287,0.5863241,0.86448807,-0.46272382,0.19633391,0
-0.46538654,1.8675623,0.8568989,0.41414562,0.87704057,0.24348128,0
1.0696321,0.43980908,-0.47579086,0.28485742,0.1291759,-0.94982618,0
-1.879644,-0.61648697,-0.15434015,-0.86448807,0.46272382,-0.19633391,0
-0.54004842,0.41973567,1.0848434,-0.28485742,-0.1291759,0.94982618,0
0.97991753,-1.5306473,-0.61940551,0.86448807,-0.46272382,0.19633391,0
0.10279748,-0.032815099,0.99581194,-0.28485742,-0.1291759,0.94982618,0
1.7220563,-0.038761888,0.036355138,0.86448807,-0.46272382,0.19633391,0
-0.50848675,2.0522535,-0.64479637,-0.86448807,0.46272382,-0.19633391,0
-1.3120918,-0.22602445,0.71021217,-0.28485742,-0.1291759,0.94982618,0
0.68118572,-0.43513536,-1.0998111,0.28485742,0.1291759,-0.94982618,0
-1.858542,-0.20888388,-0.86548549,-0.86448807,0.46272382,-0.19633391,0
0.66932338,-1.8785877,-0.25228286,-0.41414562,-0.87704057,-0.24348128,0
0.3767322,-1.9120877,-0.082104087,-0.41414562,-0.87704057,-0.24348128,0
-0.97366762,-0.33802593,-1.4257591,0.28485742,0.1291759,-0.94982618,0
0.589387,-1.7018421,-0.68958831,-0.41414562,-0.87704057,-0.24348128,0
0.94231576,-1.1355292,1.1812599,0.86448807,-0.46272382,0.19633391,0
0.4464699,0.70447838,1.3260219,-0.28485742,-0.1291759,0.94982618,0
1.4051234,0.7859658,0.33390486,0.41414562,0.87704057,0.24348128,0
1.6134686,1.079864,-0.45689893,0.41414562,0.87704057,0.24348128,0
1.2074182,-0.5062719,1.0065162,0.86448807,-0.46272382,0.19633391,0
-1.4679835,0.31815964,0.77170122,-0.28485742,-0.1291759,0.94982618,0
1.3877929,1.0617397,-0.41581607,0.41414562,0.87704057,0.24348128,0
1.1086817,-1.0922232,0.6784935,0.86448807,-0.46272382,0.19633391,0
-1.2707462,0.71880698,0.024492145,-0.86448807,0.46272382,-0.19633391,0
-1.2397827,0.87663043,-0.0024564862,-0.86448807,0.46272382,-0.19633391,0
-1.689191,-0.25339639,-0.31144083,-0.86448807,0.46272382,-0.19633391,0
-1.0993359,1.346915,0.12929463,-0.86448807,0.46272382,-0.19633391,0
-1.8872746,-0.64651096,-0.44547045,-0.86448807,0.46272382,-0.19633391,0
1.5943155,-0.70867831,-0.60224307,0.28485742,0.1291759,-0.94982618,0
1.7181631,0.90428966,0.28146493,0.41414562,0.87704057,0.24348128,0
0.57068044,1.2244254,1.3169782,-0.28485742,-0.1291759,0.94982618,0
-1.7269082,0.21826068,-0.15189773,-0.86448807,0.46272382,-0.19633391,0
-0.62473869,2.000042,0.68031085,0.41414562,0.87704057,0.24348128,0
0.072174907,1.5826743,-1.0026581,0.28485742,0.1291759,-0.94982618,0
-1.2697498,0.27912998,-0.5736593,-0.86448807,0.46272382,-0.19633391,0
1.0566461,0.93508279,0.36830378,0.41414562,0.87704057,0.24348128,0
0.85454023,-0.4951759,1.0920851,-0.28485742,-0.1291759,0.94982618,0
0.86157709,0.095680475,-0.9769004,0.28485742,0.1291759,-0.94982618,0
1.3299356,-0.34813753,0.065869689,0.86448807,-0.46272382,0.19633391,0
-0.11140591,-0.87572753,-1.2305356,0.28485742,0.1291759,-0.94982618,0
0.27691913,-1.2742676,-0.97927302,0.28485742,0.1291759,-0.94982618,0
0.88179332,-1.6612127,-0.69509673,0.86448807,-0.46272382,0.19633391,0
-0.80530488,-0.27899212,0.68653858,-0.28485742,-0.1291759,0.94982618,0
0.94321728,-1.9208552,-0.51820922,0.86448807,-0.46272382,0.19633391,0
1.3828595,-0.53272498,-0.42055839,0.86448807,-0.46272382,0.19633391,0
0.14447945,-1.7522863,0.012450814,-0.41414562,-0.87704057,-0.24348128,0
-0.53227818,-1.642576,0.022795439,-0.41414562,-0.87704057,-0.24348128,0
-0.72244734,-1.1901896,-0.79442453,-0.41414562,-0.87704057,-0.24348128,0
0.52511382,-1.5820656,0.76303542,0.86448807,-0.46272382,0.19633391,0
-1.430187,0.88901162,0.64116806,-0.86448807,0.46272382,-0.19633391,0
1.2985172,-1.2506454,-0.25343072,0.86448807,-0.46272382,0.19633391,0
0.96175224,1.2238773,-0.64459646,0.28485742,0.1291759,-0.94982618,0
-1.0399939,1.4320813,-0.4279058,-0.86448807,0.46272382,-0.19633391,0
-1.5903674,0.35837108,0.39968494,-0.86448807,0.46272382,-0.19633391,0
-0.9571048,1.7622125,1.0106343,-0.28485742,-0.1291759,0.94982618,0
1.3234893,-0.18520063,-0.5868082,0.28485742,0.1291759,-0.94982618,0
1.6147671,-0.084600151,-0.29590759,0.86448807,-0.46272382,0.19633391,0
-0.24698123,-1.9655231,0.86436415,-0.41414562,-0.87704057,-0.24348128,0
0.85686183,-1.5735862,0.34702575,0.86448807,-0.46272382,0.19633391,0
-0.50605142,1.7595201,0.82007694,0.41414562,0.87704057,0.24348128,0
-0.92075968,0.73689801,1.0464468,-0.28485742,-0.1291759,0.94982618,0
-0.11929846,2.1579769,-0.89344954,0.28485742,0.1291759,-0.94982618,0
0.85272133,-1.5597708,-0.45832419,0.86448807,-0.46272382,0.19633391,0
-1.1710069,0.63001859,-0.53034234,-0.86448807,0.46272382,-0.19633391,0
-1.9216638,-0.17842187,0.34401119,-0.86448807,0.46272382,-0.19633391,0
1.3696328,0.026421666,0.96042156,0.86448807,-0.46272382,0.19633391,0
-1.0940027,1.4247959,-0.15739751,-0.86448807,0.46272382,-0.19633391,0
-1.5184985,0.25615561,-1.355588,-0.86448807,0.46272382,-0.19633391,0
0.99255168,-1.3070817,-0.24210763,0.86448807,-0.46272382,0.19633391,0
1.2667969,-1.1902348,0.07842809,0.86448807,-0.46272382,0.19633391,0
1.2864833,-0.18725193,0.99780822,0.86448807,-0.46272382,0.19633391,0
-1.0303533,-0.63587999,-1.5150059,0.28485742,0.1291759,-0.94982618,0
0.61585581,1.2151581,1.2406646,0.41414562,0.87704057,0.24348128,0
0.068375736,0.51741523,-0.9154017,0.28485742,0.1291759,-0.94982618,0
0.55445218,-1.9905864,0.27459705,0.86448807,-0.46272382,0.19633391,0
0.3224507,1.0997407,1.0445167,0.41414562,0.87704057,0.24348128,0
-1.1857563,-0.75069082,-1.2625368,-0.41414562,-0.87704057,-0.24348128,0
0.9730891,-1.5898807,-0.78490543,0.86448807,-0.46272382,0.19633391,0
-1.4466498,-0.90181148,-0.21482277,-0.41414562,-0.87704057,-0.24348128,0
-0.94131029,1.9051052,0.47790575,-0.86448807,0.46272382,-0.19633391,0
-0.54006022,2.0024137,-0.79439211,0.41414562,0.87704057,0.24348128,0
1.9016622,0.68619394,-0.23665071,0.41414562,0.87704057,0.24348128,0
-2.1261442,-0.56135529,-0.17707145,-0.86448807,0.46272382,-0.19633391,0
1.8368233,0.69396484,0.95534939,0.86448807,-0.46272382,0.19633391,0
0.97751623,-1.3520343,-1.0995946,0.28485742,0.1291759,-0.94982618,0
-0.29961258,1.1506418,1.0384165,-0.28485742,-0.1291759,0.94982618,0
-0.19491625,1.2808601,-1.1060919,0.28485742,0.1291759,-0.94982618,0
-1.3323998,0.73014021,-0.4319278,-0.86448807,0.46272382,-0.19633391,0
-0.1874193,1.0184101,-0.90502405,0.28485742,0.1291759,-0.94982618,0
-1.6097267,0.13756633,-0.82290232,-0.86448807,0.46272382,-0.19633391,0
0.79942346,1.3896205,-0.11862171,0.41414562,0.87704057,0.24348128,0
-0.98404384,-0.30716074,0.86584568,-0.28485742,-0.1291759,0.94982618,0
-0.86827189,1.6844933,-0.53902566,-0.86448807,0.46272382,-0.19633391,0
0.68119442,0.75458264,1.5460476,-0.28485742,-0.1291759,0.94982618,0
0.26868942,1.8522983,-0.55551624,0.41414562,0.87704057,0.24348128,0
1.1317915,0.81127816,0.8780157,0.41414562,0.87704057,0.24348128,0
-1.0715345,1.6149994,1.1194904,-0.86448807,0.46272382,-0.19633391,0
0.91680425,0.42914394,-0.58332938,0.28485742,0.1291759,-0.94982618,0
-0.4687866,-1.4449623,-0.15575349,-0.41414562,-0.87704057,-0.24348128,0
-0.77948749,-1.1893573,-0.055866003,-0.41414562,-0.87704057,-0.24348128,0
-1.8870162,-0.26091015,-0.83048105,-0.86448807,0.46272382,-0.19633391,0
-1.4434514,-0.51122808,-1.2351021,-0.41414562,-0.87704057,-0.24348128,0
0.49259543,-1.5090576,0.9735409,-0.28485742,-0.1291759,0.94982618,0
1.2006581,0.9567585,0.077477932,0.41414562,0.87704057,0.24348128,0
-1.3132343,0.83107841,0.82370371,-0.86448807,0.46272382,-0.19633391,0
-0.43098632,1.4366183,0.94065154,0.41414562,0.87704057,0.24348128,0
-1.7892656,-0.96084374,0.242401,-0.28485742,-0.1291759,0.94982618,0
1.3499608,-0.63468909,-0.46821389,0.86448807,-0.46272382,0.19633391,0
-0.709602,-1.4375708,-0.10074663,-0.41414562,-0.87704057,-0.24348128,0
-1.6137713,-0.84880269,-0.53438973,-0.41414562,-0.87704057,-0.24348128,0
1.1920434,-1.5182139,-0.91870564,0.86448807,-0.46272382,0.19633391,0
-1.2525388,-0.96346182,-0.6833818,-0.41414562,-0.87704057,-0.24348128,0
0.50224078,-1.82444,0.19150698,-0.41414562,-0.87704057,-0.24348128,0
0.21381798,-1.8845956,0.072194099,-0.41414562,-0.87704057,-0.24348128,0
-0.26778695,-1.8452766,0.43808484,-0.41414562,-0.87704057,-0.24348128,0
0.69731569,-1.8570731,0.031404972,0.86448807,-0.46272382,0.19633391,0
1.3188723,0.041624069,1.0601629,0.86448807,-0.46272382,0.19633391,0
-0.088425696,-0.61096096,0.92897552,-0.28485742,-0.1291759,0.94982618,0
0.0020512193,1.6672095,0.42086136,0.41414562,0.87704057,0.24348128,0
2.0032539,0.53021926,-0.041295171,0.86448807,-0.46272382,0.19633391,0
-1.5380059,0.62035078,-0.1501348,-0.86448807,0.46272382,-0.19633391,0
1.0801175,0.78256977,0.70385969,0.41414562,0.87704057,0.24348128,0
0.55998671,1.4083505,0.79186356,0.41414562,0.87704057,0.24348128,0
0.080887645,0.53537649,-1.0036285,0.28485742,0.1291759,-0.94982618,0
-1.3333974,0.55138564,-1.2797003,-0.86448807,0.46272382,-0.19633391,0
1.1998689,-0.62583196,0.95318782,0.86448807,-0.46272382,0.19633391,0
1.967937,0.05096066,-0.55248082,0.28485742,0.1291759,-0.94982618,0
-0.55052572,0.12345958,-1.0569624,0.28485742,0.1291759,-0.94982618,0
-0.45781818,1.797997,0.93561471,0.41414562,0.87704057,0.24348128,0
1.2786222,-0.23320377,1.2051635,-0.28485742,-0.1291759,0.94982618,0
-1.0021923,0.86190253,-1.2005303,0.28485742,0.1291759,-0.94982618,0
0.92927814,-0.39320326,1.3564367,-0.28485742,-0.1291759,0.94982618,0
-0.83474821,-1.5736248,0.5477128,-0.41414562,-0.87704057,-0.24348128,0
-0.25788391,-0.69832516,-1.2258484,0.28485742,0.1291759,-0.94982618,0
-1.6364045,0.33569932,0.40939161,-0.86448807,0.46272382,-0.19633391,0
0.1707661,-0.22357321,-0.98676306,0.28485742,0.1291759,-0.94982618,0
-0.67647368,1.7282932,-0.54897761,-0.86448807,0.46272382,-0.19633391,0
-0.44759369,0.81646842,0.86409235,-0.28485742,-0.1291759,0.94982618,0
-1.4406413,0.13152635,-0.80901068,-0.86448807,0.46272382,-0.19633391,0
0.087547235,-1.6098263,-1.1600482,-0.41414562,-0.87704057,-0.24348128,0
0.39431837,1.322681,-0.070448399,0.41414562,0.87704057,0.24348128,0
-1.0154439,1.3444655,-0.15715432,-0.86448807,0.46272382,-0.19633391,0
1.0467683,-1.7004145,-0.99463427,0.86448807,-0.46272382,0.19633391,0
0.42522061,-1.852977,-0.5378871,-0.41414562,-0.87704057,-0.24348128,0
0.5400911,-0.10949409,1.211629,-0.28485742,-0.1291759,0.94982618,0
0.25602531,-1.8823452,0.68198764,-0.28485742,-0.1291759,0.94982618,0
0.12851173,1.4474053,0.64196706,0.41414562,0.87704057,0.24348128,0
-0.69393569,1.8540648,0.29295468,0.41414562,0.87704057,0.24348128,0
-0.65528238,0.47551966,-1.0904722,0.28485742,0.1291759,-0.94982618,0
-0.92146677,-1.1930978,0.046579957,-0.41414562,-0.87704057,-0.24348128,0
-1.4468982,-0.61034179,-1.1640657,-0.41414562,-0.87704057,-0.24348128,0
-0.39120102,-0.068043828,-1.0951606,0.28485742,0.1291759,-0.94982618,0
0.84759498,1.0345269,0.24551511,0.41414562,0.87704057,0.24348128,0
-0.50096023,1.4324307,-1.0681626,-0.86448807,0.46272382,-0.19633391,0
1.5609665,0.73683149,0.49752593,0.41414562,0.87704057,0.24348128,0
-1.6286079,0.10766023,-0.51880378,-0.86448807,0.46272382,-0.19633391,0
-1.3162721,1.1451271,0.8190037,-0.28485742,-0.1291759,0.94982618,0
0.14504044,-0.35917485,-1.177297,0.28485742,0.1291759,-0.94982618,0
-0.7226119,2.1379919,0.3320452,-0.86448807,0.46272382,-0.19633391,0
0.12360001,-1.3117795,-1.2171278,0.28485742,0.1291759,-0.94982618,0
-0.18361454,0.1310432,1.18303,-0.28485742,-0.1291759,0.94982618,0
-0.50891036,-1.2752141,-0.021069407,-0.41414562,-0.87704057,-0.24348128,0
0.25260487,-0.51612002,-0.88953567,0.28485742,0.1291759,-0.94982618,0
-0.51365578,2.1469219,0.036082268,0.41414562,0.87704057,0.24348128,0
0.039186209,-0.7518093,0.91996074,-0.28485742,-0.1291759,0.94982618,0
-1.7865696,0.11555767,0.26932603,-0.86448807,0.46272382,-0.19633391,0
-0.7903654,1.1552927,1.0572202,-0.28485742,-0.1291759,0.94982618,0
-1.3416028,-0.98589569,-0.30667996,-0.41414562,-0.87704057,-0.24348128,0
1.2212402,-0.72948194,0.66104358,0.86448807,-0.46272382,0.19633391,0
-1.7816563,0.085630596,0.39982349,-0.28485742,-0.1291759,0.94982618,0
-0.61799377,1.5657603,0.94250757,0.41414562,0.87704057,0.24348128,0
-0.19077788,-1.344312,-1.39621,-0.41414562,-0.87704057,-0.24348128,0
1.1317887,1.1964996,-0.39641988,0.28485742,0.1291759,-0.94982618,0
0.69418144,-2.0017459,-0.81988895,-0.41414562,-0.87704057,-0.24348128,0
-1.8372173,-0.59965265,0.39018917,-0.28485742,-0.1291759,0.94982618,0
1.4448866,0.73639345,0.37527704,0.41414562,0.87704057,0.24348128,0
-0.25506377,-1.4527962,-0.42980194,-0.41414562,-0.87704057,-0.24348128,0
-0.31037086,1.017632,1.1722721,-0.28485742,-0.1291759,0.94982618,0
0.038672775,-1.0336112,-1.3849386,0.28485742,0.1291759,-0.94982618,0
-0.84995902,-1.466989,-0.24480712,-0.41414562,-0.87704057,-0.24348128,0
0.69423497,-1.9395574,0.86494958,0.86448807,-0.46272382,0.19633391,0
-1.1376982,-1.2512871,-0.50106466,-0.41414562,-0.87704057,-0.24348128,0
-0.036345422,0.39458668,1.0534285,-0.28485742,-0.1291759,0.94982618,0
1.2716181,-0.36979836,-0.74817324,0.28485742,0.1291759,-0.94982618,0
0.49880999,-2.1550531,0.74746752,0.86448807,-0.46272382,0.19633391,0
0.7129845,-1.3129404,1.2580473,-0.28485742,-0.1291759,0.94982618,0
0.16136809,-1.7597046,-0.54323065,-0.41414562,-0.87704057,-0.24348128,0
0.44300851,0.31828868,1.2391965,-0.28485742,-0.1291759,0.94982618,0
-0.029724449,1.4404145,0.34040761,0.41414562,0.87704057,0.24348128,0
-1.6952255,-0.86740822,0.24907923,-0.41414562,-0.87704057,-0.24348128,0
-0.52228576,-1.0101962,-1.0484991,-0.41414562,-0.87704057,-0.24348128,0
0.017023884,1.2923639,0.86845016,0.41414562,0.87704057,0.24348128,0
-1.3861265,0.3908928,0.55791432,-0.28485742,-0.1291759,0.94982618,0
-0.099849105,1.7907249,0.089215875,0.41414562,0.87704057,0.24348128,0
0.8538363,0.01491183,-0.69807136,0.28485742,0.1291759,-0.94982618,0
-1.4589814,0.022251904,-0.6378606,-0.86448807,0.46272382,-0.19633391,0
0.53763503,-1.6089696,-1.0310994,-0.41414562,-0.87704057,-0.24348128,0
0.084648982,1.5557075,0.20408404,0.41414562,0.87704057,0.24348128,0
0.86833692,-1.6632311,0.38594842,0.86448807,-0.46272382,0.19633391,0
0.93634129,0.71347535,-0.5160265,0.28485742,0.1291759,-0.94982618,0
-0.68634152,-0.96130747,-0.74918622,-0.41414562,-0.87704057,-0.24348128,0
1.1496204,-1.2478304,-0.62128007,0.86448807,-0.46272382,0.19633391,0
-0.19152787,0.53396094,1.1591229,-0.28485742,-0.1291759,0.94982618,0
-1.8473374,-0.44949713,0.56316268,-0.28485742,-0.1291759,0.94982618,0
1.6085434,0.73843628,0.79651427,0.41414562,0.87704057,0.24348128,0
-0.50076663,-0.52331901,-1.1181371,0.28485742,0.1291759,-0.94982618,0
-0.088339508,1.7445059,-0.65933537,0.41414562,0.87704057,0.24348128,0
-0.029364526,0.80309129,-0.99434257,0.28485742,0.1291759,-0.94982618,0
-1.2417452,-1.043462,-1.0672781,-0.41414562,-0.87704057,-0.24348128,0
0.55096501,-1.7610792,0.87853706,0.86448807,-0.46272382,0.19633391,0
0.92413437,-1.3822622,0.85419762,0.86448807,-0.46272382,0.19633391,0
0.16490456,-0.33762336,-1.2082272,0.28485742,0.1291759,-0.94982618,0
0.85588872,-0.24374962,-0.71594971,0.28485742,0.1291759,-0.94982618,0
0.99827278,0.47885323,1.4719244,-0.28485742,-0.1291759,0.94982618,0
0.86572027,-1.4618546,0.07053113,0.86448807,-0.46272382,0.19633391,0
1.627172,0.30138171,1.0232543,0.86448807,-0.46272382,0.19633391,0
-0.83722287,-0.90206861,-1.172797,-0.41414562,-0.87704057,-0.24348128,0
0.76981479,-1.9456767,-1.0456102,-0.41414562,-0.87704057,-0.24348128,0
0.38578531,1.3839908,0.8531872,0.41414562,0.87704057,0.24348128,0
0.83206362,-1.2379048,0.054294705,0.86448807,-0.46272382,0.19633391,0
-0.67369139,-1.3660748,-0.60674655,-0.41414562,-0.87704057,-0.24348128,0
-1.1125344,1.7460378,0.81238115,-0.86448807,0.46272382,-0.19633391,0
-0.99513209,1.3357222,0.13311827,-0.86448807,0.46272382,-0.19633391,0
0.81401128,-1.7017959,-0.68426287,0.86448807,-0.46272382,0.19633391,0
0.29750365,0.41231823,1.2636632,-0.28485742,-0.1291759,0.94982618,0
-1.7349946,0.49930143,0.2800051,-0.86448807,0.46272382,-0.19633391,0
-0.9302237,-0.87906444,-0.60922021,-0.41414562,-0.87704057,-0.24348128,0
-1.8972576,-0.65998119,-0.50334096,-0.41414562,-0.87704057,-0.24348128,0
-0.25732741,1.9007578,0.37650919,0.41414562,0.87704057,0.24348128,0
1.1099716,0.89479768,1.1744299,0.41414562,0.87704057,0.24348128,0
1.4548606,-0.31565726,0.71169639,0.86448807,-0.46272382,0.19633391,0
-1.6861353,-0.082930684,-0.40375686,-0.86448807,0.46272382,-0.19633391,0
1.2551589,0.89307755,0.042572856,0.41414562,0.87704057,0.24348128,0
1.9479542,0.62219369,-0.14379871,0.86448807,-0.46272382,0.19633391,0
0.55524564,0.75271499,1.3888636,-0.28485742,-0.1291759,0.94982618,0
0.94809711,-0.13735521,-0.86921978,0.28485742,0.1291759,-0.94982618,0
-1.6684091,0.19313145,-0.49819517,-0.86448807,0.46272382,-0.19633391,0
-0.43037051,-1.1000278,-1.2169842,-0.41414562,-0.87704057,-0.24348128,0
-1.7682879,-0.73357302,-0.64071357,-0.41414562,-0.87704057,-0.24348128,0
0.51308745,1.3077322,-0.13317204,0.41414562,0.87704057,0.24348128,0
-1.1943974,0.26921058,-1.2393693,0.28485742,0.1291759,-0.94982618,0
-0.82289386,0.80992192,0.85608572,-0.28485742,-0.1291759,0.94982618,0
0.55941057,-1.0286262,1.1412234,-0.28485742,-0.1291759,0.94982618,0
-0.68237531,1.5669615,-0.2648623,-0.86448807,0.46272382,-0.19633391,0
0.96619618,-1.5593696,0.087203264,0.86448807,-0.46272382,0.19633391,0
1.5164484,1.0401342,0.33167624,0.41414562,0.87704057,0.24348128,0
1.4570405,-0.44224519,0.22471511,0.86448807,-0.46272382,0.19633391,0
1.3757313,0.96841031,0.79688776,0.41414562,0.87704057,0.24348128,0
-0.74079573,1.7537785,0.4398737,0.41414562,0.87704057,0.24348128,0
-0.57970816,0.60183012,1.1444098,-0.28485742,-0.1291759,0.94982618,0
-0.64848322,-1.508503,0.56392372,-0.41414562,-0.87704057,-0.24348128,0
1.6394278,0.57140088,1.045567,0.41414562,0.87704057,0.24348128,0
-0.20676205,0.59908932,-0.94073641,0.28485742,0.1291759,-0.94982618,0
-0.7337932,1.6916394,-0.51144779,-0.86448807,0.46272382,-0.19633391,0
0.06737721,1.0541046,-0.99861932,0.28485742,0.1291759,-0.94982618,0
-0.49307001,-1.5630455,0.16409886,-0.41414562,-0.87704057,-0.24348128,0
-1.048118,0.68201363,-0.79788411,-0.86448807,0.46272382,-0.19633391,0
1.7285237,-0.19720104,0.45465702,0.86448807,-0.46272382,0.19633391,0
1.6192446,-0.21747589,-0.6237995,0.28485742,0.1291759,-0.94982618,0
0.94380504,-1.3342592,0.73526806,0.86448807,-0.46272382,0.19633391,0
0.1679714,1.3886583,0.22409225,0.41414562,0.87704057,0.24348128,0
-1.4037253,-0.7856251,-1.1671224,-0.41414562,-0.87704057,-0.24348128,0
1.7366449,0.26920468,0.18298972,0.86448807,-0.46272382,0.19633391,0
-1.0379732,1.0244339,-0.18197012,-0.86448807,0.46272382,-0.19633391,0
-0.75734878,0.64544076,-1.0342968,0.28485742,0.1291759,-0.94982618,0
1.2934248,-0.50050461,0.96873015,0.86448807,-0.46272382,0.19633391,0
1.1590329,-0.32890469,-0.66624904,0.28485742,0.1291759,-0.94982618,0
0.89574146,-1.2721868,0.56729776,0.86448807,-0.46272382,0.19633391,0
-1.3906363,-0.86366785,-0.32915497,-0.41414562,-0.87704057,-0.24348128,0
-0.90354419,0.41887194,0.72790587,-0.28485742,-0.1291759,0.94982618,0
0.23809972,1.6101592,-0.31470013,0.41414562,0.87704057,0.24348128,0
-1.0847232,0.78616542,-0.36290136,-0.86448807,0.46272382,-0.19633391,0
-1.4749672,-1.1697052,0.14978588,-0.41414562,-0.87704057,-0.24348128,0
2.0379765,0.7688635,0.55200183,0.86448807,-0.46272382,0.19633391,0
-1.0195613,1.4286711,-0.22272575,-0.86448807,0.46272382,-0.19633391,0
-1.3540523,0.088148475,-0.92538786,-0.86448807,0.46272382,-0.19633391,0
0.87448174,-1.9858544,-0.029397964,0.86448807,-0.46272382,0.19633391,0
1.0831819,1.0321395,-0.57325315,0.28485742,0.1291759,-0.94982618,0
1.8160132,0.20978349,0.55914116,0.86448807,-0.46272382,0.19633391,0
2.1337459,0.65432125,-0.37926185,0.41414562,0.87704057,0.24348128,0
1.5943455,1.0496669,-0.086800218,0.41414562,0.87704057,0.24348128,0
-1.3336793,-0.15708721,-1.2811407,0.28485742,0.1291759,-0.94982618,0
-1.267458,0.1758424,-1.4656892,-0.86448807,0.46272382,-0.19633391,0
0.83926195,0.78580165,1.1099721,0.41414562,0.87704057,0.24348128,0
-1.8510669,-0.67599332,0.043347955,-0.41414562,-0.87704057,-0.24348128,0
-2.063715,-0.47292155,-0.53719926,-0.86448807,0.46272382,-0.19633391,0
-0.8710745,-1.2153949,-0.39297724,-0.41414562,-0.87704057,-0.24348128,0
-0.46952981,-1.4952356,-0.20408237,-0.41414562,-0.87704057,-0.24348128,0
0.35684434,0.44954753,-0.71223724,0.28485742,0.1291759,-0.94982618,0
-2.1211195,-0.54759747,0.098203659,-0.86448807,0.46272382,-0.19633391,0
1.6406724,-0.41747361,-0.79962289,0.28485742,0.1291759,-0.94982618,0
-1.5011978,0.22697729,-0.3159765,-0.86448807,0.46272382,-0.19633391,0
-0.90248948,1.1016433,-0.51878309,-0.86448807,0.46272382,-0.19633391,0
-1.250597,-0.92121232,-1.4402368,-0.41414562,-0.87704057,-0.24348128,0
0.93751019,-1.8036215,-0.96512246,0.86448807,-0.46272382,0.19633391,0
1.519361,0.79541552,1.4684865,0.41414562,0.87704057,0.24348128,0
-0.26374853,0.36034799,-0.92723542,0.28485742,0.1291759,-0.94982618,0
-1.0521051,0.56439322,-1.1434324,-0.86448807,0.46272382,-0.19633391,0
-1.0670431,0.561997,0.99702239,-0.28485742,-0.1291759,0.94982618,0
-0.58389413,-1.0326902,-1.2245538,0.28485742,0.1291759,-0.94982618,0
-1.3389261,-0.76257336,-1.209625,-0.41414562,-0.87704057,-0.24348128,0
-1.6724576,-0.58382773,0.60459554,-0.28485742,-0.1291759,0.94982618,0
-1.4288466,-1.0548472,0.079844832,-0.41414562,-0.87704057,-0.24348128,0
1.0257186,-1.1267126,-0.2084474,0.86448807,-0.46272382,0.19633391,0
1.4214537,0.23337269,1.1469709,0.86448807,-0.46272382,0.19633391,0
-0.29562804,1.2498741,1.0895412,-0.28485742,-0.1291759,0.94982618,0
0.86592227,1.481493,-0.033660889,0.41414562,0.87704057,0.24348128,0
-1.0871593,-0.9780364,-0.56393647,-0.41414562,-0.87704057,-0.24348128,0
0.24351645,-0.91275108,1.181738,-0.28485742,-0.1291759,0.94982618,0
1.9689779,0.2955268,-0.46806496,0.86448807,-0.46272382,0.19633391,0
0.00066587329,-0.67172396,0.92978472,-0.28485742,-0.1291759,0.94982618,0
0.35572332,-0.71655238,1.2120718,-0.28485742,-0.1291759,0.94982618,0
1.4279119,1.3544135,-0.36702132,0.41414562,0.87704057,0.24348128,0
-0.28904593,1.4971738,0.91048783,0.41414562,0.87704057,0.24348128,0
0.81876922,-1.3932323,-0.24589682,0.86448807,-0.46272382,0.19633391,0
-1.221729,0.29567754,0.76535916,-0.28485742,-0.1291759,0.94982618,0
1.0925387,-1.2504246,-0.42512381,0.86448807,-0.46272382,0.19633391,0
0.11311436,0.9287594,-0.74329972,0.28485742,0.1291759,-0.94982618,0
0.34693447,-0.731336,-1.173465,0.28485742,0.1291759,-0.94982618,0
-0.37838513,2.0641842,-1.0741991,-0.86448807,0.46272382,-0.19633391,0
-1.2811842,-0.68310606,0.4499805,-0.28485742,-0.1291759,0.94982618,0
1.3320614,-1.3364923,-0.82801533,0.86448807,-0.46272382,0.19633391,0
-1.0528166,1.15527,-0.0044444799,-0.86448807,0.46272382,-0.19633391,0
-1.2160987,-0.15720308,-1.6217364,0.28485742,0.1291759,-0.94982618,0
-0.89408332,1.7694844,0.58951604,-0.86448807,0.46272382,-0.19633391,0
0.31264842,-0.40337372,1.2181491,-0.28485742,-0.1291759,0.94982618,0
0.87203968,-1.0804037,0.85571378,0.86448807,-0.46272382,0.19633391,0
-1.6051974,0.3837204,0.58484024,-0.86448807,0.46272382,-0.19633391,0
-1.1712806,0.98291099,0.2917769,-0.86448807,0.46272382,-0.19633391,0
-0.78922415,0.89772511,1.0238394,-0.28485742,-0.1291759,0.94982618,0
-1.7239708,-0.47011042,-0.9948101,-0.41414562,-0.87704057,-0.24348128,0
1.1508849,0.74416018,1.3138434,-0.28485742,-0.1291759,0.94982618,0
-1.2813307,0.6581316,-0.44586831,-0.86448807,0.46272382,-0.19633391,0
-2.0422122,-0.33773288,-0.050782084,-0.86448807,0.46272382,-0.19633391,0
0.31872022,1.5155177,0.4534229,0.41414562,0.87704057,0.24348128,0
-0.88108766,-1.115908,-0.62876642,-0.41414562,-0.87704057,-0.24348128,0
-0.66297418,2.1881177,-0.27641058,0.41414562,0.87704057,0.24348128,0
0.8513124,-1.1136062,0.6289444,0.86448807,-0.46272382,0.19633391,0
-1.2370945,0.58634365,0.69221222,-0.28485742,-0.1291759,0.94982618,0
-1.3346307,1.2738323,0.89415067,-0.86448807,0.46272382,-0.19633391,0
-1.1191063,-1.2847084,0.063436985,-0.41414562,-0.87704057,-0.24348128,0
1.3269778,-1.2003499,-0.58263111,0.86448807,-0.46272382,0.19633391,0
1.2334754,-0.074540257,-0.48272461,0.28485742,0.1291759,-0.94982618,0
-1.0704583,-1.0878642,0.18748081,-0.41414562,-0.87704057,-0.24348128,0
0.35509917,1.4803731,-0.49296391,0.41414562,0.87704057,0.24348128,0
0.12407634,1.7867243,-0.34030175,0.41414562,0.87704057,0.24348128,0
0.20459062,-0.78699946,0.99019021,-0.28485742,-0.1291759,0.94982618,0
0.55917823,1.298759,0.38675833,0.41414562,0.87704057,0.24348128,0
-0.85069066,-1.4051924,0.3052448,-0.41414562,-0.87704057,-0.24348128,0
0.19101262,-0.87774849,-1.1303984,0.28485742,0.1291759,-0.94982618,0
1.1797998,1.0465175,1.1898055,0.41414562,0.87704057,0.24348128,0
0.68958259,-0.75857675,-1.0282547,0.28485742,0.1291759,-0.94982618,0
-0.15929084,-0.48207867,-0.9865309,0.28485742,0.1291759,-0.94982618,0
-0.80564517,1.4798999,-1.1261058,-0.86448807,0.46272382,-0.19633391,0
-1.3333981,-0.65305293,-1.5490454,-0.41414562,-0.87704057,-0.24348128,0
-0.82905579,1.3370342,-0.22541499,-0.86448807,0.46272382,-0.19633391,0
0.37692422,1.2300872,1.4352999,0.41414562,0.87704057,0.24348128,0
1.2132366,-1.1946398,-0.76421219,0.28485742,0.1291759,-0.94982618,0
-1.240819,0.10452354,-1.5127907,0.28485742,0.1291759,-0.94982618,0
-2.1659105,-0.54122365,0.082363844,-0.41414562,-0.87704057,-0.24348128,0
-1.2559707,0.66293675,0.090490758,-0.86448807,0.46272382,-0.19633391,0
1.2217625,-1.4388516,-0.11466777,0.86448807,-0.46272382,0.19633391,0
0.39289397,-0.10672712,-1.1242387,0.28485742,0.1291759,-0.94982618,0
0.26850259,0.7703076,-1.0755655,0.28485742,0.1291759,-0.94982618,0
-1.772823,0.51493448,0.36917931,-0.86448807,0.46272382,-0.19633391,0
-1.7511187,-0.37441099,-0.52736348,-0.86448807,0.46272382,-0.19633391,0
1.1829044,-1.1841691,-0.096225202,0.86448807,-0.46272382,0.19633391,0
0.71859026,0.54576564,1.4197351,-0.28485742,-0.1291759,0.94982618,0
1.1306666,-1.0991676,-0.037367284,0.86448807,-0.46272382,0.19633391,0
1.5019392,0.64748275,1.0062066,0.41414562,0.87704057,0.24348128,0
-1.1163999,1.2094421,0.94971514,-0.28485742,-0.1291759,0.94982618,0
0.87659657,-1.9116132,-0.048132896,0.86448807,-0.46272382,0.19633391,0
-0.5834372,-1.1231738,-1.4535085,-0.41414562,-0.87704057,-0.24348128,0
