5.0355191,0.78427529,0.91093183,0.87465906,0.4716773,-0.11176831,0
4.5487561,0.98142189,0.77411318,0.87465906,0.4716773,-0.11176831,0
-2.0812414,-1.1632886,-1.8552334,0.40062937,-0.83321792,-0.38110894,0
0.35315359,0.22194201,2.0594685,-0.40062937,0.83321792,0.38110894,0
-4.1392388,-1.8371003,1.435041,-0.87465906,-0.4716773,0.11176831,0
-3.6455796,0.14003897,-1.0226995,-0.40062937,0.83321792,0.38110894,0
-1.4739745,-2.3831918,1.0520213,0.40062937,-0.83321792,-0.38110894,0
-4.571806,-1.2314843,0.34344864,-0.87465906,-0.4716773,0.11176831,0
-3.0391443,0.061590433,-0.48729074,-0.40062937,0.83321792,0.38110894,0
0.026769757,-0.21827203,-1.720126,0.40062937,-0.83321792,-0.38110894,0
4.03298,2.0289192,-1.1721568,0.87465906,0.4716773,-0.11176831,0
-3.2624822,-2.8123386,2.2458007,0.27288783,-0.28856269,0.9177494,0
-3.8138237,-2.0843186,2.3554707,-0.87465906,-0.4716773,0.11176831,0
-2.3258464,-2.1797628,2.3184335,0.27288783,-0.28856269,0.9177494,0
-1.475853,-1.8099655,-0.010548234,0.40062937,-0.83321792,-0.38110894,0
-4.1629744,-1.6841443,1.6409473,-0.87465906,-0.4716773,0.11176831,0
3.8216879,2.0532973,-1.593322,0.87465906,0.4716773,-0.11176831,0
-0.922526,1.354522,-1.5730476,-0.40062937,0.83321792,0.38110894,0
1.51244,-0.73794985,1.6194143,0.27288783,-0.28856269,0.9177494,0
2.8838568,0.33103436,0.081459045,0.40062937,-0.83321792,-0.38110894,0
3.6993611,2.7259312,-1.2118478,0.87465906,0.4716773,-0.11176831,0
1.0929139,1.2301178,1.1474966,-0.40062937,0.83321792,0.38110894,0
-3.5282431,-2.1379972,2.6432922,0.27288783,-0.28856269,0.9177494,0
-0.37113595,-0.36760104,-1.8950045,0.40062937,-0.83321792,-0.38110894,0
3.8488283,2.199717,-1.8450527,0.87465906,0.4716773,-0.11176831,0
4.4261169,1.6749796,1.0127733,0.87465906,0.4716773,-0.11176831,0
3.9308097,0.29269138,1.1745652,0.27288783,-0.28856269,0.9177494,0
-0.40127146,-0.17551178,2.3113484,0.27288783,-0.28856269,0.9177494,0
-0.68818307,-2.0710931,1.7015306,0.27288783,-0.28856269,0.9177494,0
-0.95720321,-0.93789989,2.1197903,0.27288783,-0.28856269,0.9177494,0
-2.6074648,-1.7924159,-1.5906243,0.40062937,-0.83321792,-0.38110894,0
0.011311054,1.2405357,-1.7537222,-0.27288783,0.28856269,-0.9177494,0
2.5067434,3.2430997,-1.6378446,-0.40062937,0.83321792,0.38110894,0
3.6217544,2.3951237,-0.078617334,0.87465906,0.4716773,-0.11176831,0
-2.3038526,0.58293617,-1.1319585,-0.40062937,0.83321792,0.38110894,0
0.66911834,2.1153433,-1.6596588,-0.40062937,0.83321792,0.38110894,0
0.41673315,1.1901498,-1.7491453,-0.27288783,0.28856269,-0.9177494,0
-4.1615567,-1.6694616,0.46753311,-0.87465906,-0.4716773,0.11176831,0
3.1090026,2.9863942,-2.1032116,-0.27288783,0.28856269,-0.9177494,0
3.7717133,0.45610589,-0.11089683,0.40062937,-0.83321792,-0.38110894,0
-1.4707769,0.49078405,-0.12003422,-0.40062937,0.83321792,0.38110894,0
1.5862818,-0.76775503,1.0137,0.40062937,-0.83321792,-0.38110894,0
3.8441632,0.6707027,0.40290236,0.40062937,-0.83321792,-0.38110894,0
1.5548481,2.0553684,-1.8667934,-0.27288783,0.28856269,-0.9177494,0
4.3364096,2.3092036,1.7415602,0.87465906,0.4716773,-0.11176831,0
1.8495111,-0.45949972,0.40663379,0.40062937,-0.83321792,-0.38110894,0
-4.5581961,-1.2637223,-1.2299664,-0.87465906,-0.4716773,0.11176831,0
-3.6658325,-2.4197686,0.0015382767,-0.87465906,-0.4716773,0.11176831,0
-1.9054645,-2.1371193,2.1241326,0.27288783,-0.28856269,0.9177494,0
3.5168457,-0.092090011,1.2473581,0.27288783,-0.28856269,0.9177494,0
1.0197792,1.6132709,-2.1065769,-0.27288783,0.28856269,-0.9177494,0
3.5280452,2.7885041,-0.14618349,0.87465906,0.4716773,-0.11176831,0
4.2568536,1.3084676,-0.45464087,0.87465906,0.4716773,-0.11176831,0
2.299752,1.5407403,1.7682655,0.27288783,-0.28856269,0.9177494,0
-0.025164336,-1.0817778,-0.49330801,0.40062937,-0.83321792,-0.38110894,0
3.7565308,1.8328627,-2.173131,0.87465906,0.4716773,-0.11176831,0
-3.8374922,-2.106566,-0.32315302,-0.87465906,-0.4716773,0.11176831,0
4.0264592,2.3238347,0.26986504,0.87465906,0.4716773,-0.11176831,0
-3.5170274,-2.899312,1.89151,-0.87465906,-0.4716773,0.11176831,0
0.22237599,1.8167388,-1.1124883,-0.40062937,0.83321792,0.38110894,0
3.6316068,2.8900268,-0.77623177,0.87465906,0.4716773,-0.11176831,0
0.92064786,-0.36804286,1.7540238,0.27288783,-0.28856269,0.9177494,0
-3.0759945,-1.4194794,2.4836338,0.27288783,-0.28856269,0.9177494,0
0.93002057,-1.20983,1.601298,0.27288783,-0.28856269,0.9177494,0
0.89552629,-1.233186,1.0207808,0.40062937,-0.83321792,-0.38110894,0
0.67989182,0.82518578,1.1542273,-0.40062937,0.83321792,0.38110894,0
0.56602174,-0.20580924,-1.3681314,0.40062937,-0.83321792,-0.38110894,0
-4.5125055,-1.2703335,-0.69160652,-0.87465906,-0.4716773,0.11176831,0
-3.6290214,-2.3177295,1.06652,-0.87465906,-0.4716773,0.11176831,0
-3.2193761,-3.2190874,1.7138369,-0.87465906,-0.4716773,0.11176831,0
1.9300452,0.21916395,1.7317091,0.27288783,-0.28856269,0.9177494,0
-2.3963189,-0.51719207,-1.4275016,-0.27288783,0.28856269,-0.9177494,0
4.195817,1.6489958,0.88170242,0.87465906,0.4716773,-0.11176831,0
-0.53900445,-0.050272763,1.8711386,-0.40062937,0.83321792,0.38110894,0
-2.6007047,-1.5397289,2.5793574,0.27288783,-0.28856269,0.9177494,0
-3.5294671,-2.6428993,-0.096497536,-0.87465906,-0.4716773,0.11176831,0
-0.44892415,0.62018752,0.84502017,-0.40062937,0.83321792,0.38110894,0
3.5288932,3.2514718,-0.61380768,0.87465906,0.4716773,-0.11176831,0
-4.0766807,-0.55576807,-1.2154341,-0.27288783,0.28856269,-0.9177494,0
4.1907253,0.66153955,0.97110462,0.27288783,-0.28856269,0.9177494,0
-0.61507386,-1.7739829,1.5898834,0.27288783,-0.28856269,0.9177494,0
4.3737307,1.3377233,0.82262111,0.87465906,0.4716773,-0.11176831,0
2.6266608,1.345789,-2.3648376,0.40062937,-0.83321792,-0.38110894,0
3.9509559,2.4991758,0.4874115,0.87465906,0.4716773,-0.11176831,0
1.4397523,0.012569696,-1.2574983,0.40062937,-0.83321792,-0.38110894,0
1.4462414,0.89656651,-2.2233047,-0.27288783,0.28856269,-0.9177494,0
-3.5454028,-2.4691839,-0.5394392,0.40062937,-0.83321792,-0.38110894,0
-1.182636,-1.4783192,2.1717005,0.27288783,-0.28856269,0.9177494,0
0.59107327,2.0111599,-1.6190822,-0.27288783,0.28856269,-0.9177494,0
-4.0743318,-1.670261,-0.43090653,-0.87465906,-0.4716773,0.11176831,0
2.1948395,0.83577657,-1.7302377,0.40062937,-0.83321792,-0.38110894,0
-2.2077274,-0.899266,-1.6274712,-0.27288783,0.28856269,-0.9177494,0
2.0100381,1.8484904,0.59138608,-0.40062937,0.83321792,0.38110894,0
0.56504488,0.77115721,-2.2061675,-0.27288783,0.28856269,-0.9177494,0
3.9706483,0.25575051,0.85557294,0.40062937,-0.83321792,-0.38110894,0
4.5599222,1.5359929,1.0235198,0.87465906,0.4716773,-0.11176831,0
-3.8014936,-2.2575202,1.6146836,-0.87465906,-0.4716773,0.11176831,0
3.7173903,2.098937,-1.4724355,0.87465906,0.4716773,-0.11176831,0
-3.2005138,-2.6546686,0.11589384,0.40062937,-0.83321792,-0.38110894,0
-4.2690544,-1.306155,0.33582211,-0.87465906,-0.4716773,0.11176831,0
-3.346015,-3.3128436,1.7662444,-0.87465906,-0.4716773,0.11176831,0
-2.1346407,-0.64496434,-1.6524782,-0.27288783,0.28856269,-0.9177494,0
-4.3104725,-1.4172153,-0.40712333,-0.87465906,-0.4716773,0.11176831,0
-4.0831075,-1.7085735,1.2339745,-0.87465906,-0.4716773,0.11176831,0
-4.3064075,-0.58635461,-0.69190407,-0.40062937,0.83321792,0.38110894,0
1.1078072,-1.0901833,1.2495158,0.40062937,-0.83321792,-0.38110894,0
-3.3348997,-3.3577156,1.6840901,-0.87465906,-0.4716773,0.11176831,0
2.2675436,1.2955611,-2.5607269,-0.27288783,0.28856269,-0.9177494,0
0.1466732,-0.40191847,-1.4538436,0.40062937,-0.83321792,-0.38110894,0
-3.6284924,-2.7506018,2.0472364,-0.87465906,-0.4716773,0.11176831,0
-3.3496358,-2.496383,-0.3192904,0.40062937,-0.83321792,-0.38110894,0
-1.985509,0.29216823,-0.10405362,-0.40062937,0.83321792,0.38110894,0
0.93602914,0.37419489,-2.2456496,-0.27288783,0.28856269,-0.9177494,0
1.8474116,-0.67976373,0.28604019,0.40062937,-0.83321792,-0.38110894,0
-2.7522552,-2.9369233,0.86464453,0.40062937,-0.83321792,-0.38110894,0
2.4016292,-0.092712633,0.054573298,0.40062937,-0.83321792,-0.38110894,0
-0.70620966,1.5157712,-1.5172411,-0.27288783,0.28856269,-0.9177494,0
3.467998,2.1080122,-2.6981797,-0.27288783,0.28856269,-0.9177494,0
-3.5979929,-2.5888841,-0.1389637,-0.87465906,-0.4716773,0.11176831,0
-2.8959236,-1.5214813,2.4023733,-0.40062937,0.83321792,0.38110894,0
2.4448242,2.8598356,-1.4825034,-0.40062937,0.83321792,0.38110894,0
0.81434655,-1.3002802,0.86447102,0.40062937,-0.83321792,-0.38110894,0
3.589973,1.9014032,-2.3605061,0.87465906,0.4716773,-0.11176831,0
1.3546349,-0.25034139,1.8541425,0.27288783,-0.28856269,0.9177494,0
-3.2626445,-0.077163696,-1.0644433,-0.27288783,0.28856269,-0.9177494,0
-4.9882736,-0.89446813,-0.76902843,-0.87465906,-0.4716773,0.11176831,0
-1.8405378,-2.7466333,1.214432,0.40062937,-0.83321792,-0.38110894,0
2.660953,0.64974409,1.6588485,0.27288783,-0.28856269,0.9177494,0
-3.1708505,-3.0988369,0.95561767,0.40062937,-0.83321792,-0.38110894,0
2.6321211,2.2299087,0.5253377,-0.40062937,0.83321792,0.38110894,0
4.0602617,2.0405254,0.50589824,0.87465906,0.4716773,-0.11176831,0
4.3912706,1.4579353,1.1386032,0.87465906,0.4716773,-0.11176831,0
1.1357381,0.48278582,2.0475626,0.27288783,-0.28856269,0.9177494,0
3.6911387,1.9033411,-2.1434939,0.87465906,0.4716773,-0.11176831,0
-0.090681553,0.078863919,-2.1618814,-0.27288783,0.28856269,-0.9177494,0
-1.1154418,-1.9831452,2.0116165,0.27288783,-0.28856269,0.9177494,0
3.3689799,3.1067705,-1.9093318,0.87465906,0.4716773,-0.11176831,0
4.2143741,0.75602359,-0.064087629,0.40062937,-0.83321792,-0.38110894,0
-1.2622697,-1.848295,2.0322361,0.27288783,-0.28856269,0.9177494,0
-3.2718968,-3.4297931,1.1829715,-0.87465906,-0.4716773,0.11176831,0
3.8384733,1.247355,-1.8090107,0.40062937,-0.83321792,-0.38110894,0
-1.1760895,-1.714982,1.8752235,0.27288783,-0.28856269,0.9177494,0
-0.56125546,-1.8606311,1.2603176,0.40062937,-0.83321792,-0.38110894,0
1.9733332,-0.044087291,1.6908507,0.27288783,-0.28856269,0.9177494,0
3.8019335,2.150733,-0.69922924,0.87465906,0.4716773,-0.11176831,0
-3.0172572,-2.8855777,2.1760795,0.27288783,-0.28856269,0.9177494,0
1.4487438,-0.56845021,1.7425826,0.27288783,-0.28856269,0.9177494,0
0.36182636,-1.6876179,1.3722757,0.40062937,-0.83321792,-0.38110894,0
-2.7019215,-0.83384138,-1.5140215,-0.27288783,0.28856269,-0.9177494,0
1.7924728,2.8102508,-2.0056989,-0.27288783,0.28856269,-0.9177494,0
3.2670858,2.9904838,-1.6797292,0.87465906,0.4716773,-0.11176831,0
-4.0553989,-0.5309462,-1.3008854,-0.27288783,0.28856269,-0.9177494,0
-3.8390226,-2.5559399,0.62118435,-0.87465906,-0.4716773,0.11176831,0
2.1301868,-0.099991456,-0.32291281,0.40062937,-0.83321792,-0.38110894,0
4.6949015,1.4349256,0.85948753,0.87465906,0.4716773,-0.11176831,0
4.5020752,1.0937941,0.45088387,0.87465906,0.4716773,-0.11176831,0
0.44340324,-1.0835721,1.6106269,0.27288783,-0.28856269,0.9177494,0
-3.0656242,-1.2310734,-1.8179685,-0.27288783,0.28856269,-0.9177494,0
0.58906674,-0.75348705,1.6587923,0.27288783,-0.28856269,0.9177494,0
-2.6790528,-0.44321102,-1.6598324,-0.27288783,0.28856269,-0.9177494,0
-0.31594861,0.18996084,2.113934,-0.40062937,0.83321792,0.38110894,0
3.4981947,2.3078249,-2.0114758,0.87465906,0.4716773,-0.11176831,0
2.7259848,3.0665436,-1.502614,-0.40062937,0.83321792,0.38110894,0
-3.9233751,-2.2926445,-1.1049387,-0.87465906,-0.4716773,0.11176831,0
-2.0610011,0.37911227,-0.49470305,-0.40062937,0.83321792,0.38110894,0
3.915204,2.3927493,-0.19258308,0.87465906,0.4716773,-0.11176831,0
-0.33608413,1.748789,-1.383919,-0.40062937,0.83321792,0.38110894,0
-2.373986,-2.1684313,2.1619895,0.27288783,-0.28856269,0.9177494,0
1.3908863,1.4272635,1.4494766,-0.40062937,0.83321792,0.38110894,0
-3.1710467,-1.61531,2.4391253,0.27288783,-0.28856269,0.9177494,0
-4.825984,-1.1113284,-0.9225471,-0.87465906,-0.4716773,0.11176831,0
-4.6629734,-1.0222938,-0.37956095,-0.87465906,-0.4716773,0.11176831,0
2.5428867,3.0678859,-1.3924191,-0.40062937,0.83321792,0.38110894,0
-3.535383,-2.5616214,0.46961761,-0.87465906,-0.4716773,0.11176831,0
4.4062934,0.80201203,1.2451115,0.27288783,-0.28856269,0.9177494,0
-2.6064048,0.46321118,-1.2860453,-0.40062937,0.83321792,0.38110894,0
-2.952127,-3.7145407,1.8722084,0.40062937,-0.83321792,-0.38110894,0
-3.6184931,-0.36766922,-1.2714355,-0.27288783,0.28856269,-0.9177494,0
3.3553598,2.9685264,-0.53946781,0.87465906,0.4716773,-0.11176831,0
-4.1545429,-1.8143132,-1.7148907,-0.27288783,0.28856269,-0.9177494,0
1.2170917,0.016028643,-1.6730406,0.40062937,-0.83321792,-0.38110894,0
-2.3613172,0.69844609,-1.0313728,-0.40062937,0.83321792,0.38110894,0
1.0432025,-1.1177347,1.632803,0.27288783,-0.28856269,0.9177494,0
-4.2597933,-2.1443529,-0.8404119,-0.87465906,-0.4716773,0.11176831,0
3.9001107,1.9540308,-2.220407,0.87465906,0.4716773,-0.11176831,0
-0.1529969,0.30519336,1.4650636,-0.40062937,0.83321792,0.38110894,0
-3.048588,-0.39393789,0.28152561,-0.40062937,0.83321792,0.38110894,0
-2.6354835,-0.81253505,-1.8413339,-0.27288783,0.28856269,-0.9177494,0
0.60994518,-0.96911776,1.6833054,0.27288783,-0.28856269,0.9177494,0
-1.7376593,-0.6577304,-1.8599797,-0.27288783,0.28856269,-0.9177494,0
-1.2671285,-0.03812629,-1.8904142,-0.27288783,0.28856269,-0.9177494,0
-4.1997118,-2.1510558,-1.2469108,-0.87465906,-0.4716773,0.11176831,0
4.2066669,1.2791986,-0.93097758,0.40062937,-0.83321792,-0.38110894,0
-0.8529284,0.65736824,-1.8892598,-0.27288783,0.28856269,-0.9177494,0
-3.785939,-2.3565669,0.19869661,-0.87465906,-0.4716773,0.11176831,0
-1.3545877,-0.41800091,1.732754,-0.40062937,0.83321792,0.38110894,0
3.6492815,2.4017918,-1.6219969,0.87465906,0.4716773,-0.11176831,0
-4.2448349,-1.1736114,1.1232207,-0.40062937,0.83321792,0.38110894,0
-3.6322539,-2.5810494,0.38240194,-0.87465906,-0.4716773,0.11176831,0
-2.4770718,-1.8807441,-0.96091712,0.40062937,-0.83321792,-0.38110894,0
-0.7502383,-0.57233024,2.0759168,0.27288783,-0.28856269,0.9177494,0
-3.4686961,-2.0157855,-1.6621783,0.40062937,-0.83321792,-0.38110894,0
-0.32777774,-0.25189048,2.2790589,0.27288783,-0.28856269,0.9177494,0
-2.799247,-2.8339877,0.83378506,0.40062937,-0.83321792,-0.38110894,0
-3.0046244,-0.44938695,-1.3828427,-0.27288783,0.28856269,-0.9177494,0
1.9465886,0.5223279,-1.8411911,0.40062937,-0.83321792,-0.38110894,0
-2.7472911,-1.885385,-1.6335801,0.40062937,-0.83321792,-0.38110894,0
-3.5334616,-2.6562471,2.1733837,-0.87465906,-0.4716773,0.11176831,0
0.98965359,0.3883757,2.0868104,0.27288783,-0.28856269,0.9177494,0
-4.6007929,-1.1731181,-0.84694743,-0.87465906,-0.4716773,0.11176831,0
-1.1621426,-1.2178032,-1.5389215,0.40062937,-0.83321792,-0.38110894,0
-3.1480207,-3.1793644,1.7817175,-0.87465906,-0.4716773,0.11176831,0
-3.8107097,-2.0711267,-0.067621946,-0.87465906,-0.4716773,0.11176831,0
-4.1686025,-1.4643643,0.52259088,-0.87465906,-0.4716773,0.11176831,0
4.0063539,2.1361814,-1.3532834,0.87465906,0.4716773,-0.11176831,0
2.8802419,0.018182762,0.33425069,0.40062937,-0.83321792,-0.38110894,0
2.1171298,-0.81874818,1.1666198,0.40062937,-0.83321792,-0.38110894,0
0.791664,0.58485389,-2.2848167,-0.27288783,0.28856269,-0.9177494,0
0.35432547,-1.1171557,-0.27752694,0.40062937,-0.83321792,-0.38110894,0
-2.8798873,-3.1659327,0.74848747,0.40062937,-0.83321792,-0.38110894,0
4.1434231,0.62151933,0.13041067,0.40062937,-0.83321792,-0.38110894,0
0.74310642,-1.2705675,0.88008404,0.40062937,-0.83321792,-0.38110894,0
-4.3601608,-1.224896,0.71023512,-0.87465906,-0.4716773,0.11176831,0
-4.4214668,-0.95066792,0.015446901,-0.87465906,-0.4716773,0.11176831,0
3.1170189,3.1096749,-1.9888217,0.87465906,0.4716773,-0.11176831,0
4.3632159,1.4569434,1.025836,0.87465906,0.4716773,-0.11176831,0
0.17016003,-1.3087848,0.53737497,0.40062937,-0.83321792,-0.38110894,0
0.51826644,-0.39756328,1.9360124,0.27288783,-0.28856269,0.9177494,0
-4.0618372,-1.7625961,-0.40913677,-0.87465906,-0.4716773,0.11176831,0
2.9015474,2.1971998,0.46287489,-0.40062937,0.83321792,0.38110894,0
-2.4510026,-3.0379996,1.6925392,0.40062937,-0.83321792,-0.38110894,0
3.2959168,3.1552644,-1.711612,0.87465906,0.4716773,-0.11176831,0
-2.5333753,-2.0957398,2.4295769,0.27288783,-0.28856269,0.9177494,0
-3.7156353,-0.66464829,-0.10019016,-0.40062937,0.83321792,0.38110894,0
-1.7274082,0.38321859,-0.51703846,-0.40062937,0.83321792,0.38110894,0
-4.051713,-1.8239512,0.40861249,-0.87465906,-0.4716773,0.11176831,0
0.82310748,-1.0397437,1.7237806,0.27288783,-0.28856269,0.9177494,0
4.7191401,1.1147681,0.93229938,0.87465906,0.4716773,-0.11176831,0
-0.17721689,-1.8786778,1.5751278,0.40062937,-0.83321792,-0.38110894,0
4.4445372,1.4998914,-0.29322481,0.87465906,0.4716773,-0.11176831,0
-0.6619823,-1.7337453,0.7133249,0.40062937,-0.83321792,-0.38110894,0
1.5590388,-0.66310674,0.5021522,0.40062937,-0.83321792,-0.38110894,0
-3.3328018,-0.49988687,-1.5020928,-0.27288783,0.28856269,-0.9177494,0
-1.1506287,0.97264898,-0.24417883,-0.40062937,0.83321792,0.38110894,0
3.4820745,2.966697,0.047486305,0.87465906,0.4716773,-0.11176831,0
-3.4003179,-2.5770965,1.3892679,-0.87465906,-0.4716773,0.11176831,0
3.5463727,2.9696524,-0.27357936,0.87465906,0.4716773,-0.11176831,0
-3.1113112,-3.5273871,1.7340076,-0.87465906,-0.4716773,0.11176831,0
4.0253115,1.0312299,-0.37673068,0.40062937,-0.83321792,-0.38110894,0
-1.0963171,0.93975061,-1.4523478,-0.27288783,0.28856269,-0.9177494,0
1.7369909,2.3092585,-0.88934398,-0.40062937,0.83321792,0.38110894,0
4.2265224,1.7982404,-1.1136932,0.87465906,0.4716773,-0.11176831,0
3.936676,1.437104,-1.5051453,0.40062937,-0.83321792,-0.38110894,0
-2.626193,-0.49654487,-1.3476175,-0.27288783,0.28856269,-0.9177494,0
1.6752784,1.6215577,0.74640179,-0.40062937,0.83321792,0.38110894,0
1.03696,0.4351241,1.8147315,0.27288783,-0.28856269,0.9177494,0
-3.3689671,-2.930897,2.3968229,0.27288783,-0.28856269,0.9177494,0
3.9513893,1.7206289,-0.80856872,0.87465906,0.4716773,-0.11176831,0
0.77434993,1.498697,-1.7913002,-0.27288783,0.28856269,-0.9177494,0
-2.6696031,-2.7706866,0.13339305,0.40062937,-0.83321792,-0.38110894,0
4.4862361,1.195154,0.62924314,0.87465906,0.4716773,-0.11176831,0
1.9927864,2.2075937,-1.9418554,-0.27288783,0.28856269,-0.9177494,0
3.6170812,2.6963074,-0.63152051,0.87465906,0.4716773,-0.11176831,0
2.5820315,2.612488,-0.6833539,-0.40062937,0.83321792,0.38110894,0
-3.5246916,-2.6974626,0.38419223,-0.87465906,-0.4716773,0.11176831,0
2.9057689,1.233198,-2.5481038,-0.27288783,0.28856269,-0.9177494,0
-2.8058748,0.48429477,-1.0316784,-0.40062937,0.83321792,0.38110894,0
-4.0472693,-2.1503758,0.85792971,-0.87465906,-0.4716773,0.11176831,0
1.4093745,2.1657121,-0.71759415,-0.40062937,0.83321792,0.38110894,0
4.798408,0.90517408,0.063911438,0.87465906,0.4716773,-0.11176831,0
2.7006619,0.95660347,1.76801,0.27288783,-0.28856269,0.9177494,0
-3.3723879,-2.6370676,1.9541352,-0.87465906,-0.4716773,0.11176831,0
-2.0001926,-2.237839,0.062057018,0.40062937,-0.83321792,-0.38110894,0
-1.2015332,0.57356119,-1.65697,-0.27288783,0.28856269,-0.9177494,0
-2.811645,-1.1700008,-1.526623,-0.27288783,0.28856269,-0.9177494,0
0.19802046,-1.2964289,1.6448538,0.27288783,-0.28856269,0.9177494,0
-3.6896768,-1.3024721,1.2937047,-0.40062937,0.83321792,0.38110894,0
2.8288379,3.3649278,-2.0460112,-0.27288783,0.28856269,-0.9177494,0
3.2419765,0.46236375,-0.73769474,0.40062937,-0.83321792,-0.38110894,0
-3.5362077,-2.2371955,1.9874816,-0.87465906,-0.4716773,0.11176831,0
-3.1509314,-2.9508793,2.0932148,-0.87465906,-0.4716773,0.11176831,0
-3.6125841,-0.26039279,-0.81947207,-0.40062937,0.83321792,0.38110894,0
4.7432141,0.9068163,0.30575585,0.87465906,0.4716773,-0.11176831,0
-3.8826838,-1.238184,1.6752212,-0.40062937,0.83321792,0.38110894,0
3.1820138,3.0407386,-1.7029305,0.87465906,0.4716773,-0.11176831,0
-2.3841171,0.53752047,-1.0730282,-0.40062937,0.83321792,0.38110894,0
3.8916161,0.25453401,0.90257168,0.27288783,-0.28856269,0.9177494,0
4.1330681,1.7638323,-1.2234802,0.87465906,0.4716773,-0.11176831,0
-4.7490625,-1.2396173,-1.1416326,-0.27288783,0.28856269,-0.9177494,0
3.6538525,2.2317891,-2.619473,-0.27288783,0.28856269,-0.9177494,0
3.9997182,1.6429064,-1.6015689,0.87465906,0.4716773,-0.11176831,0
-0.1366086,-1.2880673,2.0209162,0.27288783,-0.28856269,0.9177494,0
-0.4662143,0.78334451,0.69360989,-0.40062937,0.83321792,0.38110894,0
-0.87069845,-1.1638432,-0.58868891,0.40062937,-0.83321792,-0.38110894,0
2.6263056,2.086134,-2.1782694,-0.27288783,0.28856269,-0.9177494,0
-3.905884,-1.5661075,2.0151341,-0.87465906,-0.4716773,0.11176831,0
-0.94462001,0.54134929,0.43695998,-0.40062937,0.83321792,0.38110894,0
-0.54010248,0.015324473,1.994149,-0.40062937,0.83321792,0.38110894,0
-0.87167251,-1.7346884,1.8346745,0.27288783,-0.28856269,0.9177494,0
-4.973309,-0.71770811,-0.93492103,-0.87465906,-0.4716773,0.11176831,0
-3.7451513,-2.0785601,1.2211356,-0.87465906,-0.4716773,0.11176831,0
-1.5313755,-1.7348659,-0.19842279,0.40062937,-0.83321792,-0.38110894,0
3.0195584,1.0376104,-2.2416282,0.40062937,-0.83321792,-0.38110894,0
4.0244861,2.5115533,0.68667889,0.87465906,0.4716773,-0.11176831,0
-4.0548668,-2.4752829,-0.17252994,-0.87465906,-0.4716773,0.11176831,0
-2.3931971,0.25914726,-1.454491,-0.27288783,0.28856269,-0.9177494,0
-3.0242856,-2.4322848,-0.81592679,0.40062937,-0.83321792,-0.38110894,0
3.2049453,2.9745817,-1.7146039,0.87465906,0.4716773,-0.11176831,0
-0.64758778,0.582587,-1.9237872,-0.27288783,0.28856269,-0.9177494,0
4.6165729,0.51136798,1.0079961,0.27288783,-0.28856269,0.9177494,0
4.1311502,1.9316815,1.0471244,0.87465906,0.4716773,-0.11176831,0
3.8166876,2.3696716,1.0838554,-0.40062937,0.83321792,0.38110894,0
-3.7237213,-2.7403927,0.95779133,-0.87465906,-0.4716773,0.11176831,0
2.0943522,-0.01339916,0.0178653,0.40062937,-0.83321792,-0.38110894,0
-3.9965384,-2.1143293,-0.17294717,-0.87465906,-0.4716773,0.11176831,0
3.9606457,1.9573232,-0.69928265,0.87465906,0.4716773,-0.11176831,0
0.18022013,0.87711227,-2.064657,-0.27288783,0.28856269,-0.9177494,0
2.4226825,0.28848684,1.6705731,0.27288783,-0.28856269,0.9177494,0
3.9971502,2.0897143,-1.1871409,0.87465906,0.4716773,-0.11176831,0
-3.8671615,-2.1348653,0.62561917,-0.87465906,-0.4716773,0.11176831,0
-4.6150436,-1.1326635,-0.2037456,-0.87465906,-0.4716773,0.11176831,0
3.1542501,1.8726913,1.5357078,-0.40062937,0.83321792,0.38110894,0
3.9940946,2.3944287,0.16012836,0.87465906,0.4716773,-0.11176831,0
0.68417919,-1.3975009,1.3628297,0.27288783,-0.28856269,0.9177494,0
-4.1651497,-1.480726,0.17074132,-0.87465906,-0.4716773,0.11176831,0
1.2771506,0.46457696,1.7673405,0.27288783,-0.28856269,0.9177494,0
3.9292784,1.8807919,-2.3749342,0.87465906,0.4716773,-0.11176831,0
-3.7728419,-1.8730893,-1.4906318,-0.27288783,0.28856269,-0.9177494,0
-0.1732471,-0.62867099,-1.7171775,0.40062937,-0.83321792,-0.38110894,0
-3.1323304,-2.5172479,2.3002925,0.27288783,-0.28856269,0.9177494,0
-0.90069985,-1.1752392,2.2948556,0.27288783,-0.28856269,0.9177494,0
-4.2479281,-1.3827288,0.23102069,-0.87465906,-0.4716773,0.11176831,0
-0.28554815,1.0498295,-0.27999949,-0.40062937,0.83321792,0.38110894,0
-3.1571267,-2.1948352,-0.6874454,0.40062937,-0.83321792,-0.38110894,0
-1.4896834,-0.33998078,1.4575765,-0.40062937,0.83321792,0.38110894,0
4.1137385,2.1992409,0.64797378,0.87465906,0.4716773,-0.11176831,0
-1.1670001,-2.4737177,1.1255765,0.40062937,-0.83321792,-0.38110894,0
4.0929279,1.8705677,-0.26526976,0.87465906,0.4716773,-0.11176831,0
-2.2480061,-1.6236042,2.3421185,0.27288783,-0.28856269,0.9177494,0
-4.3374,-1.8810841,-1.1012485,-0.87465906,-0.4716773,0.11176831,0
0.57360923,0.84518462,1.0107361,-0.40062937,0.83321792,0.38110894,0
4.1877613,1.6965208,-1.4346614,0.87465906,0.4716773,-0.11176831,0
-3.9179316,-2.052068,1.7284446,-0.87465906,-0.4716773,0.11176831,0
-0.40755177,-0.07936132,-1.9540993,-0.27288783,0.28856269,-0.9177494,0
-2.5421989,-0.70521849,-1.8523417,-0.27288783,0.28856269,-0.9177494,0
-0.18222189,-0.54415071,-1.9161415,0.40062937,-0.83321792,-0.38110894,0
2.9573894,2.9630353,-2.1692483,-0.27288783,0.28856269,-0.9177494,0
4.5171194,1.122623,1.0146832,0.87465906,0.4716773,-0.11176831,0
-3.1260357,-2.8960989,2.2304072,0.27288783,-0.28856269,0.9177494,0
-3.7734258,-1.3918635,1.9910045,-0.40062937,0.83321792,0.38110894,0
-2.500689,-0.1451499,0.35569906,-0.40062937,0.83321792,0.38110894,0
-0.41253674,-2.0515411,1.1590644,0.40062937,-0.83321792,-0.38110894,0
4.2587848,1.4816622,0.76432085,0.87465906,0.4716773,-0.11176831,0
1.5730655,0.38022003,-1.4710999,0.40062937,-0.83321792,-0.38110894,0
3.819581,2.2277484,-2.6214218,0.87465906,0.4716773,-0.11176831,0
0.55745411,0.15039551,2.0753243,0.27288783,-0.28856269,0.9177494,0
-3.7324007,-1.7606221,2.231559,-0.87465906,-0.4716773,0.11176831,0
-4.3445277,-1.1966568,-0.11364365,-0.87465906,-0.4716773,0.11176831,0
1.704119,-0.033345878,1.6099465,0.27288783,-0.28856269,0.9177494,0
3.0508752,0.13514355,1.1623912,0.27288783,-0.28856269,0.9177494,0
-4.0098019,-2.445406,-1.3871822,0.40062937,-0.83321792,-0.38110894,0
-3.946306,-0.52469665,-0.55512667,-0.40062937,0.83321792,0.38110894,0
-3.8763196,-2.3541858,-1.6033075,-0.87465906,-0.4716773,0.11176831,0
-0.71740282,-0.90007985,-1.2579201,0.40062937,-0.83321792,-0.38110894,0
-4.0914459,-1.4505073,0.925951,-0.87465906,-0.4716773,0.11176831,0
2.0135136,1.4595697,1.6006722,-0.40062937,0.83321792,0.38110894,0
-2.9042172,-2.8526688,2.1971879,0.27288783,-0.28856269,0.9177494,0
-3.754185,-2.5303941,0.26196408,-0.87465906,-0.4716773,0.11176831,0
-2.1386151,-0.89734793,1.8193314,-0.40062937,0.83321792,0.38110894,0
-4.6021881,-1.0644541,0.27587128,-0.87465906,-0.4716773,0.11176831,0
-0.20437068,0.58995783,0.98048127,-0.40062937,0.83321792,0.38110894,0
-4.1098161,-1.8488443,-1.0132263,-0.87465906,-0.4716773,0.11176831,0
3.2787855,2.7838249,-1.9611964,0.87465906,0.4716773,-0.11176831,0
-0.81147999,-0.51076066,2.3455989,0.27288783,-0.28856269,0.9177494,0
3.749299,2.4968388,0.71288133,0.87465906,0.4716773,-0.11176831,0
-0.32647443,1.4336727,-1.2963455,-0.40062937,0.83321792,0.38110894,0
-2.8648739,-1.556306,2.6008213,0.27288783,-0.28856269,0.9177494,0
-2.0121586,0.1616542,-1.5749462,-0.27288783,0.28856269,-0.9177494,0
2.5715051,1.1673644,-2.2063537,0.40062937,-0.83321792,-0.38110894,0
4.6070447,0.99560928,0.52428293,0.40062937,-0.83321792,-0.38110894,0
-0.56032503,1.1288161,-1.6150715,-0.27288783,0.28856269,-0.9177494,0
1.273505,-0.49957794,1.5479925,0.27288783,-0.28856269,0.9177494,0
-3.4961941,-0.87806362,-1.3892953,-0.27288783,0.28856269,-0.9177494,0
3.8398199,1.7630985,-1.6990721,0.87465906,0.4716773,-0.11176831,0
-4.322691,-1.6034255,0.15186214,-0.87465906,-0.4716773,0.11176831,0
4.567389,1.447834,0.72877097,0.87465906,0.4716773,-0.11176831,0
0.14044833,0.032432258,1.929991,0.27288783,-0.28856269,0.9177494,0
3.553761,1.5868874,-2.2157862,0.40062937,-0.83321792,-0.38110894,0
1.0490191,1.6509963,-0.085942388,-0.40062937,0.83321792,0.38110894,0
-1.9176921,0.14375381,0.42657661,-0.40062937,0.83321792,0.38110894,0
0.21955827,1.6306185,-1.0526268,-0.40062937,0.83321792,0.38110894,0
3.7097068,2.3692048,0.53309417,0.87465906,0.4716773,-0.11176831,0
2.4826913,3.0219746,-1.8991067,-0.27288783,0.28856269,-0.9177494,0
3.567636,1.7072589,1.4776677,0.27288783,-0.28856269,0.9177494,0
-3.451508,-0.70389181,-1.5585396,-0.27288783,0.28856269,-0.9177494,0
-0.31090665,-2.0163555,1.8033223,0.27288783,-0.28856269,0.9177494,0
-4.2368503,-1.665449,-0.67824984,-0.87465906,-0.4716773,0.11176831,0
1.8473625,2.8546023,-1.7770672,-0.27288783,0.28856269,-0.9177494,0
-0.92474413,-1.3448851,-0.67679411,0.40062937,-0.83321792,-0.38110894,0
3.8531222,2.4006333,1.2932549,0.87465906,0.4716773,-0.11176831,0
3.6448896,2.8005264,-0.23355651,0.87465906,0.4716773,-0.11176831,0
3.2233315,2.7230217,-1.9573119,0.87465906,0.4716773,-0.11176831,0
3.2630053,3.211838,-1.1161044,0.87465906,0.4716773,-0.11176831,0
-4.6220384,-0.98662686,-0.49120498,-0.87465906,-0.4716773,0.11176831,0
1.596662,1.9171414,-0.35241055,-0.40062937,0.83321792,0.38110894,0
-1.5460914,-0.33629704,-1.9570965,-0.27288783,0.28856269,-0.9177494,0
-3.7084196,-2.7974687,0.47304535,-0.87465906,-0.4716773,0.11176831,0
-4.1095266,-2.4967487,-1.1164827,-0.87465906,-0.4716773,0.11176831,0
3.1789098,2.0640523,-2.4948962,-0.27288783,0.28856269,-0.9177494,0
4.6771851,0.70006496,0.62888265,0.40062937,-0.83321792,-0.38110894,0
1.0391608,1.8057086,-1.7209049,-0.27288783,0.28856269,-0.9177494,0
-2.6377249,-2.2592113,-0.3043077,0.40062937,-0.83321792,-0.38110894,0
-2.0767703,-1.3367991,2.5479712,0.27288783,-0.28856269,0.9177494,0
-1.8753688,-2.0720387,2.2194638,0.27288783,-0.28856269,0.9177494,0
2.0468519,1.9780538,0.71946287,-0.40062937,0.83321792,0.38110894,0
3.3574903,-0.2796261,1.2521565,0.27288783,-0.28856269,0.9177494,0
4.5682344,1.5855908,0.99199891,0.87465906,0.4716773,-0.11176831,0
-4.5884295,-0.53414512,-1.0175598,-0.27288783,0.28856269,-0.9177494,0
4.2154751,1.2548292,-0.32013416,0.87465906,0.4716773,-0.11176831,0
-1.7789629,0.60055983,-1.5625887,-0.27288783,0.28856269,-0.9177494,0
-0.38917375,1.6765654,-1.7251213,-0.27288783,0.28856269,-0.9177494,0
0.88001478,0.59625649,2.1735983,0.27288783,-0.28856269,0.9177494,0
1.2890692,0.034213543,1.9265715,0.27288783,-0.28856269,0.9177494,0
-3.4279599,0.019885838,-1.0754209,-0.27288783,0.28856269,-0.9177494,0
4.702589,0.95293063,0.1946969,0.87465906,0.4716773,-0.11176831,0
1.8573936,1.317434,1.8599799,0.27288783,-0.28856269,0.9177494,0
-3.9850574,-2.0007033,-1.4345624,-0.27288783,0.28856269,-0.9177494,0
-3.6296484,-2.4632001,0.94769597,-0.87465906,-0.4716773,0.11176831,0
1.9915823,1.0927253,2.0975289,0.27288783,-0.28856269,0.9177494,0
-4.6971049,-1.2661467,-0.20214462,-0.87465906,-0.4716773,0.11176831,0
-3.406477,-1.8056935,-1.5688866,-0.27288783,0.28856269,-0.9177494,0
3.9893889,1.9003053,1.7609452,0.27288783,-0.28856269,0.9177494,0
3.3643944,2.5610008,-1.9852266,0.87465906,0.4716773,-0.11176831,0
-1.829051,-0.68770313,2.5945091,-0.40062937,0.83321792,0.38110894,0
-1.6827356,0.80264264,-1.3236343,-0.27288783,0.28856269,-0.9177494,0
2.0165966,-0.36870778,0.44625455,0.40062937,-0.83321792,-0.38110894,0
1.631058,-0.3071391,-0.27818191,0.40062937,-0.83321792,-0.38110894,0
3.1931818,0.18278027,1.387235,0.27288783,-0.28856269,0.9177494,0
-3.0851989,-3.0077858,1.6679897,-0.87465906,-0.4716773,0.11176831,0
3.7614319,2.8697531,0.090619802,0.87465906,0.4716773,-0.11176831,0
-3.5158834,-2.0301931,-1.6600466,-0.27288783,0.28856269,-0.9177494,0
2.6680734,1.4051788,-2.4360218,-0.27288783,0.28856269,-0.9177494,0
-3.3026781,-0.016550899,-1.4114527,-0.27288783,0.28856269,-0.9177494,0
3.7327657,0.40458629,1.1125422,0.27288783,-0.28856269,0.9177494,0
0.20776582,0.15234846,-2.2758679,-0.27288783,0.28856269,-0.9177494,0
-2.2415013,-0.67721176,1.8368633,-0.40062937,0.83321792,0.38110894,0
0.49009836,0.697052,1.7692969,-0.40062937,0.83321792,0.38110894,0
-2.4784441,-2.3157458,2.1913557,0.27288783,-0.28856269,0.9177494,0
-0.48105824,-0.69559252,2.2464416,0.27288783,-0.28856269,0.9177494,0
2.5569308,0.83652842,-1.682951,0.40062937,-0.83321792,-0.38110894,0
-4.4953809,-1.8893363,-1.1369119,-0.87465906,-0.4716773,0.11176831,0
3.4844129,2.9091048,-0.47970414,0.87465906,0.4716773,-0.11176831,0
-3.9170971,-2.4976773,-0.94879127,-0.87465906,-0.4716773,0.11176831,0
3.3396378,0.77476078,-1.0655131,0.40062937,-0.83321792,-0.38110894,0
1.1204755,0.67021286,1.8346082,-0.40062937,0.83321792,0.38110894,0
-3.5911717,-2.0421159,2.7166162,0.27288783,-0.28856269,0.9177494,0
-3.3422732,-1.052207,-1.4440514,-0.27288783,0.28856269,-0.9177494,0
3.8845582,2.4325881,-0.30982065,0.87465906,0.4716773,-0.11176831,0
-1.9292965,-0.69491804,1.9490808,-0.40062937,0.83321792,0.38110894,0
-3.1651094,-1.5607743,2.55933,0.27288783,-0.28856269,0.9177494,0
-3.3102579,0.21235141,-0.99485874,-0.40062937,0.83321792,0.38110894,0
-3.4036834,-1.015343,0.97378731,-0.40062937,0.83321792,0.38110894,0
0.94328022,-0.38205856,1.8020878,0.27288783,-0.28856269,0.9177494,0
2.5334015,0.31529701,-0.81486201,0.40062937,-0.83321792,-0.38110894,0
-0.30366004,0.40884513,-1.9759954,-0.27288783,0.28856269,-0.9177494,0
1.2083621,2.3703423,-1.9265347,-0.27288783,0.28856269,-0.9177494,0
-1.0150365,-0.2135753,2.029223,-0.40062937,0.83321792,0.38110894,0
1.4562436,1.6388515,0.073067784,-0.40062937,0.83321792,0.38110894,0
0.46666396,0.17933691,2.0487542,0.27288783,-0.28856269,0.9177494,0
2.7468936,1.2667068,-2.5194442,0.40062937,-0.83321792,-0.38110894,0
-3.7393825,-2.4581285,2.1518188,-0.87465906,-0.4716773,0.11176831,0
-4.1320896,-1.4672146,1.2090716,-0.87465906,-0.4716773,0.11176831,0
-2.3947051,-2.2206082,-0.73364937,0.40062937,-0.83321792,-0.38110894,0
-4.3501906,-1.3026083,-0.38908505,-0.87465906,-0.4716773,0.11176831,0
1.9178109,1.8099104,0.1969707,-0.40062937,0.83321792,0.38110894,0
-0.24639904,-0.5864532,2.1182415,0.27288783,-0.28856269,0.9177494,0
1.6139349,1.7549143,-2.1553602,-0.27288783,0.28856269,-0.9177494,0
0.21787179,-1.1738145,-0.023053512,0.40062937,-0.83321792,-0.38110894,0
-4.7000365,-1.0605398,-1.076472,-0.87465906,-0.4716773,0.11176831,0
4.1531382,1.7299378,-1.8970747,0.87465906,0.4716773,-0.11176831,0
-2.9494152,0.028077461,-0.1837976,-0.40062937,0.83321792,0.38110894,0
-3.1554871,-2.4624722,-0.27513766,0.40062937,-0.83321792,-0.38110894,0
-3.8416345,-1.8579865,0.596452,-0.87465906,-0.4716773,0.11176831,0
4.1727123,1.358211,1.5504761,0.27288783,-0.28856269,0.9177494,0
4.3327074,1.5242726,1.2594438,0.87465906,0.4716773,-0.11176831,0
-3.4474864,-3.2078218,1.1422215,-0.87465906,-0.4716773,0.11176831,0
1.075906,2.4732709,-1.3761529,-0.40062937,0.83321792,0.38110894,0
-1.0906125,0.55342472,-1.6887443,-0.27288783,0.28856269,-0.9177494,0
2.2142313,2.5511982,-0.98086715,-0.40062937,0.83321792,0.38110894,0
3.9425097,2.3673291,-0.22694635,0.87465906,0.4716773,-0.11176831,0
-3.6291246,-2.8256862,0.44716215,-0.87465906,-0.4716773,0.11176831,0
-0.99409556,-1.9215719,0.37892997,0.40062937,-0.83321792,-0.38110894,0
-3.9627421,-2.2523015,-0.88641882,-0.87465906,-0.4716773,0.11176831,0
-1.3814235,1.0037076,-0.85768396,-0.40062937,0.83321792,0.38110894,0
2.2272694,0.47014773,1.5485225,0.27288783,-0.28856269,0.9177494,0
-4.1347027,-0.52050686,-1.0895514,-0.27288783,0.28856269,-0.9177494,0
-0.5439688,0.10850817,-1.8086137,-0.27288783,0.28856269,-0.9177494,0
3.044708,3.2535183,-1.7960355,-0.40062937,0.83321792,0.38110894,0
3.9073038,2.3789291,0.0065011978,0.87465906,0.4716773,-0.11176831,0
-3.9139981,-2.0148544,1.8295507,-0.87465906,-0.4716773,0.11176831,0
3.814435,2.1285536,-0.20335007,0.87465906,0.4716773,-0.11176831,0
-3.8469753,-2.7272944,-0.38038921,-0.87465906,-0.4716773,0.11176831,0
-2.1217668,-2.1047783,2.301347,0.27288783,-0.28856269,0.9177494,0
-0.62512541,1.4668044,-1.6511288,-0.27288783,0.28856269,-0.9177494,0
-0.17192483,-0.79054016,1.9884334,0.27288783,-0.28856269,0.9177494,0
4.5352869,1.310873,-0.081944466,0.87465906,0.4716773,-0.11176831,0
-0.26130092,-0.40001395,2.2788765,0.27288783,-0.28856269,0.9177494,0
-3.6655228,-2.5151014,0.70017266,-0.87465906,-0.4716773,0.11176831,0
1.8459717,-0.98936659,1.1203088,0.40062937,-0.83321792,-0.38110894,0
2.8821955,-0.0067960434,0.21358418,0.40062937,-0.83321792,-0.38110894,0
-2.8764391,-0.76239222,-1.4037219,-0.27288783,0.28856269,-0.9177494,0
-3.3476887,-1.6103826,-1.6055245,-0.27288783,0.28856269,-0.9177494,0
4.0963674,1.7138983,-0.31663728,0.87465906,0.4716773,-0.11176831,0
3.59795,2.3427777,-1.2474773,0.87465906,0.4716773,-0.11176831,0
-0.16856499,-1.1530793,-0.15828335,0.40062937,-0.83321792,-0.38110894,0
1.6380726,-0.50498748,1.5533148,0.27288783,-0.28856269,0.9177494,0
3.4166453,2.7190223,-0.93400717,0.87465906,0.4716773,-0.11176831,0
1.7015291,-0.10541561,1.6027223,0.27288783,-0.28856269,0.9177494,0
-1.6048055,-0.27880257,-1.6977313,-0.27288783,0.28856269,-0.9177494,0
-4.040719,-2.3624382,-0.23294568,-0.87465906,-0.4716773,0.11176831,0
3.4280427,1.2774771,1.4646376,0.27288783,-0.28856269,0.9177494,0
-0.20993733,-1.9349234,1.3112173,0.40062937,-0.83321792,-0.38110894,0
3.6385403,0.5949055,-0.60022688,0.40062937,-0.83321792,-0.38110894,0
-3.1542299,-1.4155651,-1.8652793,-0.27288783,0.28856269,-0.9177494,0
1.4479312,1.124058,-2.0640092,-0.27288783,0.28856269,-0.9177494,0
-3.8032653,-0.62996227,0.04022336,-0.40062937,0.83321792,0.38110894,0
4.4475651,1.2167112,-0.47058058,0.87465906,0.4716773,-0.11176831,0
3.6677117,1.3428835,-1.9241471,0.40062937,-0.83321792,-0.38110894,0
2.7696352,1.2088974,1.8606859,0.27288783,-0.28856269,0.9177494,0
4.111321,1.7045426,-0.13799858,0.87465906,0.4716773,-0.11176831,0
-4.5502014,-1.149928,-0.18282199,-0.87465906,-0.4716773,0.11176831,0
3.5297573,1.0387993,-1.5539129,0.40062937,-0.83321792,-0.38110894,0
4.0824122,2.382906,0.16419625,0.87465906,0.4716773,-0.11176831,0
-1.6513734,-2.2874482,1.7904162,0.27288783,-0.28856269,0.9177494,0
2.7655609,0.28367788,-0.25416756,0.40062937,-0.83321792,-0.38110894,0
-3.5205715,-1.9341556,2.4918828,0.27288783,-0.28856269,0.9177494,0
-0.002363205,0.17808241,-1.993638,-0.27288783,0.28856269,-0.9177494,0
2.9933114,0.13543227,1.1700263,0.27288783,-0.28856269,0.9177494,0
-1.1525271,1.0440726,-1.2444928,-0.40062937,0.83321792,0.38110894,0
4.0057464,1.670696,-1.3256104,0.87465906,0.4716773,-0.11176831,0
-0.29762578,1.5163734,-1.2143066,-0.40062937,0.83321792,0.38110894,0
-0.50485182,-0.27996224,-2.2161484,0.40062937,-0.83321792,-0.38110894,0
2.3676333,-0.44706345,1.5310582,0.27288783,-0.28856269,0.9177494,0
0.1202141,0.82995528,-1.7785393,-0.27288783,0.28856269,-0.9177494,0
3.0257835,3.3343017,-1.6955445,0.87465906,0.4716773,-0.11176831,0
-2.9241228,-0.65997028,-1.5043185,-0.27288783,0.28856269,-0.9177494,0
4.1611094,1.3748171,-0.31070232,0.87465906,0.4716773,-0.11176831,0
4.2890768,1.467937,-0.80845118,0.87465906,0.4716773,-0.11176831,0
-3.2344475,-1.130744,1.8868325,-0.40062937,0.83321792,0.38110894,0
0.14797032,0.071550786,-2.3794131,-0.27288783,0.28856269,-0.9177494,0
-2.875751,-0.70594227,-1.4871497,-0.27288783,0.28856269,-0.9177494,0
0.30635571,1.990782,-1.4768628,-0.27288783,0.28856269,-0.9177494,0
-0.56080317,-0.20361465,2.4745467,0.27288783,-0.28856269,0.9177494,0
-3.6519811,-2.1516168,2.4416904,-0.87465906,-0.4716773,0.11176831,0
-0.34260392,0.51566905,1.5938034,-0.40062937,0.83321792,0.38110894,0
-0.7422033,0.20597643,1.27722,-0.40062937,0.83321792,0.38110894,0
3.598027,2.7579007,-1.8317976,0.87465906,0.4716773,-0.11176831,0
4.4563508,1.0802323,0.34797215,0.87465906,0.4716773,-0.11176831,0
3.3614151,3.0017292,-1.4472411,0.87465906,0.4716773,-0.11176831,0
0.84225428,2.1010077,-1.4637811,-0.40062937,0.83321792,0.38110894,0
3.6063473,2.9929507,0.16390467,0.87465906,0.4716773,-0.11176831,0
-3.5657573,-2.5800431,1.6418462,-0.87465906,-0.4716773,0.11176831,0
1.4093654,-0.47297639,0.024424434,0.40062937,-0.83321792,-0.38110894,0
0.45038027,1.3947697,-1.8769021,-0.27288783,0.28856269,-0.9177494,0
-2.1634605,-1.6326227,2.2011287,0.27288783,-0.28856269,0.9177494,0
3.6161175,2.5667109,-1.6689973,0.87465906,0.4716773,-0.11176831,0
-3.5636582,-2.7483432,0.07057786,-0.87465906,-0.4716773,0.11176831,0
4.006465,2.4069633,1.3588917,0.87465906,0.4716773,-0.11176831,0
-3.8011787,-2.5211987,0.28429079,-0.87465906,-0.4716773,0.11176831,0
4.4953313,1.1770113,0.72999358,0.87465906,0.4716773,-0.11176831,0
3.8885489,2.5015059,0.40480995,0.87465906,0.4716773,-0.11176831,0
-2.8012855,-1.3386986,2.4618776,-0.40062937,0.83321792,0.38110894,0
-3.5985215,-2.5992978,-0.5892601,0.40062937,-0.83321792,-0.38110894,0
-3.8795714,-2.3072062,-1.1342957,-0.87465906,-0.4716773,0.11176831,0
-3.2246377,-3.1418185,0.62047267,-0.87465906,-0.4716773,0.11176831,0
-2.0339963,-2.0785971,2.3026593,0.27288783,-0.28856269,0.9177494,0
-2.7234306,-2.1056528,2.1957564,0.27288783,-0.28856269,0.9177494,0
-0.15784693,-0.30776793,2.0015044,0.27288783,-0.28856269,0.9177494,0
4.0641994,1.9944406,-0.41860867,0.87465906,0.4716773,-0.11176831,0
4.8122625,0.9510687,0.28278327,0.87465906,0.4716773,-0.11176831,0
-0.49880785,-1.8300143,1.667416,0.27288783,-0.28856269,0.9177494,0
3.3148975,2.7948353,-1.2871401,0.87465906,0.4716773,-0.11176831,0
-3.6935217,-1.9506578,1.5802433,-0.87465906,-0.4716773,0.11176831,0
4.1232858,2.0981202,1.0125303,0.87465906,0.4716773,-0.11176831,0
0.995516,-0.0018393397,-1.4822438,0.40062937,-0.83321792,-0.38110894,0
-0.2752099,-0.57561088,-1.7785926,0.40062937,-0.83321792,-0.38110894,0
3.9413867,2.5285294,0.253546,0.87465906,0.4716773,-0.11176831,0
-3.3507557,-2.4117789,-1.1941769,0.40062937,-0.83321792,-0.38110894,0
-2.023344,-0.34602684,-1.4948608,-0.27288783,0.28856269,-0.9177494,0
3.943522,2.531214,1.4587283,0.87465906,0.4716773,-0.11176831,0
-0.89605844,-0.69475847,-1.5437697,0.40062937,-0.83321792,-0.38110894,0
-0.95863593,-0.11366552,2.0651834,-0.40062937,0.83321792,0.38110894,0
-1.2786889,-0.2499944,-1.977972,-0.27288783,0.28856269,-0.9177494,0
2.9273262,1.3926091,1.8724238,0.27288783,-0.28856269,0.9177494,0
3.102814,3.0434825,-1.1962686,-0.40062937,0.83321792,0.38110894,0
4.1360655,1.2024542,-1.0978928,0.87465906,0.4716773,-0.11176831,0
-4.2124171,-1.4946995,1.4407587,-0.87465906,-0.4716773,0.11176831,0
-3.1147456,-2.1089749,-1.3718553,0.40062937,-0.83321792,-0.38110894,0
2.574476,0.2710585,-0.71116424,0.40062937,-0.83321792,-0.38110894,0
3.3997583,0.19821043,0.22377658,0.40062937,-0.83321792,-0.38110894,0
-4.3159933,-1.2296466,-0.47770929,-0.87465906,-0.4716773,0.11176831,0
-0.88597572,-1.3298106,1.8847793,0.27288783,-0.28856269,0.9177494,0
-1.2993597,-0.1450429,-1.7487433,-0.27288783,0.28856269,-0.9177494,0
-0.34702587,-0.56574583,2.024931,0.27288783,-0.28856269,0.9177494,0
3.3497334,2.6748374,-1.3839965,0.87465906,0.4716773,-0.11176831,0
2.2928431,2.6772263,-2.0628569,-0.27288783,0.28856269,-0.9177494,0
-3.8808722,-2.0424452,-0.32743597,-0.87465906,-0.4716773,0.11176831,0
-4.1707911,-2.3102415,-0.34190512,-0.87465906,-0.4716773,0.11176831,0
3.4733121,2.7144823,-1.5634406,0.87465906,0.4716773,-0.11176831,0
-3.7745957,-2.0498748,1.4367249,-0.87465906,-0.4716773,0.11176831,0
2.7503605,1.8120344,1.3170812,-0.40062937,0.83321792,0.38110894,0
-3.7415988,-1.9907436,1.3158522,-0.87465906,-0.4716773,0.11176831,0
0.30854613,-0.49809936,-1.1818306,0.40062937,-0.83321792,-0.38110894,0
-3.6360564,-2.0816076,1.72767,-0.87465906,-0.4716773,0.11176831,0
3.6051965,3.0589848,-0.77349806,0.87465906,0.4716773,-0.11176831,0
-4.0302753,-0.52335131,-1.164331,-0.27288783,0.28856269,-0.9177494,0
3.6501577,2.5937955,-0.27003241,0.87465906,0.4716773,-0.11176831,0
3.8877616,2.6186185,1.1800423,0.87465906,0.4716773,-0.11176831,0
0.74156082,2.3066108,-1.8216616,-0.27288783,0.28856269,-0.9177494,0
-3.4682176,-3.0191994,1.5748153,-0.87465906,-0.4716773,0.11176831,0
-4.4147782,-1.1213955,-0.77960229,-0.87465906,-0.4716773,0.11176831,0
-0.094961107,-0.66523653,-1.0969912,0.40062937,-0.83321792,-0.38110894,0
-4.1220765,-1.9252743,-0.75353026,-0.87465906,-0.4716773,0.11176831,0
2.2448657,0.063144065,-0.10743999,0.40062937,-0.83321792,-0.38110894,0
-2.2664771,-1.6608937,-1.6341805,0.40062937,-0.83321792,-0.38110894,0
-1.5103241,-1.6513603,1.9670036,0.27288783,-0.28856269,0.9177494,0
4.3993349,1.8056133,1.2213194,0.87465906,0.4716773,-0.11176831,0
0.14608622,0.22787338,2.3448012,0.27288783,-0.28856269,0.9177494,0
3.0772362,-0.10890016,1.1853347,0.27288783,-0.28856269,0.9177494,0
2.1764574,3.1761489,-1.9149766,-0.40062937,0.83321792,0.38110894,0
-2.6773787,-1.6640339,-1.9169719,-0.27288783,0.28856269,-0.9177494,0
-3.8706799,-2.3658419,-0.059248447,-0.87465906,-0.4716773,0.11176831,0
0.88670075,-0.56708509,-0.69024348,0.40062937,-0.83321792,-0.38110894,0
3.83757,1.8771768,-1.0599482,0.87465906,0.4716773,-0.11176831,0
-2.8997569,-2.0377629,-1.5345931,0.40062937,-0.83321792,-0.38110894,0
0.64909387,-1.4658945,1.1422497,0.40062937,-0.83321792,-0.38110894,0
3.1314816,1.2583679,-1.8415153,0.40062937,-0.83321792,-0.38110894,0
-1.136276,-1.5833489,0.10095,0.40062937,-0.83321792,-0.38110894,0
2.1573668,-0.79529202,0.99444222,0.40062937,-0.83321792,-0.38110894,0
1.9537172,0.33185002,-1.066985,0.40062937,-0.83321792,-0.38110894,0
0.23131573,1.0348852,-1.9539242,-0.27288783,0.28856269,-0.9177494,0
-4.7928886,-0.91991019,-1.1413081,-0.27288783,0.28856269,-0.9177494,0
1.5211101,0.54672039,-2.4379153,0.40062937,-0.83321792,-0.38110894,0
2.6885519,2.047962,0.93217063,-0.40062937,0.83321792,0.38110894,0
-2.0415487,0.69043911,-1.0864806,-0.40062937,0.83321792,0.38110894,0
-1.7575638,-2.0466561,2.1834636,0.27288783,-0.28856269,0.9177494,0
-1.2630575,-0.52967423,2.1576438,-0.40062937,0.83321792,0.38110894,0
-2.9645436,-1.8851759,2.5001743,0.27288783,-0.28856269,0.9177494,0
-4.5996485,-0.67452532,-0.81998634,-0.27288783,0.28856269,-0.9177494,0
-4.3514285,-2.0220766,-0.8799355,-0.87465906,-0.4716773,0.11176831,0
-3.665787,-2.3974798,-0.15992522,-0.87465906,-0.4716773,0.11176831,0
3.9711473,2.621372,0.83191943,0.87465906,0.4716773,-0.11176831,0
3.6314995,2.5676355,0.04459691,0.87465906,0.4716773,-0.11176831,0
-1.3025399,-2.4018326,1.7287226,0.40062937,-0.83321792,-0.38110894,0
0.916017,0.58531094,-2.3155446,-0.27288783,0.28856269,-0.9177494,0
3.7305439,2.8514862,-0.71334028,0.87465906,0.4716773,-0.11176831,0
-4.3333869,-1.2045213,-0.059136391,-0.87465906,-0.4716773,0.11176831,0
-0.9938733,-2.2874925,1.8510629,0.27288783,-0.28856269,0.9177494,0
-3.9332871,-0.32113495,-1.1986468,-0.27288783,0.28856269,-0.9177494,0
4.3168349,1.5791609,-1.1753912,0.87465906,0.4716773,-0.11176831,0
3.2312303,2.6339154,-2.2490323,0.87465906,0.4716773,-0.11176831,0
2.1402302,0.65727806,-1.4891977,0.40062937,-0.83321792,-0.38110894,0
3.8252087,1.2955101,1.5769513,0.27288783,-0.28856269,0.9177494,0
1.2242507,-1.1435773,0.78426063,0.40062937,-0.83321792,-0.38110894,0
4.4952316,1.612554,-0.063378811,0.87465906,0.4716773,-0.11176831,0
4.1296568,0.80208117,0.47483873,0.40062937,-0.83321792,-0.38110894,0
-3.2429397,-1.7952486,-1.9207076,-0.27288783,0.28856269,-0.9177494,0
-4.308784,-1.8952461,-1.0259316,-0.87465906,-0.4716773,0.11176831,0
4.0690341,1.8386948,-0.30281639,0.87465906,0.4716773,-0.11176831,0
3.9170322,1.8253272,-0.55092096,0.87465906,0.4716773,-0.11176831,0
-4.3191051,-1.6528089,0.37309647,-0.87465906,-0.4716773,0.11176831,0
-2.7557189,-2.382901,-0.23858619,0.40062937,-0.83321792,-0.38110894,0
4.3023291,1.1748754,0.14921141,0.87465906,0.4716773,-0.11176831,0
3.9110312,2.1351709,0.32664204,0.87465906,0.4716773,-0.11176831,0
1.6822805,1.1737885,1.3845189,-0.40062937,0.83321792,0.38110894,0
-0.42364329,-1.3531439,1.8546535,0.27288783,-0.28856269,0.9177494,0
-0.41253209,1.0283542,-1.9248315,-0.27288783,0.28856269,-0.9177494,0
-1.3190541,-2.2954648,1.6602492,0.27288783,-0.28856269,0.9177494,0
1.6994672,0.013860226,-1.1226882,0.40062937,-0.83321792,-0.38110894,0
-3.0395179,-1.9471214,2.579252,0.27288783,-0.28856269,0.9177494,0
3.9204888,2.3280859,-1.4288096,0.87465906,0.4716773,-0.11176831,0
-1.1491756,-0.42764345,2.2550979,0.27288783,-0.28856269,0.9177494,0
-3.0689082,-3.1254015,1.6647432,-0.87465906,-0.4716773,0.11176831,0
-4.52282,-1.61745,-1.2122977,-0.87465906,-0.4716773,0.11176831,0
3.6577961,2.7207527,-1.7328329,0.87465906,0.4716773,-0.11176831,0
1.8071011,0.99101269,1.9632808,0.27288783,-0.28856269,0.9177494,0
-4.6769524,-1.2118348,-0.1541338,-0.87465906,-0.4716773,0.11176831,0
-2.7444324,-0.726044,1.5558112,-0.40062937,0.83321792,0.38110894,0
-4.4201822,-1.3736774,0.40199184,-0.87465906,-0.4716773,0.11176831,0
-2.3926215,-1.7712748,2.2866063,0.27288783,-0.28856269,0.9177494,0
-2.3065975,0.38390845,-1.2553375,-0.27288783,0.28856269,-0.9177494,0
0.04604125,-0.0048416257,2.2510884,0.27288783,-0.28856269,0.9177494,0
-1.9142512,0.0097953677,-1.6626401,-0.27288783,0.28856269,-0.9177494,0
-2.4932556,-1.5563563,-2.1047657,-0.27288783,0.28856269,-0.9177494,0
-3.9493957,-0.42640823,-0.58389187,-0.40062937,0.83321792,0.38110894,0
-0.38047886,0.066090345,2.1234865,0.27288783,-0.28856269,0.9177494,0
3.8114605,2.7646627,-0.040548801,0.87465906,0.4716773,-0.11176831,0
-2.6288886,-0.088636279,-1.4503331,-0.27288783,0.28856269,-0.9177494,0
3.2546394,3.0187447,-0.61577535,-0.40062937,0.83321792,0.38110894,0
0.2300263,1.7863051,-0.76326561,-0.40062937,0.83321792,0.38110894,0
3.3441606,2.9344673,-1.4835079,0.87465906,0.4716773,-0.11176831,0
4.411643,1.3573552,-0.71585655,0.87465906,0.4716773,-0.11176831,0
3.1697721,1.6743846,-2.4722185,-0.27288783,0.28856269,-0.9177494,0
3.8326621,2.6486237,-0.77163076,0.87465906,0.4716773,-0.11176831,0
4.4013643,1.1621331,0.78874421,0.87465906,0.4716773,-0.11176831,0
3.9522254,1.8317049,-2.3288264,0.87465906,0.4716773,-0.11176831,0
