1.4789177,1.3599796,0.55773151,0.53088772,0.83649737,-0.13575888,0
2.8144369,0.79816586,1.5638971,0.53088772,0.83649737,-0.13575888,0
1.5852823,-3.1980107,0.60965741,0.79809076,-0.43964329,0.41202539,0
1.3656809,-1.8585031,2.2990496,0.79809076,-0.43964329,0.41202539,0
0.92530966,-2.6762476,0.51594609,-0.53088772,-0.83649737,0.13575888,0
2.1340969,-2.3808556,0.88080287,0.79809076,-0.43964329,0.41202539,0
2.7174754,0.46102047,-0.48271298,0.28497273,-0.32708716,-0.90100205,0
-0.91831934,-1.5013502,0.6189518,-0.53088772,-0.83649737,0.13575888,0
-3.0179346,-0.50922525,-0.43319392,-0.53088772,-0.83649737,0.13575888,0
-2.386878,1.1700395,-0.12302542,-0.28497273,0.32708716,0.90100205,0
-2.5140882,0.3876645,-1.9144937,-0.79809076,0.43964329,-0.41202539,0
-0.80690336,-1.4177775,1.3499931,-0.28497273,0.32708716,0.90100205,0
-0.68900114,-0.29662967,0.88011432,-0.28497273,0.32708716,0.90100205,0
-0.13567281,-2.2051489,1.5186274,-0.53088772,-0.83649737,0.13575888,0
-0.67732286,2.405237,0.0030008554,-0.28497273,0.32708716,0.90100205,0
0.61655527,0.048689723,-0.72458595,0.28497273,-0.32708716,-0.90100205,0
1.3195137,-0.32626218,1.5805005,-0.28497273,0.32708716,0.90100205,0
-3.0141997,-0.48637629,-0.74483848,-0.53088772,-0.83649737,0.13575888,0
2.1025782,-0.69257879,2.1381874,-0.28497273,0.32708716,0.90100205,0
-1.8404281,2.170552,-1.6801308,-0.79809076,0.43964329,-0.41202539,0
-2.8247075,0.51104891,-1.1248388,-0.79809076,0.43964329,-0.41202539,0
-2.5443707,-0.74687123,-1.6333797,0.28497273,-0.32708716,-0.90100205,0
-2.7022882,-0.79167247,-0.017692327,-0.53088772,-0.83649737,0.13575888,0
2.9077077,-0.45760572,1.2753232,0.79809076,-0.43964329,0.41202539,0
0.71661448,-2.854831,0.68233758,-0.53088772,-0.83649737,0.13575888,0
-1.5339336,1.5130515,-2.2236912,-0.79809076,0.43964329,-0.41202539,0
2.5394135,-1.316249,0.049927473,0.28497273,-0.32708716,-0.90100205,0
0.5636667,0.24842292,1.3383842,-0.28497273,0.32708716,0.90100205,0
1.6881967,-2.0289266,1.5115273,0.79809076,-0.43964329,0.41202539,0
-2.1148038,1.3658011,-2.0783815,-0.79809076,0.43964329,-0.41202539,0
-1.5126698,-1.1462317,0.78105867,-0.53088772,-0.83649737,0.13575888,0
3.1184378,0.61327636,0.058990002,0.53088772,0.83649737,-0.13575888,0
-1.0930953,3.0972164,-0.84011215,0.53088772,0.83649737,-0.13575888,0
-3.4892869,-0.47253442,-0.92360497,-0.53088772,-0.83649737,0.13575888,0
1.7639922,1.2000496,0.87923741,0.53088772,0.83649737,-0.13575888,0
-2.013638,1.2229662,-2.0161572,-0.79809076,0.43964329,-0.41202539,0
-0.54023814,-1.2319906,-0.995242,0.28497273,-0.32708716,-0.90100205,0
2.783761,-1.1422098,0.47166872,0.79809076,-0.43964329,0.41202539,0
0.67218554,-2.3649755,2.0699058,-0.28497273,0.32708716,0.90100205,0
-2.3547025,0.36252868,0.16293168,-0.28497273,0.32708716,0.90100205,0
2.7448912,0.66894102,0.18176627,0.53088772,0.83649737,-0.13575888,0
-2.1382895,2.6187398,-0.76011169,-0.79809076,0.43964329,-0.41202539,0
-0.37150693,0.81924325,0.48813048,-0.28497273,0.32708716,0.90100205,0
2.2646286,-2.4276576,0.51988363,0.79809076,-0.43964329,0.41202539,0
0.76066852,1.8564887,-0.8550418,0.53088772,0.83649737,-0.13575888,0
-1.5103487,2.4082592,-2.1630697,-0.79809076,0.43964329,-0.41202539,0
-1.6355456,0.23394871,0.62193155,-0.28497273,0.32708716,0.90100205,0
1.8237219,-0.78629017,-0.20357215,0.28497273,-0.32708716,-0.90100205,0
-1.1205773,-1.8352518,-0.30928785,-0.53088772,-0.83649737,0.13575888,0
-0.30914354,-2.0830271,1.7962251,-0.53088772,-0.83649737,0.13575888,0
3.0684543,0.2516346,1.1287427,0.79809076,-0.43964329,0.41202539,0
2.6013875,-1.7499267,0.83216929,0.79809076,-0.43964329,0.41202539,0
0.20457959,2.2214806,0.2551738,-0.28497273,0.32708716,0.90100205,0
0.036282301,-0.21261001,-0.89823329,0.28497273,-0.32708716,-0.90100205,0
-1.4966909,-1.4369819,-0.33736396,-0.53088772,-0.83649737,0.13575888,0
-2.446435,1.0034292,-1.622074,-0.79809076,0.43964329,-0.41202539,0
0.8065964,-2.7152815,1.8437182,-0.53088772,-0.83649737,0.13575888,0
1.8337193,1.4617101,1.2170174,-0.28497273,0.32708716,0.90100205,0
2.0258846,-0.55468541,2.1718481,-0.28497273,0.32708716,0.90100205,0
2.9124677,0.85892409,0.53886652,0.53088772,0.83649737,-0.13575888,0
1.9402717,-1.8482627,0.11638916,0.28497273,-0.32708716,-0.90100205,0
-2.6286178,0.73768258,-0.97417665,-0.79809076,0.43964329,-0.41202539,0
2.8823462,0.68129104,1.9324946,-0.28497273,0.32708716,0.90100205,0
0.62730384,-2.8024149,0.25420868,-0.53088772,-0.83649737,0.13575888,0
-1.1998284,-1.8576748,-0.86450791,-0.53088772,-0.83649737,0.13575888,0
-2.9194427,-0.46805388,-1.0062494,-0.53088772,-0.83649737,0.13575888,0
0.58387625,1.6544194,-1.6148882,0.53088772,0.83649737,-0.13575888,0
0.16753268,-2.2900023,1.6737705,-0.53088772,-0.83649737,0.13575888,0
1.0386875,-2.9960394,0.26843035,0.28497273,-0.32708716,-0.90100205,0
-1.666926,1.0033984,-1.8173313,0.28497273,-0.32708716,-0.90100205,0
2.2324383,0.085216999,-0.2972846,0.28497273,-0.32708716,-0.90100205,0
1.7633774,-0.49840856,2.0016346,-0.28497273,0.32708716,0.90100205,0
0.91745734,-2.3043432,0.039895058,0.28497273,-0.32708716,-0.90100205,0
-2.935462,-0.73102653,-0.37071609,-0.53088772,-0.83649737,0.13575888,0
-3.1417279,0.87835932,-0.55342126,-0.79809076,0.43964329,-0.41202539,0
-1.7656238,2.4225519,-1.2132033,-0.79809076,0.43964329,-0.41202539,0
-3.4587903,0.68548512,-0.14095092,-0.28497273,0.32708716,0.90100205,0
1.2388208,-2.7812009,1.4187189,-0.53088772,-0.83649737,0.13575888,0
-2.1056235,1.6418037,-1.892327,-0.79809076,0.43964329,-0.41202539,0
3.3358741,-0.24762702,0.59234285,0.79809076,-0.43964329,0.41202539,0
2.5846729,-1.1073003,0.90600204,0.79809076,-0.43964329,0.41202539,0
-0.71667361,2.1721365,-2.2462759,0.28497273,-0.32708716,-0.90100205,0
2.6238556,0.95371991,1.4552,0.53088772,0.83649737,-0.13575888,0
-2.2709177,0.6920166,-1.7339045,-0.79809076,0.43964329,-0.41202539,0
-1.6433804,2.6581047,-0.32495224,-0.28497273,0.32708716,0.90100205,0
-2.8897903,-0.15220201,-1.3785243,-0.79809076,0.43964329,-0.41202539,0
-1.1731467,3.1745734,-0.46476698,0.53088772,0.83649737,-0.13575888,0
-3.2486432,-0.50520277,-1.815675,-0.79809076,0.43964329,-0.41202539,0
2.3459215,0.94328851,0.69579577,0.53088772,0.83649737,-0.13575888,0
2.5794029,0.75049758,1.5776528,-0.28497273,0.32708716,0.90100205,0
-0.43665516,2.2935967,-1.8101423,0.53088772,0.83649737,-0.13575888,0
2.6364152,0.61678851,-0.010025263,0.53088772,0.83649737,-0.13575888,0
-0.084819794,2.2363133,-1.3489454,0.53088772,0.83649737,-0.13575888,0
-0.87178469,1.6000097,-2.1278067,0.28497273,-0.32708716,-0.90100205,0
-1.7858638,-1.0594784,0.14672554,-0.53088772,-0.83649737,0.13575888,0
2.5754671,0.74051481,1.5586051,-0.28497273,0.32708716,0.90100205,0
0.73860407,2.0738609,-0.039958268,0.53088772,0.83649737,-0.13575888,0
-1.8695216,-1.3001494,-0.19245076,-0.53088772,-0.83649737,0.13575888,0
0.83253479,-1.4942237,2.0365205,-0.28497273,0.32708716,0.90100205,0
-1.895391,1.5568126,-0.094315767,-0.28497273,0.32708716,0.90100205,0
0.49188328,1.8757653,-1.6734685,0.28497273,-0.32708716,-0.90100205,0
-1.8323922,-0.59698319,0.92336154,-0.28497273,0.32708716,0.90100205,0
2.0485439,-0.8330977,2.0849149,0.79809076,-0.43964329,0.41202539,0
2.5840607,-1.5878903,0.24371481,0.79809076,-0.43964329,0.41202539,0
0.1750989,-1.5150118,-0.71575308,0.28497273,-0.32708716,-0.90100205,0
-2.5782695,-0.90478528,0.19942904,-0.53088772,-0.83649737,0.13575888,0
-0.042029738,-1.9564431,1.7681952,-0.53088772,-0.83649737,0.13575888,0
0.64342725,1.6076336,-1.5766714,0.53088772,0.83649737,-0.13575888,0
-3.283026,-0.62485039,-1.0020475,-0.53088772,-0.83649737,0.13575888,0
1.8355396,-0.76478028,-0.3704412,0.28497273,-0.32708716,-0.90100205,0
1.9766502,-0.53465235,2.0396357,-0.28497273,0.32708716,0.90100205,0
0.29305482,2.215517,0.16082226,0.53088772,0.83649737,-0.13575888,0
3.3363431,-0.037250161,0.81131744,0.79809076,-0.43964329,0.41202539,0
-1.6731718,-0.12342715,-1.6128565,0.28497273,-0.32708716,-0.90100205,0
1.3007253,-1.1604562,-0.09935689,0.28497273,-0.32708716,-0.90100205,0
3.0173953,0.36262727,-0.17441773,0.53088772,0.83649737,-0.13575888,0
-1.1276908,-0.21036002,-1.2555768,0.28497273,-0.32708716,-0.90100205,0
2.3548212,-1.6804342,0.96150506,0.79809076,-0.43964329,0.41202539,0
-1.3728038,0.82853639,0.24425745,-0.28497273,0.32708716,0.90100205,0
-0.21729088,2.5436814,0.33484825,-0.28497273,0.32708716,0.90100205,0
0.0077929497,2.0642738,-1.2264576,0.53088772,0.83649737,-0.13575888,0
2.4896903,1.0548604,0.51338434,0.53088772,0.83649737,-0.13575888,0
-0.29128051,-0.75636923,1.3944814,-0.28497273,0.32708716,0.90100205,0
-2.1192846,2.0270727,-1.2824036,-0.79809076,0.43964329,-0.41202539,0
-0.31495029,1.4722805,-1.7588153,0.28497273,-0.32708716,-0.90100205,0
-1.9002577,1.508563,-2.085963,-0.79809076,0.43964329,-0.41202539,0
2.3150246,1.330822,1.36409,0.53088772,0.83649737,-0.13575888,0
3.2680247,0.28930819,1.3332582,0.79809076,-0.43964329,0.41202539,0
1.1084952,-2.726912,0.86896271,-0.53088772,-0.83649737,0.13575888,0
3.3355408,0.10928082,0.64761448,0.79809076,-0.43964329,0.41202539,0
0.61695379,0.51189542,1.1392578,-0.28497273,0.32708716,0.90100205,0
0.39953756,-2.7837539,0.44769853,-0.53088772,-0.83649737,0.13575888,0
-3.3717577,-0.26561737,0.057403326,-0.28497273,0.32708716,0.90100205,0
-2.4618311,-0.72373939,0.048426867,-0.53088772,-0.83649737,0.13575888,0
2.1595118,-1.3194385,1.9172665,0.79809076,-0.43964329,0.41202539,0
-0.81357753,2.7072892,-1.9376742,0.53088772,0.83649737,-0.13575888,0
1.6668065,-1.8569043,1.6859636,0.79809076,-0.43964329,0.41202539,0
-0.93803895,1.7351208,-2.2383201,0.28497273,-0.32708716,-0.90100205,0
-1.2972898,2.8703895,-1.1694958,0.53088772,0.83649737,-0.13575888,0
3.0311556,-1.3967409,0.37493253,0.79809076,-0.43964329,0.41202539,0
2.465055,1.0682883,0.18327022,0.53088772,0.83649737,-0.13575888,0
-3.2270253,-0.74758446,-1.5340903,-0.53088772,-0.83649737,0.13575888,0
-2.1477435,1.10533,-1.7091417,-0.79809076,0.43964329,-0.41202539,0
-1.3065296,2.6842332,-0.44983649,-0.28497273,0.32708716,0.90100205,0
-3.5462565,0.46734715,-0.36878085,-0.79809076,0.43964329,-0.41202539,0
-1.08601,-1.6746236,1.139509,-0.53088772,-0.83649737,0.13575888,0
-2.2249341,-0.98557436,-1.0388983,-0.53088772,-0.83649737,0.13575888,0
-1.4458995,-1.5202435,-0.024735808,-0.53088772,-0.83649737,0.13575888,0
3.1212006,-0.98635173,0.51018381,0.79809076,-0.43964329,0.41202539,0
2.2551692,1.1847318,0.76640701,0.53088772,0.83649737,-0.13575888,0
-1.2232344,2.7906075,-1.1832001,0.53088772,0.83649737,-0.13575888,0
-0.93524182,2.8235378,-1.2005563,0.53088772,0.83649737,-0.13575888,0
-0.66276968,0.56263995,-1.7387967,0.28497273,-0.32708716,-0.90100205,0
-3.1427381,-0.4791944,-0.50674415,-0.53088772,-0.83649737,0.13575888,0
-2.9600854,0.18677652,-0.93264747,-0.79809076,0.43964329,-0.41202539,0
-0.70037448,0.88643527,0.6285795,-0.28497273,0.32708716,0.90100205,0
-2.8407211,1.296344,-0.23099828,-0.79809076,0.43964329,-0.41202539,0
2.4918828,-0.33043838,1.6632383,0.79809076,-0.43964329,0.41202539,0
-1.1351755,0.81860173,0.66129303,-0.28497273,0.32708716,0.90100205,0
2.4943318,-1.1725827,0.12785077,0.28497273,-0.32708716,-0.90100205,0
-0.53077221,-1.8409104,0.66872573,-0.53088772,-0.83649737,0.13575888,0
1.8669163,-2.1941545,1.4065248,0.79809076,-0.43964329,0.41202539,0
2.6828334,-0.89427185,0.0044255257,0.28497273,-0.32708716,-0.90100205,0
-0.56128705,-0.82400233,-1.1876643,0.28497273,-0.32708716,-0.90100205,0
-2.0118594,1.6429248,-1.8650476,-0.79809076,0.43964329,-0.41202539,0
1.4804271,-0.14714301,-0.61316454,0.28497273,-0.32708716,-0.90100205,0
1.9212781,-0.78404576,2.0010278,-0.28497273,0.32708716,0.90100205,0
0.76161289,0.64141369,-1.2934296,0.28497273,-0.32708716,-0.90100205,0
2.3406906,-2.2999878,0.59712124,0.79809076,-0.43964329,0.41202539,0
-0.54407001,2.7437735,-0.26453209,0.53088772,0.83649737,-0.13575888,0
2.8030546,0.74027729,0.3235085,0.53088772,0.83649737,-0.13575888,0
-1.8361735,1.5925974,-2.1266217,-0.79809076,0.43964329,-0.41202539,0
1.6292278,1.455659,-0.41799212,0.53088772,0.83649737,-0.13575888,0
-1.0996115,1.9920527,0.07843864,-0.28497273,0.32708716,0.90100205,0
-1.8815831,-1.2026731,-1.2189802,0.28497273,-0.32708716,-0.90100205,0
-1.5499133,2.9959114,-0.86966217,-0.79809076,0.43964329,-0.41202539,0
-0.83115709,2.4247313,-1.9470422,0.53088772,0.83649737,-0.13575888,0
3.4151046,0.13656366,1.2820349,0.79809076,-0.43964329,0.41202539,0
2.3939075,-1.0750327,1.6557471,0.79809076,-0.43964329,0.41202539,0
1.6212919,1.1243652,-0.083408713,0.53088772,0.83649737,-0.13575888,0
-1.6510003,0.98443013,-1.7691422,0.28497273,-0.32708716,-0.90100205,0
-3.3907945,-0.29987252,-0.81268549,-0.79809076,0.43964329,-0.41202539,0
2.4436743,0.048538685,-0.56270385,0.28497273,-0.32708716,-0.90100205,0
-1.9973633,1.663897,-1.1722382,-0.79809076,0.43964329,-0.41202539,0
-0.51889306,-0.12506688,0.9403525,-0.28497273,0.32708716,0.90100205,0
3.3154404,-0.33497071,0.65295529,0.79809076,-0.43964329,0.41202539,0
2.83602,-0.95598018,0.76042867,0.79809076,-0.43964329,0.41202539,0
1.4571629,1.4094703,0.41726744,0.53088772,0.83649737,-0.13575888,0
1.5006349,-1.3274294,1.9876896,-0.28497273,0.32708716,0.90100205,0
-0.13374865,0.96538955,0.65470314,-0.28497273,0.32708716,0.90100205,0
-2.6188931,-0.61053038,0.52840066,-0.28497273,0.32708716,0.90100205,0
0.67247963,-0.035695791,-0.9464165,0.28497273,-0.32708716,-0.90100205,0
-0.42565799,-2.2277205,0.39120209,-0.53088772,-0.83649737,0.13575888,0
3.2504599,0.18921167,1.6186328,0.79809076,-0.43964329,0.41202539,0
-0.66849351,1.6363277,0.16433698,-0.28497273,0.32708716,0.90100205,0
1.4455242,-0.92182314,2.0901532,-0.28497273,0.32708716,0.90100205,0
1.3777612,0.69575274,1.0988004,-0.28497273,0.32708716,0.90100205,0
-3.760952,-0.16909981,-0.21279788,-0.53088772,-0.83649737,0.13575888,0
-0.96238804,-1.7957242,0.25724906,-0.53088772,-0.83649737,0.13575888,0
3.6943433,-0.14267254,0.20317411,0.79809076,-0.43964329,0.41202539,0
-2.4319034,1.5361059,-0.99725389,-0.79809076,0.43964329,-0.41202539,0
2.079473,-2.0001616,1.1744572,0.79809076,-0.43964329,0.41202539,0
-2.1497309,1.214251,-1.5552621,-0.79809076,0.43964329,-0.41202539,0
-2.2387352,-0.84103417,-0.61723697,-0.53088772,-0.83649737,0.13575888,0
-3.2486115,0.37722802,-0.32350373,-0.79809076,0.43964329,-0.41202539,0
-2.4717264,-0.94261754,-0.085877657,-0.53088772,-0.83649737,0.13575888,0
0.19601369,2.1330612,-0.013719184,0.53088772,0.83649737,-0.13575888,0
-3.4502144,0.16265297,-0.38851619,-0.79809076,0.43964329,-0.41202539,0
-2.6409097,1.4357065,-0.68741202,-0.79809076,0.43964329,-0.41202539,0
0.099761486,2.3539598,-0.55718797,0.53088772,0.83649737,-0.13575888,0
-2.0430901,2.2666388,-0.94987035,-0.79809076,0.43964329,-0.41202539,0
0.81582534,1.2833037,0.70578456,-0.28497273,0.32708716,0.90100205,0
-0.38283026,1.5176646,0.50764215,-0.28497273,0.32708716,0.90100205,0
-2.1125951,2.5461032,-0.38596666,-0.79809076,0.43964329,-0.41202539,0
1.7450954,-0.6599313,1.8112335,-0.28497273,0.32708716,0.90100205,0
-2.8185806,-0.59449017,-1.3963816,-0.53088772,-0.83649737,0.13575888,0
-1.6870863,-0.90729839,-1.1884675,0.28497273,-0.32708716,-0.90100205,0
-1.8092304,2.0162826,-1.297496,-0.79809076,0.43964329,-0.41202539,0
-2.3145101,2.378309,-0.45170164,-0.79809076,0.43964329,-0.41202539,0
1.9586971,-2.3440936,0.94038701,0.79809076,-0.43964329,0.41202539,0
-0.5515399,1.9439524,-1.812734,0.28497273,-0.32708716,-0.90100205,0
-2.7270179,1.5556235,-0.53662252,-0.79809076,0.43964329,-0.41202539,0
1.2618101,1.0162221,-1.250596,0.28497273,-0.32708716,-0.90100205,0
3.0812571,-0.12021351,1.3515444,0.79809076,-0.43964329,0.41202539,0
-1.5990993,-1.3416772,0.70376813,-0.53088772,-0.83649737,0.13575888,0
2.3842463,-1.6251373,0.48736048,0.79809076,-0.43964329,0.41202539,0
-0.33373523,-2.0684652,-0.24327582,0.28497273,-0.32708716,-0.90100205,0
-1.0715666,1.9340725,0.28505832,-0.28497273,0.32708716,0.90100205,0
-2.0123806,-1.2964566,-0.27046871,-0.53088772,-0.83649737,0.13575888,0
1.1601629,-2.9615726,2.1188533,-0.53088772,-0.83649737,0.13575888,0
-0.90085292,-1.2973375,1.4182811,-0.28497273,0.32708716,0.90100205,0
2.2060397,-2.036341,1.0562152,0.79809076,-0.43964329,0.41202539,0
3.367173,-0.18525028,0.076364517,0.79809076,-0.43964329,0.41202539,0
-0.17813993,-2.1729198,-0.14475781,-0.53088772,-0.83649737,0.13575888,0
2.7629714,0.15176204,1.7112782,-0.28497273,0.32708716,0.90100205,0
0.23959318,-0.92207968,1.5700533,-0.28497273,0.32708716,0.90100205,0
-0.85667074,-1.8570083,1.3101087,-0.53088772,-0.83649737,0.13575888,0
-3.2296085,-0.55323958,-1.7866256,-0.79809076,0.43964329,-0.41202539,0
-1.988759,0.45225525,0.12729418,-0.28497273,0.32708716,0.90100205,0
2.1413291,-2.828196,0.55188084,0.79809076,-0.43964329,0.41202539,0
-2.9416096,0.59589601,-1.3802581,-0.79809076,0.43964329,-0.41202539,0
-2.8188159,-0.90110749,-0.37648964,-0.53088772,-0.83649737,0.13575888,0
1.3506186,0.814448,-1.0997748,0.28497273,-0.32708716,-0.90100205,0
-1.7346748,1.1053228,-2.1660686,0.28497273,-0.32708716,-0.90100205,0
2.0162911,-2.5876188,0.7145102,0.79809076,-0.43964329,0.41202539,0
0.2883358,1.9796212,-1.0245647,0.53088772,0.83649737,-0.13575888,0
2.2487435,-2.1955328,0.44045496,0.79809076,-0.43964329,0.41202539,0
0.5482502,1.7728792,-0.21794279,0.53088772,0.83649737,-0.13575888,0
1.232444,1.032763,1.1733923,-0.28497273,0.32708716,0.90100205,0
-0.13372874,2.551693,-0.82862747,0.53088772,0.83649737,-0.13575888,0
2.6745567,0.62221217,0.98919189,0.53088772,0.83649737,-0.13575888,0
2.0421357,-2.2737961,0.81888711,0.79809076,-0.43964329,0.41202539,0
2.412976,1.2378652,1.6131394,0.53088772,0.83649737,-0.13575888,0
-1.1703684,1.8188109,0.023002028,-0.28497273,0.32708716,0.90100205,0
-3.3062291,0.096040487,-0.16629815,-0.28497273,0.32708716,0.90100205,0
3.2300792,0.25756407,0.65875626,0.53088772,0.83649737,-0.13575888,0
2.0494356,0.4024725,-0.62873971,0.28497273,-0.32708716,-0.90100205,0
-0.86736709,1.4665749,0.25294912,-0.28497273,0.32708716,0.90100205,0
-1.5275935,2.7452691,-1.6361263,-0.79809076,0.43964329,-0.41202539,0
-2.9285293,0.18042874,0.060027599,-0.28497273,0.32708716,0.90100205,0
-2.6152289,0.85383904,-1.5347224,-0.79809076,0.43964329,-0.41202539,0
0.59634471,2.1029906,-0.64881688,0.53088772,0.83649737,-0.13575888,0
-2.0620899,-1.2565117,-0.51155818,-0.53088772,-0.83649737,0.13575888,0
1.1737072,-3.0518661,0.88535732,-0.53088772,-0.83649737,0.13575888,0
-1.7024709,3.1563861,-0.38652182,-0.28497273,0.32708716,0.90100205,0
0.051649332,2.068423,-1.0510004,0.53088772,0.83649737,-0.13575888,0
-1.8013346,-1.1411724,0.26094711,-0.53088772,-0.83649737,0.13575888,0
-1.9074091,-1.3209976,-0.79321027,-0.53088772,-0.83649737,0.13575888,0
-2.3462367,1.2780473,-1.8317049,-0.79809076,0.43964329,-0.41202539,0
-2.6034954,-1.055181,-1.7624506,-0.53088772,-0.83649737,0.13575888,0
2.1686196,1.2015548,1.049505,0.53088772,0.83649737,-0.13575888,0
-3.1470077,-0.6638484,-1.3675816,-0.53088772,-0.83649737,0.13575888,0
0.0064065456,2.1681468,-0.93460077,0.53088772,0.83649737,-0.13575888,0
-0.21151519,2.3854809,-0.79634577,0.53088772,0.83649737,-0.13575888,0
-1.8456835,-1.2797644,0.15530455,-0.53088772,-0.83649737,0.13575888,0
-1.6111109,2.7901089,-1.4098221,-0.79809076,0.43964329,-0.41202539,0
-2.2800448,-0.15371612,-1.7254113,0.28497273,-0.32708716,-0.90100205,0
-2.5294547,0.5486545,-1.5374646,-0.79809076,0.43964329,-0.41202539,0
-0.11366153,2.2667079,-1.9837346,0.28497273,-0.32708716,-0.90100205,0
2.9286478,0.1916703,1.3966534,0.79809076,-0.43964329,0.41202539,0
1.8734398,-1.6320426,2.0786214,0.79809076,-0.43964329,0.41202539,0
-1.0160025,-1.5061092,0.11259955,-0.53088772,-0.83649737,0.13575888,0
-0.30921602,-2.0785329,-0.42314863,-0.53088772,-0.83649737,0.13575888,0
1.6362157,-2.5397751,0.11597741,0.28497273,-0.32708716,-0.90100205,0
1.1881828,1.7870231,-0.1304484,0.53088772,0.83649737,-0.13575888,0
-2.3403916,0.99155796,-1.9520326,-0.79809076,0.43964329,-0.41202539,0
0.62690294,-2.4571419,1.9993286,-0.53088772,-0.83649737,0.13575888,0
1.0999956,-0.75425285,1.6680845,-0.28497273,0.32708716,0.90100205,0
-2.3447063,1.0365278,-1.4971385,-0.79809076,0.43964329,-0.41202539,0
2.1371531,-1.1204572,1.8856606,0.79809076,-0.43964329,0.41202539,0
1.0995461,-2.1882889,2.3839216,-0.28497273,0.32708716,0.90100205,0
-1.7392567,-1.0067079,0.32404876,-0.53088772,-0.83649737,0.13575888,0
-3.2605994,-0.44046569,-0.055702686,-0.53088772,-0.83649737,0.13575888,0
-1.9937017,-1.0884328,-0.70310771,-0.53088772,-0.83649737,0.13575888,0
-2.6679103,0.97018433,-0.65262794,-0.79809076,0.43964329,-0.41202539,0
2.4532821,1.074886,1.0793331,0.53088772,0.83649737,-0.13575888,0
-2.1498718,1.8919246,-0.67747056,-0.79809076,0.43964329,-0.41202539,0
2.5380814,-0.23107013,2.2140083,-0.28497273,0.32708716,0.90100205,0
1.6190964,1.3251411,-0.14269292,0.53088772,0.83649737,-0.13575888,0
1.0342857,-0.99086475,-0.41281778,0.28497273,-0.32708716,-0.90100205,0
1.4174455,-2.1696897,2.0767622,0.79809076,-0.43964329,0.41202539,0
1.9195926,1.0551074,-0.50018966,0.53088772,0.83649737,-0.13575888,0
2.8952255,-0.17775834,1.301883,0.79809076,-0.43964329,0.41202539,0
-1.104858,2.742094,-2.1511436,-0.79809076,0.43964329,-0.41202539,0
-3.5190356,0.081365347,-0.29531431,-0.79809076,0.43964329,-0.41202539,0
-1.6692605,2.4658039,-1.2740635,-0.79809076,0.43964329,-0.41202539,0
1.4137723,-2.4906669,1.5410091,0.79809076,-0.43964329,0.41202539,0
0.48506284,1.9768929,-1.4868646,0.53088772,0.83649737,-0.13575888,0
-0.28599286,2.3368206,-1.8109374,0.53088772,0.83649737,-0.13575888,0
-3.2783017,-0.15811849,-1.3968687,-0.79809076,0.43964329,-0.41202539,0
-0.79206437,1.2181858,0.51698476,-0.28497273,0.32708716,0.90100205,0
0.41123056,0.14860904,1.2377787,-0.28497273,0.32708716,0.90100205,0
-2.2476337,2.2576222,-0.42735863,-0.28497273,0.32708716,0.90100205,0
3.0010798,0.30988896,1.4212868,0.79809076,-0.43964329,0.41202539,0
-1.8937575,1.9215212,-0.15106666,-0.28497273,0.32708716,0.90100205,0
-2.7957745,-0.66850853,0.5063684,-0.53088772,-0.83649737,0.13575888,0
1.4975621,-3.1211679,0.61385775,-0.53088772,-0.83649737,0.13575888,0
-1.8801634,1.9667283,-1.8555743,-0.79809076,0.43964329,-0.41202539,0
-2.1416569,-0.92522645,-0.75610316,-0.53088772,-0.83649737,0.13575888,0
-1.9801627,2.7865458,-0.53755939,-0.79809076,0.43964329,-0.41202539,0
1.3698447,1.472647,-1.1162026,0.53088772,0.83649737,-0.13575888,0
-1.3894181,-1.5092347,0.56025785,-0.53088772,-0.83649737,0.13575888,0
1.7463646,-2.768743,1.1236881,0.79809076,-0.43964329,0.41202539,0
0.92616534,1.7300515,-1.5984169,0.53088772,0.83649737,-0.13575888,0
-1.8654792,2.7486012,-0.66286612,-0.79809076,0.43964329,-0.41202539,0
0.80065489,1.779644,-0.07364887,0.53088772,0.83649737,-0.13575888,0
2.6947625,-0.62917769,0.91993427,0.79809076,-0.43964329,0.41202539,0
3.4163418,-0.086885929,0.16498399,0.79809076,-0.43964329,0.41202539,0
-1.0310398,2.9766874,-1.7839137,0.53088772,0.83649737,-0.13575888,0
-0.47487092,2.72909,-1.0086329,0.53088772,0.83649737,-0.13575888,0
-2.1040931,1.4147991,-1.7840781,-0.79809076,0.43964329,-0.41202539,0
0.64947724,-0.12376791,1.4781121,-0.28497273,0.32708716,0.90100205,0
0.53294873,-0.099801183,1.3285009,-0.28497273,0.32708716,0.90100205,0
-1.9381858,2.6790376,-0.40957439,-0.79809076,0.43964329,-0.41202539,0
-0.07652247,1.668986,-1.6206132,0.28497273,-0.32708716,-0.90100205,0
1.6894429,-2.7570026,0.69763052,0.79809076,-0.43964329,0.41202539,0
1.0013154,-0.10670984,-0.61426443,0.28497273,-0.32708716,-0.90100205,0
-0.2393198,2.3284693,0.088500649,-0.28497273,0.32708716,0.90100205,0
0.78655422,-2.5835743,1.2053375,-0.53088772,-0.83649737,0.13575888,0
-0.41785455,1.2809854,-1.6229599,0.28497273,-0.32708716,-0.90100205,0
-1.6509678,-1.5809946,-0.6604054,-0.53088772,-0.83649737,0.13575888,0
2.5860496,0.32902837,-0.44303083,0.28497273,-0.32708716,-0.90100205,0
2.2359078,-2.4219637,0.54595184,0.79809076,-0.43964329,0.41202539,0
-3.1333947,0.70665479,-0.39135289,-0.79809076,0.43964329,-0.41202539,0
2.5641706,0.2752285,-0.34296274,0.28497273,-0.32708716,-0.90100205,0
3.2709825,0.58445656,1.3400874,0.53088772,0.83649737,-0.13575888,0
-3.1103029,0.21152937,-0.62885189,-0.79809076,0.43964329,-0.41202539,0
-2.6519127,1.0221684,-1.3624238,-0.79809076,0.43964329,-0.41202539,0
3.1839585,0.56564176,0.71870041,0.53088772,0.83649737,-0.13575888,0
-1.2825046,2.8342435,-0.37055051,-0.28497273,0.32708716,0.90100205,0
-2.6971557,0.68943262,-1.2247651,-0.79809076,0.43964329,-0.41202539,0
1.033656,1.6079376,-0.87868375,0.53088772,0.83649737,-0.13575888,0
-3.1102636,0.4708693,-0.73360705,-0.79809076,0.43964329,-0.41202539,0
-1.6841567,1.2809298,-2.218256,0.28497273,-0.32708716,-0.90100205,0
2.2248883,-1.9008158,0.82887983,0.79809076,-0.43964329,0.41202539,0
-1.6289638,1.9931614,-2.1683667,0.28497273,-0.32708716,-0.90100205,0
2.5480471,0.96574247,0.99779963,0.53088772,0.83649737,-0.13575888,0
-3.5961833,-0.12253499,0.05297637,-0.53088772,-0.83649737,0.13575888,0
3.0753987,-0.60047054,0.67593026,0.79809076,-0.43964329,0.41202539,0
-2.659827,-0.90459543,-0.95577049,-0.53088772,-0.83649737,0.13575888,0
2.3410277,0.72665942,0.36820936,0.53088772,0.83649737,-0.13575888,0
-3.3832266,-0.4139235,0.13228106,-0.53088772,-0.83649737,0.13575888,0
1.6661847,-1.6476401,0.14398277,0.28497273,-0.32708716,-0.90100205,0
-0.63990796,1.3166555,-1.7283645,0.28497273,-0.32708716,-0.90100205,0
-0.44790483,2.4305694,-0.43510804,0.53088772,0.83649737,-0.13575888,0
2.8149738,0.76184595,-0.06875968,0.53088772,0.83649737,-0.13575888,0
3.0218496,0.67044079,-0.041205406,0.53088772,0.83649737,-0.13575888,0
-2.8440084,-0.098387644,-2.1650343,-0.79809076,0.43964329,-0.41202539,0
-2.2163453,1.3412757,-1.2243925,-0.79809076,0.43964329,-0.41202539,0
-2.3079069,1.8823266,-0.19477415,-0.28497273,0.32708716,0.90100205,0
2.0759578,-1.8671811,1.0831609,0.79809076,-0.43964329,0.41202539,0
-2.0167112,-0.29975322,-1.8007736,0.28497273,-0.32708716,-0.90100205,0
2.0332232,-2.0815463,1.2011791,0.79809076,-0.43964329,0.41202539,0
-0.83000243,2.6567764,-2.2291918,0.53088772,0.83649737,-0.13575888,0
-0.68930244,2.3239827,-2.2646854,0.28497273,-0.32708716,-0.90100205,0
1.3341655,-2.970871,1.664861,-0.53088772,-0.83649737,0.13575888,0
-0.045851104,-0.079756618,0.99414653,-0.28497273,0.32708716,0.90100205,0
2.3600836,-0.63923526,2.0127962,0.79809076,-0.43964329,0.41202539,0
-1.6329892,-1.6481693,-0.43910241,-0.53088772,-0.83649737,0.13575888,0
2.7943914,-0.32703158,1.8566818,0.79809076,-0.43964329,0.41202539,0
2.7600896,-0.58995032,1.256737,0.79809076,-0.43964329,0.41202539,0
2.2601037,-2.1404357,0.34173512,0.28497273,-0.32708716,-0.90100205,0
-2.2038081,2.3158586,-0.86433458,-0.79809076,0.43964329,-0.41202539,0
2.2080719,-2.103019,0.35660744,0.79809076,-0.43964329,0.41202539,0
0.14330983,2.4697959,-0.076830089,0.53088772,0.83649737,-0.13575888,0
-1.5061859,2.8381929,-0.26933658,-0.28497273,0.32708716,0.90100205,0
1.2744131,0.86482918,-1.0394301,0.28497273,-0.32708716,-0.90100205,0
-1.3655766,-1.546679,0.30799216,-0.53088772,-0.83649737,0.13575888,0
1.5175279,-3.1441569,0.84945726,0.79809076,-0.43964329,0.41202539,0
-2.9081807,0.11918128,-1.4078336,-0.79809076,0.43964329,-0.41202539,0
1.6336759,-3.1002941,1.2399579,0.79809076,-0.43964329,0.41202539,0
3.2249231,0.57945681,1.7282059,0.79809076,-0.43964329,0.41202539,0
-1.9693516,2.5958295,-0.6307826,-0.28497273,0.32708716,0.90100205,0
-0.75903463,-0.92905372,-1.0187575,0.28497273,-0.32708716,-0.90100205,0
-2.6108985,1.8267655,-0.6836319,-0.79809076,0.43964329,-0.41202539,0
-2.7077808,1.7104849,-0.35364056,-0.28497273,0.32708716,0.90100205,0
-0.20084047,2.522042,-0.68133992,0.53088772,0.83649737,-0.13575888,0
-0.36326694,2.3860562,-0.43046579,0.53088772,0.83649737,-0.13575888,0
1.4182639,-0.76473635,1.845248,-0.28497273,0.32708716,0.90100205,0
1.9891304,-2.4079981,0.75347757,0.79809076,-0.43964329,0.41202539,0
0.77956927,-2.4804373,1.5890958,-0.53088772,-0.83649737,0.13575888,0
-0.11253661,-1.163413,1.6942551,-0.28497273,0.32708716,0.90100205,0
-3.1309114,0.078300357,-1.5888495,-0.79809076,0.43964329,-0.41202539,0
-1.1444077,-1.2905538,1.0050995,-0.53088772,-0.83649737,0.13575888,0
-2.6201541,0.30122179,-1.8217108,-0.79809076,0.43964329,-0.41202539,0
2.4211752,1.0822835,1.5109771,0.53088772,0.83649737,-0.13575888,0
-1.5724385,-0.15176274,-1.5073915,0.28497273,-0.32708716,-0.90100205,0
-1.7921624,2.6239049,-0.61934268,-0.79809076,0.43964329,-0.41202539,0
-1.7067573,1.6024989,-2.0664089,-0.79809076,0.43964329,-0.41202539,0
1.5888149,-2.2597756,1.6069167,0.79809076,-0.43964329,0.41202539,0
-0.92852902,-0.69123745,-1.0466819,0.28497273,-0.32708716,-0.90100205,0
-0.0089790821,1.4435728,-1.756269,0.28497273,-0.32708716,-0.90100205,0
-2.7135324,0.017709792,-1.5530461,-0.79809076,0.43964329,-0.41202539,0
-0.09107393,0.87271655,-1.4929008,0.28497273,-0.32708716,-0.90100205,0
1.5244342,-2.7467546,1.5436676,0.79809076,-0.43964329,0.41202539,0
-0.83694291,-0.87862492,-0.98941106,0.28497273,-0.32708716,-0.90100205,0
1.6269329,0.15154931,1.5498204,-0.28497273,0.32708716,0.90100205,0
0.26204348,2.2176373,0.28397021,0.53088772,0.83649737,-0.13575888,0
-0.69275236,2.5599692,-0.53231138,0.53088772,0.83649737,-0.13575888,0
1.8710614,-2.5468144,1.1578555,0.79809076,-0.43964329,0.41202539,0
2.7157745,-1.1421314,1.1487465,0.79809076,-0.43964329,0.41202539,0
-1.9291282,0.56414747,0.17251647,-0.28497273,0.32708716,0.90100205,0
-2.4956691,0.91509128,-1.558296,-0.79809076,0.43964329,-0.41202539,0
-2.9912336,0.33533788,-1.3536887,-0.79809076,0.43964329,-0.41202539,0
-1.4037743,2.3046768,-0.1255151,-0.28497273,0.32708716,0.90100205,0
2.9315829,0.0018355846,1.921106,0.79809076,-0.43964329,0.41202539,0
-1.4497424,-1.292742,0.55518824,-0.53088772,-0.83649737,0.13575888,0
3.39534,0.083264112,0.31334138,0.79809076,-0.43964329,0.41202539,0
-0.091431618,-2.2015467,1.7637024,-0.53088772,-0.83649737,0.13575888,0
1.4742737,1.7327026,1.1519551,-0.28497273,0.32708716,0.90100205,0
-2.0811553,-0.16911578,0.71086454,-0.28497273,0.32708716,0.90100205,0
-1.3922696,2.2615366,-2.0187078,-0.79809076,0.43964329,-0.41202539,0
0.94473511,-0.78068173,-0.46680731,0.28497273,-0.32708716,-0.90100205,0
2.2912483,-1.3688488,1.7782046,0.79809076,-0.43964329,0.41202539,0
1.9461812,-0.78098029,1.9087254,-0.28497273,0.32708716,0.90100205,0
1.4205148,-1.276427,-0.19552195,0.28497273,-0.32708716,-0.90100205,0
-1.7028837,1.7085049,-2.1941531,-0.79809076,0.43964329,-0.41202539,0
-1.0957159,2.8369813,-2.0945501,0.53088772,0.83649737,-0.13575888,0
2.7368126,-1.3961148,0.36953998,0.79809076,-0.43964329,0.41202539,0
0.95034599,-2.9554961,0.66250849,-0.53088772,-0.83649737,0.13575888,0
-0.63798392,1.2799281,-1.8911077,0.28497273,-0.32708716,-0.90100205,0
-2.9216685,-0.20133349,-1.9583884,-0.79809076,0.43964329,-0.41202539,0
-0.89477134,0.12339318,-1.588307,0.28497273,-0.32708716,-0.90100205,0
1.3074417,-0.24259913,1.7393553,-0.28497273,0.32708716,0.90100205,0
-0.22549796,2.3639605,-1.9417753,0.53088772,0.83649737,-0.13575888,0
2.8916752,-0.38310301,1.0376482,0.79809076,-0.43964329,0.41202539,0
-3.1041451,0.93944204,-0.70644116,-0.79809076,0.43964329,-0.41202539,0
2.6180398,-0.87130886,1.1971219,0.79809076,-0.43964329,0.41202539,0
0.62969351,-2.7106628,-0.11414224,0.28497273,-0.32708716,-0.90100205,0
3.1290255,-0.8796618,0.3217876,0.79809076,-0.43964329,0.41202539,0
2.9366341,-0.56109571,0.75760198,0.79809076,-0.43964329,0.41202539,0
-2.7859075,-0.13917774,-1.7898653,-0.79809076,0.43964329,-0.41202539,0
2.2382333,-0.84020567,1.718688,0.79809076,-0.43964329,0.41202539,0
-0.97376847,2.6634521,-0.90371972,0.53088772,0.83649737,-0.13575888,0
2.2865124,-1.3138577,1.6796829,0.79809076,-0.43964329,0.41202539,0
2.3672204,-1.5808986,0.33885884,0.28497273,-0.32708716,-0.90100205,0
-1.1687043,3.1138275,-0.54501128,0.53088772,0.83649737,-0.13575888,0
3.0584719,-0.89591336,0.49536324,0.79809076,-0.43964329,0.41202539,0
3.381057,-0.3002758,0.53811765,0.79809076,-0.43964329,0.41202539,0
-3.1587498,-0.45894551,0.11380434,-0.28497273,0.32708716,0.90100205,0
-1.3509432,1.4076393,-2.0306139,0.28497273,-0.32708716,-0.90100205,0
-1.229321,-1.8751225,-0.42052644,-0.53088772,-0.83649737,0.13575888,0
3.357492,0.50155139,1.2054799,0.53088772,0.83649737,-0.13575888,0
-1.7693311,3.1357374,-0.85154831,-0.79809076,0.43964329,-0.41202539,0
-0.83197117,2.7851136,-0.43807054,0.53088772,0.83649737,-0.13575888,0
-3.0012705,0.53377569,-0.65185952,-0.79809076,0.43964329,-0.41202539,0
1.3801248,-0.05338347,-0.50822204,0.28497273,-0.32708716,-0.90100205,0
-0.32338285,2.3860931,-1.0238364,0.53088772,0.83649737,-0.13575888,0
0.064546585,-2.2382803,1.7050837,-0.53088772,-0.83649737,0.13575888,0
-2.2656865,1.4213008,-1.1866381,-0.79809076,0.43964329,-0.41202539,0
1.0073888,1.9278586,0.28053772,0.53088772,0.83649737,-0.13575888,0
-0.90442252,2.9046082,-0.050665379,0.53088772,0.83649737,-0.13575888,0
-2.3358262,0.43916327,-1.8126348,-0.79809076,0.43964329,-0.41202539,0
-3.1257544,0.63924456,-0.13425016,-0.79809076,0.43964329,-0.41202539,0
-0.038209677,0.93258214,-1.3443434,0.28497273,-0.32708716,-0.90100205,0
1.2378578,1.7559155,0.52796113,0.53088772,0.83649737,-0.13575888,0
-3.2141213,-0.45664752,-0.79746985,-0.53088772,-0.83649737,0.13575888,0
0.056409836,-2.3650932,1.1486396,-0.53088772,-0.83649737,0.13575888,0
2.3112893,-1.7766629,0.65558708,0.79809076,-0.43964329,0.41202539,0
0.25367713,0.59547383,0.92731261,-0.28497273,0.32708716,0.90100205,0
3.2778966,0.64899933,0.68010378,0.53088772,0.83649737,-0.13575888,0
-1.3250489,2.4927001,-1.8510776,-0.79809076,0.43964329,-0.41202539,0
-1.8335923,1.5704134,0.12319589,-0.28497273,0.32708716,0.90100205,0
0.54507136,-1.9611809,1.9282264,-0.28497273,0.32708716,0.90100205,0
-1.4136292,1.3615453,-1.9923131,0.28497273,-0.32708716,-0.90100205,0
1.5241048,-1.912093,1.806008,0.79809076,-0.43964329,0.41202539,0
-3.3840749,0.33457112,-0.17130661,-0.79809076,0.43964329,-0.41202539,0
-1.3916861,1.623404,-2.047147,0.28497273,-0.32708716,-0.90100205,0
-1.5080688,2.2806687,-0.39024925,-0.28497273,0.32708716,0.90100205,0
-3.2674656,0.031134844,0.12485838,-0.28497273,0.32708716,0.90100205,0
1.8160014,-1.602944,1.6100289,0.79809076,-0.43964329,0.41202539,0
2.4485326,-1.1029863,0.0071725845,0.28497273,-0.32708716,-0.90100205,0
-0.82098103,-0.30383462,-1.3686473,0.28497273,-0.32708716,-0.90100205,0
2.4670186,0.79438633,1.2689707,0.53088772,0.83649737,-0.13575888,0
1.1975856,-0.16431761,-0.57853466,0.28497273,-0.32708716,-0.90100205,0
-0.090381384,-2.3599429,-0.21198678,-0.53088772,-0.83649737,0.13575888,0
1.2803073,-0.54313284,1.7448044,-0.28497273,0.32708716,0.90100205,0
-0.75435972,2.1352224,-2.233901,0.28497273,-0.32708716,-0.90100205,0
-2.4022152,0.57962835,-2.103045,-0.79809076,0.43964329,-0.41202539,0
1.4054823,-0.46706867,-0.35883057,0.28497273,-0.32708716,-0.90100205,0
3.2934666,0.50587368,0.79493403,0.53088772,0.83649737,-0.13575888,0
-1.7395208,1.2472794,-0.079684854,-0.28497273,0.32708716,0.90100205,0
0.62742454,0.50146389,1.2739205,-0.28497273,0.32708716,0.90100205,0
2.0184789,-1.4192817,2.0443559,0.79809076,-0.43964329,0.41202539,0
1.5724547,-1.7780225,2.1120322,0.79809076,-0.43964329,0.41202539,0
1.9911869,1.4848583,0.92288196,0.53088772,0.83649737,-0.13575888,0
2.4349458,-0.41679311,1.6443346,0.79809076,-0.43964329,0.41202539,0
0.36975765,2.405659,0.4278425,0.53088772,0.83649737,-0.13575888,0
-0.8778348,2.8450527,-0.46503413,0.53088772,0.83649737,-0.13575888,0
0.3709437,-0.095580578,1.204179,-0.28497273,0.32708716,0.90100205,0
-2.0457079,-1.149007,-0.92567039,-0.53088772,-0.83649737,0.13575888,0
2.7541833,-1.652747,0.39196229,0.28497273,-0.32708716,-0.90100205,0
1.3401791,-2.7134144,0.50481176,0.28497273,-0.32708716,-0.90100205,0
0.27439928,2.2877331,-0.68076217,0.53088772,0.83649737,-0.13575888,0
-1.3422343,2.9531326,-1.2639818,0.53088772,0.83649737,-0.13575888,0
-1.967996,2.3372574,-1.2616293,-0.79809076,0.43964329,-0.41202539,0
2.3449304,-1.5738702,0.74513185,0.79809076,-0.43964329,0.41202539,0
-2.0658,0.55466723,-1.7566413,0.28497273,-0.32708716,-0.90100205,0
2.266778,0.92277265,-0.57514369,0.28497273,-0.32708716,-0.90100205,0
-1.1522059,2.2833657,-0.23613858,-0.28497273,0.32708716,0.90100205,0
-1.8064613,0.23907249,-1.8301771,0.28497273,-0.32708716,-0.90100205,0
-0.37555933,2.5495903,-0.54685712,0.53088772,0.83649737,-0.13575888,0
0.3525579,1.9058133,-0.8855536,0.53088772,0.83649737,-0.13575888,0
-1.5179828,-1.0011843,0.79497945,-0.28497273,0.32708716,0.90100205,0
-2.0432193,1.2964499,-1.8547795,-0.79809076,0.43964329,-0.41202539,0
-2.5297327,-0.68620229,0.32193398,-0.53088772,-0.83649737,0.13575888,0
2.5615599,-0.56842506,1.5038905,0.79809076,-0.43964329,0.41202539,0
2.5869346,-1.4758179,0.42054367,0.79809076,-0.43964329,0.41202539,0
-1.8083043,3.0121222,-0.95617652,-0.79809076,0.43964329,-0.41202539,0
-0.58641624,-2.0422559,-0.53379291,0.28497273,-0.32708716,-0.90100205,0
-0.62909633,-0.52599251,1.2554405,-0.28497273,0.32708716,0.90100205,0
0.37462187,1.1700449,0.78681743,-0.28497273,0.32708716,0.90100205,0
2.5545993,0.77820534,0.53449249,0.53088772,0.83649737,-0.13575888,0
-1.6989005,-0.35511327,-1.3051882,0.28497273,-0.32708716,-0.90100205,0
1.0444266,-2.228405,0.094869018,0.28497273,-0.32708716,-0.90100205,0
-1.3073189,2.8714046,-1.5494699,0.53088772,0.83649737,-0.13575888,0
0.58546638,2.1496356,0.53505003,0.53088772,0.83649737,-0.13575888,0
0.86569655,1.4151491,0.75158703,-0.28497273,0.32708716,0.90100205,0
-1.7126245,-1.5503057,-0.38349366,-0.53088772,-0.83649737,0.13575888,0
-0.19257426,2.2407939,-1.5337256,0.53088772,0.83649737,-0.13575888,0
-2.1692815,0.38604316,-1.8530877,0.28497273,-0.32708716,-0.90100205,0
2.0235205,0.44212267,1.5433445,-0.28497273,0.32708716,0.90100205,0
2.4317541,-0.97242081,1.184685,0.79809076,-0.43964329,0.41202539,0
1.1789317,-1.8475673,-0.097054958,0.28497273,-0.32708716,-0.90100205,0
-0.84513342,1.5341482,0.13300753,-0.28497273,0.32708716,0.90100205,0
-0.68661046,-0.38355607,-1.2003796,0.28497273,-0.32708716,-0.90100205,0
2.6527176,0.66648531,0.64634418,0.53088772,0.83649737,-0.13575888,0
2.716114,0.79683524,0.65339541,0.53088772,0.83649737,-0.13575888,0
1.2420123,1.3549521,-1.4036198,0.28497273,-0.32708716,-0.90100205,0
-0.39013994,1.6810323,0.2615146,-0.28497273,0.32708716,0.90100205,0
0.91865969,-1.683253,1.8251109,-0.28497273,0.32708716,0.90100205,0
1.2467794,-3.171613,0.65560293,-0.53088772,-0.83649737,0.13575888,0
-0.88233238,-0.65942442,1.2042017,-0.28497273,0.32708716,0.90100205,0
2.0114751,-2.4709229,0.57026827,0.28497273,-0.32708716,-0.90100205,0
3.2660813,0.44242388,1.8208241,0.79809076,-0.43964329,0.41202539,0
1.4609805,-3.1417656,1.2430193,0.79809076,-0.43964329,0.41202539,0
-1.3663925,3.0605266,-1.6728544,-0.79809076,0.43964329,-0.41202539,0
-3.0522199,-0.25239387,-1.9950212,-0.79809076,0.43964329,-0.41202539,0
0.94581175,-2.9023147,0.82231849,-0.53088772,-0.83649737,0.13575888,0
-1.111074,2.9040751,-0.76935047,0.53088772,0.83649737,-0.13575888,0
1.2812392,-2.6123197,1.8875355,0.79809076,-0.43964329,0.41202539,0
-3.638531,-0.096566916,-0.72130728,-0.79809076,0.43964329,-0.41202539,0
1.1849868,-2.8663218,1.8808358,-0.53088772,-0.83649737,0.13575888,0
-1.1245162,-1.7427752,-0.066369653,-0.53088772,-0.83649737,0.13575888,0
-2.8546073,0.081977427,-1.4098275,-0.79809076,0.43964329,-0.41202539,0
1.5489007,-2.917984,1.1633908,0.79809076,-0.43964329,0.41202539,0
0.4944737,1.6133946,0.6332559,-0.28497273,0.32708716,0.90100205,0
-1.9627707,2.6297328,-0.59510493,-0.28497273,0.32708716,0.90100205,0
-2.3488142,1.3422982,-1.7035593,-0.79809076,0.43964329,-0.41202539,0
0.75924933,-1.650598,1.8983396,-0.28497273,0.32708716,0.90100205,0
-2.7157912,1.059123,-0.8870976,-0.79809076,0.43964329,-0.41202539,0
1.930498,1.4077526,0.043573618,0.53088772,0.83649737,-0.13575888,0
-0.033429384,-0.86348879,-0.9040792,0.28497273,-0.32708716,-0.90100205,0
0.4316597,-2.5467656,0.98150313,-0.53088772,-0.83649737,0.13575888,0
-0.049546719,-2.3535354,0.14245155,-0.53088772,-0.83649737,0.13575888,0
1.4727955,-2.9610472,1.0224683,-0.53088772,-0.83649737,0.13575888,0
0.40124744,0.86674291,-1.1900867,0.28497273,-0.32708716,-0.90100205,0
-0.5902164,-1.8797015,-0.49142516,-0.53088772,-0.83649737,0.13575888,0
3.0755429,-1.2882086,0.35126495,0.79809076,-0.43964329,0.41202539,0
-2.7973728,0.63516015,-1.5406437,-0.79809076,0.43964329,-0.41202539,0
-1.3355287,2.5769093,-1.9018376,-0.79809076,0.43964329,-0.41202539,0
0.42563486,-2.4616144,0.38184002,-0.53088772,-0.83649737,0.13575888,0
1.196867,-2.99156,1.4529372,-0.53088772,-0.83649737,0.13575888,0
-2.9069428,-0.45255834,-1.6530603,-0.79809076,0.43964329,-0.41202539,0
-1.1930182,2.638762,-1.803894,-0.79809076,0.43964329,-0.41202539,0
1.7760712,-2.3414445,0.19633663,0.28497273,-0.32708716,-0.90100205,0
-0.045746088,-2.3979301,0.57732266,-0.53088772,-0.83649737,0.13575888,0
1.3534096,-2.5757427,2.1034551,0.79809076,-0.43964329,0.41202539,0
1.5280951,1.489001,0.07254982,0.53088772,0.83649737,-0.13575888,0
2.1733365,1.002786,-0.78620017,0.28497273,-0.32708716,-0.90100205,0
-2.689255,-0.7764467,0.27564383,-0.53088772,-0.83649737,0.13575888,0
-2.5360036,1.3153186,-1.1806322,-0.79809076,0.43964329,-0.41202539,0
3.1927443,0.14589167,1.4863422,0.79809076,-0.43964329,0.41202539,0
-2.4950242,-0.86441237,-0.098515987,-0.53088772,-0.83649737,0.13575888,0
0.57883477,1.722038,0.84895635,-0.28497273,0.32708716,0.90100205,0
-3.5383093,-0.15815282,-0.40725756,-0.79809076,0.43964329,-0.41202539,0
1.9654572,-1.4238038,1.96632,0.79809076,-0.43964329,0.41202539,0
3.1658964,-0.32495689,0.8403368,0.79809076,-0.43964329,0.41202539,0
2.6416106,0.91567361,0.73833752,0.53088772,0.83649737,-0.13575888,0
-1.8374494,2.0966969,-1.3310927,-0.79809076,0.43964329,-0.41202539,0
1.7463773,1.253794,0.049037099,0.53088772,0.83649737,-0.13575888,0
2.8531117,-0.95876169,0.28121591,0.79809076,-0.43964329,0.41202539,0
-0.79789585,0.52417797,-1.6819677,0.28497273,-0.32708716,-0.90100205,0
-3.4164977,0.43321466,-0.43488622,-0.79809076,0.43964329,-0.41202539,0
3.4533229,0.19553483,0.96944666,0.79809076,-0.43964329,0.41202539,0
-3.5743842,0.39030123,-0.39487767,-0.79809076,0.43964329,-0.41202539,0
0.49001527,1.7887399,-0.90372121,0.53088772,0.83649737,-0.13575888,0
-1.7157645,2.512691,-0.5039258,-0.28497273,0.32708716,0.90100205,0
-1.273605,2.5834675,-1.6222248,-0.79809076,0.43964329,-0.41202539,0
-2.1334755,0.67941868,-2.0869155,0.28497273,-0.32708716,-0.90100205,0
-0.45115238,0.99395704,0.49434149,-0.28497273,0.32708716,0.90100205,0
-0.62949228,-2.12394,0.48411092,-0.53088772,-0.83649737,0.13575888,0
-1.2192501,3.00969,-0.72477782,0.53088772,0.83649737,-0.13575888,0
0.88928914,-2.3899934,2.3701217,-0.53088772,-0.83649737,0.13575888,0
0.16879272,1.4513345,0.8572669,-0.28497273,0.32708716,0.90100205,0
-2.3877592,1.3718078,-1.442806,-0.79809076,0.43964329,-0.41202539,0
0.99136001,-0.57593369,1.6339318,-0.28497273,0.32708716,0.90100205,0
0.80900598,1.553476,-1.471994,0.28497273,-0.32708716,-0.90100205,0
1.80461,1.549161,1.2757584,-0.28497273,0.32708716,0.90100205,0
3.2191377,0.58364296,1.521389,0.53088772,0.83649737,-0.13575888,0
-1.5356017,-0.61605728,0.69140375,-0.28497273,0.32708716,0.90100205,0
2.0046618,-1.8158498,0.3841207,0.28497273,-0.32708716,-0.90100205,0
-0.074873447,1.2300582,0.64282238,-0.28497273,0.32708716,0.90100205,0
-2.7919579,-0.59860891,-1.0549493,-0.53088772,-0.83649737,0.13575888,0
1.9063373,-2.1692035,1.5528306,0.79809076,-0.43964329,0.41202539,0
-3.1012287,0.048664093,-1.1911199,-0.79809076,0.43964329,-0.41202539,0
-0.53012276,2.5991378,-0.9710412,0.53088772,0.83649737,-0.13575888,0
1.6056362,-2.9348762,1.505752,0.79809076,-0.43964329,0.41202539,0
0.98553634,1.3686106,1.0519863,-0.28497273,0.32708716,0.90100205,0
-1.4537359,3.1786118,-0.63789642,-0.28497273,0.32708716,0.90100205,0
-2.771312,1.3377495,-0.75098777,-0.79809076,0.43964329,-0.41202539,0
-1.6894447,2.3438711,-1.7535274,-0.79809076,0.43964329,-0.41202539,0
2.50723,-1.0888385,1.6795347,0.79809076,-0.43964329,0.41202539,0
-1.3738203,2.9468651,-1.0808754,0.53088772,0.83649737,-0.13575888,0
-1.5504236,0.68419361,0.19867301,-0.28497273,0.32708716,0.90100205,0
-3.3721118,-0.34034538,-1.3127086,-0.79809076,0.43964329,-0.41202539,0
-1.0422986,-1.8328369,-0.76002496,0.28497273,-0.32708716,-0.90100205,0
0.57752991,1.0978124,0.94848645,-0.28497273,0.32708716,0.90100205,0
-0.49856806,-2.1920042,0.58043367,-0.53088772,-0.83649737,0.13575888,0
2.3660274,-0.97376221,2.0737987,0.79809076,-0.43964329,0.41202539,0
2.6129427,0.81720179,1.5488642,-0.28497273,0.32708716,0.90100205,0
-0.2693277,-0.17816734,1.2763157,-0.28497273,0.32708716,0.90100205,0
-1.6164612,-0.86210865,-1.4432982,0.28497273,-0.32708716,-0.90100205,0
-2.2826641,0.4328692,0.16572642,-0.28497273,0.32708716,0.90100205,0
3.680485,0.29749727,0.36359572,0.53088772,0.83649737,-0.13575888,0
-0.20585084,-2.4482124,0.11211307,-0.53088772,-0.83649737,0.13575888,0
3.1642091,0.65229857,0.55372906,0.53088772,0.83649737,-0.13575888,0
0.72982955,-2.6388772,1.1127889,-0.53088772,-0.83649737,0.13575888,0
0.18883669,1.1248926,-1.6164153,0.28497273,-0.32708716,-0.90100205,0
1.4770325,-2.9656105,0.95175886,0.79809076,-0.43964329,0.41202539,0
-1.4428371,3.0581031,-0.24556255,-0.28497273,0.32708716,0.90100205,0
1.4634953,-1.1529776,-0.30786586,0.28497273,-0.32708716,-0.90100205,0
1.3841003,-2.4306884,0.30223548,0.28497273,-0.32708716,-0.90100205,0
0.12029076,2.3687606,-0.49061355,0.53088772,0.83649737,-0.13575888,0
-1.1956452,1.5913715,-1.859138,0.28497273,-0.32708716,-0.90100205,0
-0.62783772,0.84247959,-1.5564328,0.28497273,-0.32708716,-0.90100205,0
1.396565,-1.9290091,0.22689211,0.28497273,-0.32708716,-0.90100205,0
0.0074942689,0.24971771,-1.2406883,0.28497273,-0.32708716,-0.90100205,0
-1.9830263,0.90808392,-2.1430273,0.28497273,-0.32708716,-0.90100205,0
0.9152956,-2.093101,1.9414455,-0.28497273,0.32708716,0.90100205,0
-2.2168834,-1.066517,0.15050673,-0.53088772,-0.83649737,0.13575888,0
-1.8524287,2.362927,-1.2121208,-0.79809076,0.43964329,-0.41202539,0
-1.4472988,2.2325251,-2.1396353,-0.79809076,0.43964329,-0.41202539,0
0.79949856,-2.6063838,1.6617795,-0.53088772,-0.83649737,0.13575888,0
-0.42163283,0.2372182,0.76423645,-0.28497273,0.32708716,0.90100205,0
2.0509374,-0.0077381134,-0.66683495,0.28497273,-0.32708716,-0.90100205,0
1.4875691,1.4062322,-1.2524475,0.53088772,0.83649737,-0.13575888,0
2.9924712,-0.21499908,1.5746639,0.79809076,-0.43964329,0.41202539,0
-0.6787554,2.4904261,-1.046194,0.53088772,0.83649737,-0.13575888,0
-2.9091763,-0.47455823,-1.910217,-0.79809076,0.43964329,-0.41202539,0
-2.1044984,0.62044585,-2.0914154,-0.79809076,0.43964329,-0.41202539,0
2.6440382,-1.3727291,0.15795684,0.28497273,-0.32708716,-0.90100205,0
3.3062372,-0.82841897,0.12761402,0.28497273,-0.32708716,-0.90100205,0
-2.893681,0.99003613,-0.92179942,-0.79809076,0.43964329,-0.41202539,0
-0.62824106,2.3776054,-2.1623468,0.53088772,0.83649737,-0.13575888,0
0.70091438,2.0466375,0.24402529,0.53088772,0.83649737,-0.13575888,0
2.1926653,1.0378631,-0.40472126,0.53088772,0.83649737,-0.13575888,0
-0.31949592,-1.9501014,0.10617299,-0.53088772,-0.83649737,0.13575888,0
3.104336,0.55848861,1.9161483,0.79809076,-0.43964329,0.41202539,0
1.1442821,1.4531921,-1.0801387,0.53088772,0.83649737,-0.13575888,0
-3.2774692,-0.22329462,-0.87344956,-0.79809076,0.43964329,-0.41202539,0
-0.24677932,-0.40983015,1.0019844,-0.28497273,0.32708716,0.90100205,0
-2.3489656,-1.1201838,-1.6676537,0.28497273,-0.32708716,-0.90100205,0
1.2796916,-2.6252801,1.9970429,0.79809076,-0.43964329,0.41202539,0
-1.2156043,-0.38974905,0.92141622,-0.28497273,0.32708716,0.90100205,0
1.9275007,-2.4083393,0.6162504,0.79809076,-0.43964329,0.41202539,0
1.8654153,-2.693892,0.9391706,0.79809076,-0.43964329,0.41202539,0
1.744388,0.96383941,-0.6286577,0.53088772,0.83649737,-0.13575888,0
1.8404402,1.1572409,-0.67781794,0.53088772,0.83649737,-0.13575888,0
-0.1025579,-2.2161207,0.099160857,-0.53088772,-0.83649737,0.13575888,0
2.9769778,0.81168562,0.68285155,0.53088772,0.83649737,-0.13575888,0
2.4621682,-1.0016768,1.0928482,0.79809076,-0.43964329,0.41202539,0
3.5397036,0.40450346,0.77697158,0.53088772,0.83649737,-0.13575888,0
-2.9215508,0.84410822,-0.84060407,-0.79809076,0.43964329,-0.41202539,0
-0.88341379,2.3630102,-2.1607304,0.28497273,-0.32708716,-0.90100205,0
