-0.60179287,0.84059942,-0.83452535,-0.95658469,-0.014716148,-0.29108265,0
-0.71322536,4.8734097,0.25347066,0.13186413,0.86880732,-0.47726905,0
-0.036046505,-3.1798522,2.8609905,-0.13186413,-0.86880732,0.47726905,0
1.1184332,-3.1661158,-0.091641068,0.95658469,0.014716148,0.29108265,0
0.87226057,2.5447674,1.0018803,0.95658469,0.014716148,0.29108265,0
0.21618485,-3.5996785,1.6684214,-0.13186413,-0.86880732,0.47726905,0
-1.000612,3.5307269,1.061043,-0.25991833,0.49493158,0.82914722,0
0.98213351,3.1252637,-2.1146767,0.13186413,0.86880732,-0.47726905,0
1.2578347,3.8815,-0.93990636,0.13186413,0.86880732,-0.47726905,0
1.4313924,-0.6611681,-2.939908,0.25991833,-0.49493158,-0.82914722,0
0.020752192,3.5071533,-2.2614169,0.13186413,0.86880732,-0.47726905,0
0.44435358,-3.3487837,1.8972003,0.95658469,0.014716148,0.29108265,0
0.90310478,-3.2797618,1.1461021,0.95658469,0.014716148,0.29108265,0
-0.84482455,3.0515416,1.4647167,-0.25991833,0.49493158,0.82914722,0
0.47347498,2.2102685,-4.4137177,0.13186413,0.86880732,-0.47726905,0
-0.35178971,-0.50421786,3.8681443,-0.25991833,0.49493158,0.82914722,0
0.9647826,2.1037555,0.49242175,0.95658469,0.014716148,0.29108265,0
-0.60451531,2.8820674,1.5502795,-0.25991833,0.49493158,0.82914722,0
0.042524815,3.8578541,1.1138371,-0.25991833,0.49493158,0.82914722,0
0.90984023,0.8427242,0.0074664354,0.95658469,0.014716148,0.29108265,0
-0.9303447,-3.2158542,1.9009018,-0.13186413,-0.86880732,0.47726905,0
-2.0450675,-0.48690248,3.0145197,-0.95658469,-0.014716148,-0.29108265,0
0.045003414,4.8632312,0.38641691,0.13186413,0.86880732,-0.47726905,0
-0.045064211,-2.4184637,-2.1357453,0.25991833,-0.49493158,-0.82914722,0
-1.3941551,-2.8647532,2.8473129,-0.13186413,-0.86880732,0.47726905,0
1.7305542,2.5193024,-1.8298082,0.95658469,0.014716148,0.29108265,0
0.91199708,3.7432294,-0.97426343,0.13186413,0.86880732,-0.47726905,0
1.1452365,-3.421556,0.24864173,0.95658469,0.014716148,0.29108265,0
-0.6589632,3.8590734,-1.1193019,0.13186413,0.86880732,-0.47726905,0
1.2404959,-2.4335475,-0.5449785,0.95658469,0.014716148,0.29108265,0
0.69677222,3.341553,-2.0163543,0.13186413,0.86880732,-0.47726905,0
-1.2459905,2.850034,0.65471482,-0.95658469,-0.014716148,-0.29108265,0
-2.0910079,-1.0078309,3.0149746,-0.95658469,-0.014716148,-0.29108265,0
-0.51978755,-2.7147503,-1.1197692,-0.95658469,-0.014716148,-0.29108265,0
1.2668811,0.69740975,-3.525799,0.25991833,-0.49493158,-0.82914722,0
0.69645929,-4.6708131,-0.095733643,-0.13186413,-0.86880732,0.47726905,0
0.51885509,4.2127318,-0.48368287,0.13186413,0.86880732,-0.47726905,0
0.049865723,-4.8294477,-0.53173947,-0.13186413,-0.86880732,0.47726905,0
-0.43837404,4.8273659,0.43094397,0.13186413,0.86880732,-0.47726905,0
-1.3609958,4.3777089,0.66257393,-0.25991833,0.49493158,0.82914722,0
-1.0584729,-3.2064788,2.1883345,-0.13186413,-0.86880732,0.47726905,0
-1.1347721,3.4088318,0.58030176,-0.95658469,-0.014716148,-0.29108265,0
0.76054621,-4.7014322,-0.28537917,-0.13186413,-0.86880732,0.47726905,0
0.19930154,-2.9037375,2.7937779,-0.13186413,-0.86880732,0.47726905,0
1.0906291,1.5638691,-4.0915327,0.25991833,-0.49493158,-0.82914722,0
0.95873296,1.6903653,0.62711072,0.95658469,0.014716148,0.29108265,0
0.57380867,3.2921677,1.847657,-0.25991833,0.49493158,0.82914722,0
0.11983514,4.1882138,-0.90261984,0.13186413,0.86880732,-0.47726905,0
-0.89857769,-3.2589335,-0.021990538,-0.95658469,-0.014716148,-0.29108265,0
-1.8295629,0.31941557,2.2990565,-0.95658469,-0.014716148,-0.29108265,0
-1.8883626,0.9138453,2.2007751,-0.95658469,-0.014716148,-0.29108265,0
-0.64466834,-0.36564636,3.796401,-0.25991833,0.49493158,0.82914722,0
-0.53813648,1.5085485,2.6587365,-0.25991833,0.49493158,0.82914722,0
1.3608422,-1.9543998,-0.5477106,0.95658469,0.014716148,0.29108265,0
-1.082665,-3.0808601,0.28055573,-0.95658469,-0.014716148,-0.29108265,0
-0.81258941,1.3815318,2.7658486,-0.25991833,0.49493158,0.82914722,0
1.1730068,-2.2960911,-1.893651,0.25991833,-0.49493158,-0.82914722,0
0.84095526,-3.1762228,-1.3134636,0.25991833,-0.49493158,-0.82914722,0
0.10152757,1.1418055,-3.1902432,-0.95658469,-0.014716148,-0.29108265,0
-1.8884428,-0.20492315,2.8145075,-0.95658469,-0.014716148,-0.29108265,0
0.016080618,0.1040988,2.8748131,0.95658469,0.014716148,0.29108265,0
-0.86332363,-3.3267832,2.3581593,-0.13186413,-0.86880732,0.47726905,0
1.5076758,0.64069402,-3.3681993,0.25991833,-0.49493158,-0.82914722,0
1.4687598,-1.2905742,-2.6133137,0.25991833,-0.49493158,-0.82914722,0
-0.72841185,-2.9467695,3.1693654,-0.13186413,-0.86880732,0.47726905,0
0.7733984,-3.8335931,-1.2948294,0.25991833,-0.49493158,-0.82914722,0
1.6787689,0.63648951,-2.577179,0.95658469,0.014716148,0.29108265,0
-1.4787345,-2.4809854,3.6919718,-0.13186413,-0.86880732,0.47726905,0
-0.50401163,4.7793622,0.83058834,-0.25991833,0.49493158,0.82914722,0
1.3812411,-3.7683561,-0.73972821,0.25991833,-0.49493158,-0.82914722,0
-1.3255072,-0.421718,0.69578391,-0.95658469,-0.014716148,-0.29108265,0
-0.51108885,-4.6226068,-0.034583569,-0.13186413,-0.86880732,0.47726905,0
-0.27125955,1.1667756,2.8551292,-0.25991833,0.49493158,0.82914722,0
-2.0380251,-0.9472878,3.4858649,-0.25991833,0.49493158,0.82914722,0
-0.31109476,1.5490258,2.5223362,-0.25991833,0.49493158,0.82914722,0
1.5489764,1.9314786,-4.0420399,0.13186413,0.86880732,-0.47726905,0
1.9642298,2.173027,-3.9936886,0.13186413,0.86880732,-0.47726905,0
-0.97238612,-0.71358526,0.40873241,-0.95658469,-0.014716148,-0.29108265,0
0.44530821,-4.2126112,-0.72991657,0.25991833,-0.49493158,-0.82914722,0
1.6514175,1.5716527,-3.8418522,0.25991833,-0.49493158,-0.82914722,0
0.20084,2.6104407,2.3078229,-0.25991833,0.49493158,0.82914722,0
1.9020075,2.0732026,-3.8870826,0.13186413,0.86880732,-0.47726905,0
0.16122723,4.9630461,0.53235579,0.13186413,0.86880732,-0.47726905,0
-2.0036433,0.33029795,2.9389613,-0.25991833,0.49493158,0.82914722,0
-0.59674788,0.43503213,3.2404468,-0.25991833,0.49493158,0.82914722,0
-1.3924313,2.3823924,1.6765827,-0.25991833,0.49493158,0.82914722,0
-0.87922776,-3.1096442,2.2709002,-0.13186413,-0.86880732,0.47726905,0
0.29400802,0.74566829,-3.9732945,0.25991833,-0.49493158,-0.82914722,0
-1.7600526,-2.6778972,2.4804289,-0.95658469,-0.014716148,-0.29108265,0
0.24956417,3.3570013,1.7262423,-0.25991833,0.49493158,0.82914722,0
-1.0723503,2.554539,1.6055013,-0.25991833,0.49493158,0.82914722,0
-0.85825396,-3.7300282,1.1366329,-0.13186413,-0.86880732,0.47726905,0
0.1663599,4.0946012,1.3832717,-0.25991833,0.49493158,0.82914722,0
-1.1633687,-0.70326746,-0.1610058,-0.95658469,-0.014716148,-0.29108265,0
-1.079814,3.7050076,1.2572423,-0.25991833,0.49493158,0.82914722,0
-0.55798769,-1.0814161,-1.4203132,-0.95658469,-0.014716148,-0.29108265,0
-0.64616823,-1.5762982,4.3731375,-0.25991833,0.49493158,0.82914722,0
-1.1958561,-4.4497895,0.074873447,-0.13186413,-0.86880732,0.47726905,0
0.77738333,4.6019626,-0.18689418,0.13186413,0.86880732,-0.47726905,0
-0.8366363,-3.0332341,-0.061975718,-0.95658469,-0.014716148,-0.29108265,0
0.81536078,-1.4939233,-2.6641333,0.25991833,-0.49493158,-0.82914722,0
-0.004924655,1.997082,-3.7618012,-0.95658469,-0.014716148,-0.29108265,0
0.64916325,-3.4601979,-1.4035488,0.25991833,-0.49493158,-0.82914722,0
1.4677168,-1.6535648,-1.3566329,0.95658469,0.014716148,0.29108265,0
0.082271814,1.6182674,2.443166,-0.25991833,0.49493158,0.82914722,0
1.556229,0.87752736,-3.5417721,0.25991833,-0.49493158,-0.82914722,0
1.0408367,2.1441188,-4.3714561,0.13186413,0.86880732,-0.47726905,0
-1.5748192,-2.0453746,3.8672333,-0.13186413,-0.86880732,0.47726905,0
-0.27407742,3.3739462,1.4629331,-0.25991833,0.49493158,0.82914722,0
0.32215387,-1.6086047,2.1848471,0.95658469,0.014716148,0.29108265,0
-2.085983,-0.54322624,3.4499826,-0.25991833,0.49493158,0.82914722,0
1.3200868,1.3780432,-1.6194309,0.95658469,0.014716148,0.29108265,0
0.5169934,2.9044862,-3.2798455,0.13186413,0.86880732,-0.47726905,0
1.6926932,-1.3332256,-2.4281411,0.25991833,-0.49493158,-0.82914722,0
1.5979588,-2.814837,-1.3084437,0.25991833,-0.49493158,-0.82914722,0
-0.61308968,-2.6779642,2.967546,-0.13186413,-0.86880732,0.47726905,0
0.40558648,2.1368232,1.5994188,0.95658469,0.014716148,0.29108265,0
-1.9115986,0.71409607,2.2480018,-0.95658469,-0.014716148,-0.29108265,0
-0.30615997,-4.2101917,-1.1168605,0.25991833,-0.49493158,-0.82914722,0
0.19282103,-4.670105,-0.10034657,-0.13186413,-0.86880732,0.47726905,0
1.7377501,2.3109736,-3.4604397,0.13186413,0.86880732,-0.47726905,0
-1.0929598,-0.84116638,0.74761236,-0.95658469,-0.014716148,-0.29108265,0
-0.24096155,-3.662941,1.5079207,-0.13186413,-0.86880732,0.47726905,0
-0.7375524,3.2211547,1.3412153,-0.25991833,0.49493158,0.82914722,0
0.11492109,1.7973309,2.813261,-0.25991833,0.49493158,0.82914722,0
0.92766857,2.6438017,-3.0858653,0.13186413,0.86880732,-0.47726905,0
-0.30971164,-3.1044374,2.5984421,-0.13186413,-0.86880732,0.47726905,0
-0.81393886,-4.3195481,0.16659856,-0.13186413,-0.86880732,0.47726905,0
2.3171246,2.0084393,-3.9536662,0.95658469,0.014716148,0.29108265,0
0.041416883,4.4072065,-0.073143244,0.13186413,0.86880732,-0.47726905,0
0.50619888,-4.1619315,0.92945528,-0.13186413,-0.86880732,0.47726905,0
-0.039342403,4.1031051,1.084843,-0.25991833,0.49493158,0.82914722,0
-0.27017975,-1.6401713,-2.6473877,0.25991833,-0.49493158,-0.82914722,0
1.5138822,2.4353647,-3.535722,0.13186413,0.86880732,-0.47726905,0
-0.25514486,-2.9501657,2.681443,-0.13186413,-0.86880732,0.47726905,0
-1.409982,1.7371912,2.2180951,-0.25991833,0.49493158,0.82914722,0
-1.6445117,-1.967358,4.0657158,-0.13186413,-0.86880732,0.47726905,0
1.8826534,1.7161745,-3.2398472,0.95658469,0.014716148,0.29108265,0
0.49946046,4.2590594,-0.15657306,0.13186413,0.86880732,-0.47726905,0
0.7820732,2.5668411,-3.4691868,0.13186413,0.86880732,-0.47726905,0
-0.5046773,3.093277,1.4348906,-0.25991833,0.49493158,0.82914722,0
-0.51547062,1.3710034,-2.0100164,-0.95658469,-0.014716148,-0.29108265,0
-0.57443404,0.062274694,3.4239738,-0.25991833,0.49493158,0.82914722,0
0.62235475,2.6384909,1.2913407,0.95658469,0.014716148,0.29108265,0
-0.11125457,-3.1962533,2.3573256,-0.13186413,-0.86880732,0.47726905,0
-1.7203505,-0.76178122,3.755187,-0.25991833,0.49493158,0.82914722,0
-0.73170006,0.022218108,-1.2192256,-0.95658469,-0.014716148,-0.29108265,0
1.6607802,-0.5423975,-2.1570404,0.95658469,0.014716148,0.29108265,0
0.50578189,2.6203156,-3.7441282,0.13186413,0.86880732,-0.47726905,0
-0.22843611,3.636647,-1.5560997,0.13186413,0.86880732,-0.47726905,0
0.69397438,3.1856139,-2.4941735,0.13186413,0.86880732,-0.47726905,0
0.10170054,3.7874885,-1.5580363,0.13186413,0.86880732,-0.47726905,0
0.22939777,-4.7437034,-0.55203152,-0.13186413,-0.86880732,0.47726905,0
0.089237928,0.43146318,-3.7560029,0.25991833,-0.49493158,-0.82914722,0
-0.54859829,-2.5496407,-1.0017312,-0.95658469,-0.014716148,-0.29108265,0
-1.1057242,-3.6131074,1.280359,-0.13186413,-0.86880732,0.47726905,0
-1.3977453,-3.0601187,2.7175033,-0.13186413,-0.86880732,0.47726905,0
-0.66552091,-4.5721378,0.01488328,-0.13186413,-0.86880732,0.47726905,0
0.93806458,-2.5648348,-1.9147688,0.25991833,-0.49493158,-0.82914722,0
0.3816936,4.3457575,-0.37606192,0.13186413,0.86880732,-0.47726905,0
-0.94424772,4.6529889,-0.26250005,0.13186413,0.86880732,-0.47726905,0
-0.052165329,1.9673412,-3.1329646,-0.95658469,-0.014716148,-0.29108265,0
-1.2885077,-2.7139559,3.3877606,-0.13186413,-0.86880732,0.47726905,0
0.89809978,1.3163018,-4.0730729,0.25991833,-0.49493158,-0.82914722,0
-0.99437988,-1.1921079,3.8439393,-0.25991833,0.49493158,0.82914722,0
1.5927002,2.5864582,-3.5763259,0.13186413,0.86880732,-0.47726905,0
1.2431562,-0.38172722,-3.2417505,0.25991833,-0.49493158,-0.82914722,0
0.054852486,-4.3238506,0.28839517,-0.13186413,-0.86880732,0.47726905,0
-0.037953913,2.9642906,-2.5998073,0.13186413,0.86880732,-0.47726905,0
-1.5604581,1.6323267,0.99733496,-0.95658469,-0.014716148,-0.29108265,0
1.2212411,1.2983046,-3.9900606,0.25991833,-0.49493158,-0.82914722,0
-1.4269285,4.8083267,0.51870489,-0.25991833,0.49493158,0.82914722,0
1.3874487,1.4677688,-4.2659616,0.25991833,-0.49493158,-0.82914722,0
0.59112918,-3.5894144,1.7089713,0.95658469,0.014716148,0.29108265,0
-1.2682807,-3.2764401,2.259372,-0.13186413,-0.86880732,0.47726905,0
-1.3811572,2.6567426,1.0327331,-0.95658469,-0.014716148,-0.29108265,0
1.9540842,-0.18189096,-2.3415859,0.95658469,0.014716148,0.29108265,0
-0.2722373,3.9175396,-1.5053012,0.13186413,0.86880732,-0.47726905,0
1.5823526,-2.8014436,-1.3158802,0.25991833,-0.49493158,-0.82914722,0
0.82118177,-1.8823895,1.3638178,0.95658469,0.014716148,0.29108265,0
0.73352814,-0.010721207,-3.3470221,0.25991833,-0.49493158,-0.82914722,0
-1.2691525,-0.88349617,3.6552005,-0.25991833,0.49493158,0.82914722,0
-0.30254483,1.6012753,2.5283017,-0.25991833,0.49493158,0.82914722,0
1.4513808,3.051147,-2.4463646,0.13186413,0.86880732,-0.47726905,0
-1.9740704,-2.2096586,3.4640353,-0.13186413,-0.86880732,0.47726905,0
-0.11414194,4.1160464,-1.2741823,0.13186413,0.86880732,-0.47726905,0
-0.82633948,-2.6628056,-0.62933779,-0.95658469,-0.014716148,-0.29108265,0
1.8168974,2.5729771,-3.1241236,0.13186413,0.86880732,-0.47726905,0
-1.1466684,-3.5708258,0.2195797,-0.95658469,-0.014716148,-0.29108265,0
-1.0356129,-1.6434993,4.4191246,-0.25991833,0.49493158,0.82914722,0
1.3571602,3.4525383,-1.8340733,0.13186413,0.86880732,-0.47726905,0
-0.77831721,-1.230736,-1.2795423,-0.95658469,-0.014716148,-0.29108265,0
1.6414483,0.59856737,-1.5821887,0.95658469,0.014716148,0.29108265,0
-0.27843714,3.6319888,1.5227596,-0.25991833,0.49493158,0.82914722,0
-0.025644064,-3.4575207,2.4379129,-0.13186413,-0.86880732,0.47726905,0
1.0489787,2.4555681,-3.2983723,0.13186413,0.86880732,-0.47726905,0
0.22851956,-3.4735982,2.5235972,-0.13186413,-0.86880732,0.47726905,0
-0.4230662,1.1321979,-2.2310796,-0.95658469,-0.014716148,-0.29108265,0
-1.0403892,-3.4723945,1.7732291,-0.13186413,-0.86880732,0.47726905,0
0.92867064,-4.1545897,0.95455313,-0.13186413,-0.86880732,0.47726905,0
1.0581361,-0.9036507,-0.29267177,0.95658469,0.014716148,0.29108265,0
-1.4146116,-3.4220774,1.0403581,-0.95658469,-0.014716148,-0.29108265,0
1.2213289,2.4052896,-3.3345091,0.13186413,0.86880732,-0.47726905,0
-0.83947939,0.89502072,-0.47866094,-0.95658469,-0.014716148,-0.29108265,0
-0.67531347,-4.8087521,-0.97139239,-0.13186413,-0.86880732,0.47726905,0
0.3012116,-0.47631663,-3.3844433,0.25991833,-0.49493158,-0.82914722,0
0.041529417,1.4519337,2.8115001,-0.25991833,0.49493158,0.82914722,0
0.61649942,3.8365934,-1.3341339,0.13186413,0.86880732,-0.47726905,0
1.2496486,-4.2142887,-0.86356711,0.25991833,-0.49493158,-0.82914722,0
0.83099174,-4.7729187,-0.36554909,-0.13186413,-0.86880732,0.47726905,0
-0.27106285,-4.5647464,-1.139102,0.25991833,-0.49493158,-0.82914722,0
-0.69845128,4.2368708,-1.0042677,0.13186413,0.86880732,-0.47726905,0
-1.0786006,4.5751324,0.04509306,0.13186413,0.86880732,-0.47726905,0
-1.7326159,-1.8877392,4.3325872,-0.25991833,0.49493158,0.82914722,0
-1.2442389,-2.7514091,2.6180131,-0.13186413,-0.86880732,0.47726905,0
0.097853675,2.9963288,-3.2979224,0.13186413,0.86880732,-0.47726905,0
-1.2757337,-2.7554717,2.6506138,-0.13186413,-0.86880732,0.47726905,0
0.37547684,-5.0826392,-0.50810027,0.25991833,-0.49493158,-0.82914722,0
-1.1613255,-2.2566895,3.7972639,-0.13186413,-0.86880732,0.47726905,0
-0.051553562,-2.9230347,3.0638232,-0.13186413,-0.86880732,0.47726905,0
0.91901922,-2.7614284,0.45090759,0.95658469,0.014716148,0.29108265,0
-0.17201886,-2.6579809,3.4868302,-0.13186413,-0.86880732,0.47726905,0
1.4019191,3.5212216,-1.9667058,0.13186413,0.86880732,-0.47726905,0
-1.128545,-3.7725897,0.30267978,-0.95658469,-0.014716148,-0.29108265,0
0.62564802,0.16451275,-3.6341221,0.25991833,-0.49493158,-0.82914722,0
-0.37692523,2.0936892,2.3022034,-0.25991833,0.49493158,0.82914722,0
-1.9826188,-0.50025725,3.4895513,-0.25991833,0.49493158,0.82914722,0
0.69339919,-4.5571346,-0.10463524,-0.13186413,-0.86880732,0.47726905,0
1.6572475,2.215451,-3.5438724,0.13186413,0.86880732,-0.47726905,0
-0.76169062,-1.4637797,-0.94212615,-0.95658469,-0.014716148,-0.29108265,0
0.76133108,-2.0597248,-1.9672935,0.25991833,-0.49493158,-0.82914722,0
-1.803195,-0.1408093,2.1482515,-0.95658469,-0.014716148,-0.29108265,0
1.4870591,2.296721,-3.4164076,0.13186413,0.86880732,-0.47726905,0
2.1835384,1.7395713,-3.6955571,0.95658469,0.014716148,0.29108265,0
0.72328675,3.0250239,-2.2669277,0.13186413,0.86880732,-0.47726905,0
1.5297384,-0.29258919,-3.090729,0.25991833,-0.49493158,-0.82914722,0
-1.2184191,3.8826296,1.0000798,-0.25991833,0.49493158,0.82914722,0
0.70500708,4.5250807,0.79831767,0.95658469,0.014716148,0.29108265,0
-0.10535741,0.85110414,2.8922162,-0.25991833,0.49493158,0.82914722,0
-0.01242733,5.0350685,0.4448905,0.13186413,0.86880732,-0.47726905,0
1.9159507,0.95484948,-2.6763732,0.95658469,0.014716148,0.29108265,0
1.477844,2.0593622,-2.1831045,0.95658469,0.014716148,0.29108265,0
-0.13582134,-2.580425,-2.1941228,0.25991833,-0.49493158,-0.82914722,0
-0.96000171,-2.1084924,4.3237386,-0.13186413,-0.86880732,0.47726905,0
0.83227205,-1.6943905,-2.1158965,0.25991833,-0.49493158,-0.82914722,0
0.93819559,1.6232902,-4.39218,0.25991833,-0.49493158,-0.82914722,0
-1.7667625,-0.14936161,2.6098351,-0.95658469,-0.014716148,-0.29108265,0
0.097575188,4.0111418,-1.1284921,0.13186413,0.86880732,-0.47726905,0
0.088768244,-0.55527079,-3.1928842,0.25991833,-0.49493158,-0.82914722,0
-0.37968874,-3.3241436,-1.3563149,-0.95658469,-0.014716148,-0.29108265,0
1.3638114,2.4668469,-3.8844876,0.13186413,0.86880732,-0.47726905,0
-2.1111102,-1.9946518,3.5681612,-0.95658469,-0.014716148,-0.29108265,0
-2.0916996,-2.5506992,3.5208902,-0.13186413,-0.86880732,0.47726905,0
-0.66310263,-3.8508043,-1.2754267,-0.95658469,-0.014716148,-0.29108265,0
-1.4403038,1.9632628,1.1152283,-0.95658469,-0.014716148,-0.29108265,0
-0.68915439,-0.95810807,-1.7495458,-0.95658469,-0.014716148,-0.29108265,0
-0.66483855,-3.2512341,-1.5839375,-0.95658469,-0.014716148,-0.29108265,0
1.5417322,0.84682,-3.6744776,0.25991833,-0.49493158,-0.82914722,0
-0.57035542,3.8486314,-1.4264351,0.13186413,0.86880732,-0.47726905,0
0.58074284,-1.0596873,-2.589114,0.25991833,-0.49493158,-0.82914722,0
-0.1269002,3.270021,1.7885761,-0.25991833,0.49493158,0.82914722,0
0.60922813,4.0225086,-1.1841903,0.13186413,0.86880732,-0.47726905,0
-0.54031849,1.6077131,2.7014623,-0.25991833,0.49493158,0.82914722,0
0.23437214,-4.7206373,0.1403954,-0.13186413,-0.86880732,0.47726905,0
-1.6386721,1.8169749,2.2441008,-0.25991833,0.49493158,0.82914722,0
-0.010322332,0.3630431,-2.7377627,-0.95658469,-0.014716148,-0.29108265,0
-0.51368266,-2.6555858,3.1423454,-0.13186413,-0.86880732,0.47726905,0
1.5741408,-1.3095599,-2.2939231,0.95658469,0.014716148,0.29108265,0
0.2039125,-0.29869145,-3.316504,0.25991833,-0.49493158,-0.82914722,0
-0.41452777,-0.90790594,-1.5660332,-0.95658469,-0.014716148,-0.29108265,0
-0.090690613,1.351719,2.6328793,-0.25991833,0.49493158,0.82914722,0
-1.384738,3.0642455,0.68489856,-0.95658469,-0.014716148,-0.29108265,0
0.53911924,3.9794741,-1.0609639,0.13186413,0.86880732,-0.47726905,0
1.4885656,0.70385599,-1.9654889,0.95658469,0.014716148,0.29108265,0
0.50292826,-3.9316728,1.2216809,-0.13186413,-0.86880732,0.47726905,0
0.0006518364,1.3846418,2.8038464,-0.25991833,0.49493158,0.82914722,0
0.3168804,2.5739565,-3.566546,0.13186413,0.86880732,-0.47726905,0
0.12407446,0.77889419,-4.1986036,0.25991833,-0.49493158,-0.82914722,0
1.5354009,-0.87915492,-2.4426389,0.25991833,-0.49493158,-0.82914722,0
-1.5082238,0.12657738,1.6035168,-0.95658469,-0.014716148,-0.29108265,0
-1.5286506,-2.9893098,1.08799,-0.95658469,-0.014716148,-0.29108265,0
0.36104822,-5.0583811,-0.34545636,-0.13186413,-0.86880732,0.47726905,0
1.4066484,-4.5066314,-0.52864313,0.95658469,0.014716148,0.29108265,0
-1.9595494,-2.1833944,2.9350982,-0.95658469,-0.014716148,-0.29108265,0
-0.71283752,1.056152,-1.0575556,-0.95658469,-0.014716148,-0.29108265,0
0.68025017,4.3605804,-0.52379298,0.13186413,0.86880732,-0.47726905,0
1.2918174,2.8666391,-2.8229775,0.13186413,0.86880732,-0.47726905,0
1.7863071,-1.405785,-2.1551127,0.95658469,0.014716148,0.29108265,0
-0.044434786,-0.93614948,-2.8712616,0.25991833,-0.49493158,-0.82914722,0
-0.2414453,1.1679151,2.9881883,-0.25991833,0.49493158,0.82914722,0
0.53908801,-2.8921366,-1.5982985,0.25991833,-0.49493158,-0.82914722,0
-1.6073781,0.60907674,2.2064061,-0.95658469,-0.014716148,-0.29108265,0
-0.6901679,1.1380417,2.527637,-0.25991833,0.49493158,0.82914722,0
0.64517289,-1.6153402,1.4323756,0.95658469,0.014716148,0.29108265,0
-1.9581283,0.28209019,2.9976952,-0.25991833,0.49493158,0.82914722,0
0.13600016,3.8792355,1.3564516,-0.25991833,0.49493158,0.82914722,0
-0.67647874,-2.0100472,4.5122476,-0.13186413,-0.86880732,0.47726905,0
-1.871727,-2.1916647,2.3726168,-0.95658469,-0.014716148,-0.29108265,0
0.99725115,1.5748596,-4.4751801,0.25991833,-0.49493158,-0.82914722,0
-0.015707016,-4.5397639,-0.1277709,-0.13186413,-0.86880732,0.47726905,0
-1.2491851,0.57279992,0.93768984,-0.95658469,-0.014716148,-0.29108265,0
-0.030376434,-4.7238007,-0.071749449,-0.13186413,-0.86880732,0.47726905,0
-0.74184138,0.1990979,-1.4147576,-0.95658469,-0.014716148,-0.29108265,0
-0.19186258,-0.96906996,4.1537256,-0.25991833,0.49493158,0.82914722,0
0.11498106,-1.4585288,2.4454975,0.95658469,0.014716148,0.29108265,0
-1.3034368,-2.4835029,3.7451823,-0.13186413,-0.86880732,0.47726905,0
-0.043403998,2.8874602,-3.2349739,0.13186413,0.86880732,-0.47726905,0
-0.2916441,-3.3627069,-1.6370106,-0.95658469,-0.014716148,-0.29108265,0
-0.95381725,-1.0425309,0.38486373,-0.95658469,-0.014716148,-0.29108265,0
1.649804,-0.91881192,-2.0996294,0.95658469,0.014716148,0.29108265,0
1.3578169,0.75728285,-1.2003883,0.95658469,0.014716148,0.29108265,0
0.36062276,3.3037989,-2.2705281,0.13186413,0.86880732,-0.47726905,0
-0.9705565,-2.533426,3.5170512,-0.13186413,-0.86880732,0.47726905,0
0.24643266,2.0779915,-4.5182724,-0.95658469,-0.014716148,-0.29108265,0
-0.6027683,-2.4796,3.9286666,-0.13186413,-0.86880732,0.47726905,0
0.9137404,3.0263901,-0.35582781,0.95658469,0.014716148,0.29108265,0
2.2417245,0.85669398,-3.5965104,0.25991833,-0.49493158,-0.82914722,0
0.83510971,-3.2471347,-1.5865115,0.25991833,-0.49493158,-0.82914722,0
-0.073803902,1.4710987,-3.2492123,-0.95658469,-0.014716148,-0.29108265,0
0.68132734,-2.2460129,-1.8659835,0.25991833,-0.49493158,-0.82914722,0
0.86243773,-4.6965418,-0.22138691,-0.13186413,-0.86880732,0.47726905,0
-1.0736012,3.4055951,0.55129623,-0.95658469,-0.014716148,-0.29108265,0
-1.4030539,0.21019685,0.70267272,-0.95658469,-0.014716148,-0.29108265,0
-0.5586983,1.9941984,-1.2864349,-0.95658469,-0.014716148,-0.29108265,0
0.0081870556,0.44347656,-3.6645141,0.25991833,-0.49493158,-0.82914722,0
0.81453598,3.5957403,-1.4842598,0.13186413,0.86880732,-0.47726905,0
-1.5234289,1.0448015,2.2762611,-0.25991833,0.49493158,0.82914722,0
0.49628115,-4.3839865,0.20730066,-0.13186413,-0.86880732,0.47726905,0
-1.6747758,0.22330523,2.083672,-0.95658469,-0.014716148,-0.29108265,0
-1.8667065,-0.89516866,2.3942695,-0.95658469,-0.014716148,-0.29108265,0
1.5876384,1.4484774,-2.3648663,0.95658469,0.014716148,0.29108265,0
-0.74660373,-3.0497394,3.0012121,-0.13186413,-0.86880732,0.47726905,0
0.41281426,1.4406314,-4.2813935,0.25991833,-0.49493158,-0.82914722,0
-0.69215822,1.5443332,2.4106069,-0.25991833,0.49493158,0.82914722,0
-0.40126848,-0.1820178,3.8098755,-0.25991833,0.49493158,0.82914722,0
0.98912448,-1.7593979,0.93650579,0.95658469,0.014716148,0.29108265,0
1.7021651,0.75910199,-1.5728806,0.95658469,0.014716148,0.29108265,0
0.16822684,3.2611876,-2.4062452,0.13186413,0.86880732,-0.47726905,0
-1.8011203,-2.2610149,3.06738,-0.95658469,-0.014716148,-0.29108265,0
-0.47701764,-4.1209607,1.0172133,-0.13186413,-0.86880732,0.47726905,0
0.40776873,0.37168878,-3.6393387,0.25991833,-0.49493158,-0.82914722,0
-1.0719348,-2.5542164,3.4952221,-0.13186413,-0.86880732,0.47726905,0
0.98449945,-4.4254398,0.005427599,0.95658469,0.014716148,0.29108265,0
1.157974,-3.6398568,-0.95854199,0.25991833,-0.49493158,-0.82914722,0
-0.2852962,-3.6103139,1.8044891,-0.13186413,-0.86880732,0.47726905,0
-1.2679145,2.0305767,2.2194862,-0.25991833,0.49493158,0.82914722,0
-1.2474768,-2.8197932,2.7095332,-0.13186413,-0.86880732,0.47726905,0
-1.1231511,2.4163871,1.7210019,-0.25991833,0.49493158,0.82914722,0
-0.98196101,3.412123,1.1163535,-0.25991833,0.49493158,0.82914722,0
-0.84404451,-2.6886451,3.0926328,-0.13186413,-0.86880732,0.47726905,0
0.66963291,-4.0653429,1.1847832,-0.13186413,-0.86880732,0.47726905,0
1.5234519,1.8784533,-1.2078203,0.95658469,0.014716148,0.29108265,0
-0.38457966,4.6480713,0.91387486,-0.25991833,0.49493158,0.82914722,0
-0.39530611,-4.7115722,-0.41769242,-0.13186413,-0.86880732,0.47726905,0
-0.44666529,4.1922331,1.10834,-0.25991833,0.49493158,0.82914722,0
2.214273,2.1243486,-4.1097527,0.13186413,0.86880732,-0.47726905,0
1.5560029,-2.8405821,-1.242151,0.25991833,-0.49493158,-0.82914722,0
-0.65588599,-2.5205698,3.2566633,-0.13186413,-0.86880732,0.47726905,0
1.1240444,3.1019604,0.18955803,0.95658469,0.014716148,0.29108265,0
-0.92708445,-3.8824329,1.3005533,-0.13186413,-0.86880732,0.47726905,0
-0.85126877,-2.9859915,-0.3686533,-0.95658469,-0.014716148,-0.29108265,0
-0.017230511,-0.2985169,-2.6890926,-0.95658469,-0.014716148,-0.29108265,0
1.1762385,-0.63268173,-2.8220038,0.25991833,-0.49493158,-0.82914722,0
0.45275664,2.3201768,-3.7102728,0.13186413,0.86880732,-0.47726905,0
-0.075056076,0.20670977,-3.6039453,-0.95658469,-0.014716148,-0.29108265,0
-0.84576833,-1.7042087,-0.89511842,-0.95658469,-0.014716148,-0.29108265,0
1.2050105,2.1652822,-1.1705098,0.95658469,0.014716148,0.29108265,0
-0.24859452,1.4999653,2.6324019,-0.25991833,0.49493158,0.82914722,0
-0.07996738,-3.72189,1.7974172,-0.13186413,-0.86880732,0.47726905,0
-1.2553582,-3.3639083,1.9926443,-0.13186413,-0.86880732,0.47726905,0
0.36196613,-3.9643145,-1.0811846,0.25991833,-0.49493158,-0.82914722,0
1.4538481,2.5781925,-1.8980925,0.95658469,0.014716148,0.29108265,0
0.68198824,4.5033035,0.33533764,0.13186413,0.86880732,-0.47726905,0
-1.2822759,2.4189625,1.6061676,-0.25991833,0.49493158,0.82914722,0
1.1835774,3.5235634,-1.346601,0.13186413,0.86880732,-0.47726905,0
0.21440458,2.0112491,2.3243644,-0.25991833,0.49493158,0.82914722,0
-0.16863529,2.5750351,-2.631974,-0.95658469,-0.014716148,-0.29108265,0
-0.87007904,-3.8239584,0.84012055,-0.13186413,-0.86880732,0.47726905,0
-0.016408149,-2.7949772,3.1049256,-0.13186413,-0.86880732,0.47726905,0
-0.6069231,4.2849827,-0.42558599,0.13186413,0.86880732,-0.47726905,0
-1.9480692,-2.6201515,3.1051056,-0.13186413,-0.86880732,0.47726905,0
-0.12821436,-3.853188,-1.1383708,0.25991833,-0.49493158,-0.82914722,0
1.3045247,-0.77324367,-2.7220707,0.25991833,-0.49493158,-0.82914722,0
0.38622022,1.5665388,-4.291853,-0.95658469,-0.014716148,-0.29108265,0
-0.073696852,-0.10734892,3.1628878,0.95658469,0.014716148,0.29108265,0
-0.07514938,-2.7189026,3.0076368,-0.13186413,-0.86880732,0.47726905,0
-1.8129272,-0.19576263,3.3828669,-0.25991833,0.49493158,0.82914722,0
0.56147146,-2.7213786,-1.840077,0.25991833,-0.49493158,-0.82914722,0
-1.736436,-1.0161901,3.8359141,-0.25991833,0.49493158,0.82914722,0
-1.093848,-3.6328292,0.8661294,-0.95658469,-0.014716148,-0.29108265,0
0.15680337,4.2969151,-0.57296443,0.13186413,0.86880732,-0.47726905,0
1.5222931,1.5019616,-1.3879282,0.95658469,0.014716148,0.29108265,0
0.38647574,2.9557326,-2.6728513,0.13186413,0.86880732,-0.47726905,0
0.79340285,-0.32548672,0.96672845,0.95658469,0.014716148,0.29108265,0
0.24356318,-4.531847,0.18575144,-0.13186413,-0.86880732,0.47726905,0
1.5032679,2.9137647,-2.6368506,0.13186413,0.86880732,-0.47726905,0
-0.50654769,4.2965298,-0.94282103,0.13186413,0.86880732,-0.47726905,0
-0.44372272,-1.6036338,-1.9867914,-0.95658469,-0.014716148,-0.29108265,0
-0.052682042,-1.9906898,4.1451907,0.95658469,0.014716148,0.29108265,0
-1.0223593,-0.25020176,-0.34452254,-0.95658469,-0.014716148,-0.29108265,0
0.65309227,0.99329609,1.4501352,0.95658469,0.014716148,0.29108265,0
0.091428757,-3.8478243,1.4146729,-0.13186413,-0.86880732,0.47726905,0
-0.42320967,4.8252745,0.0060241222,0.13186413,0.86880732,-0.47726905,0
1.0769403,1.4802797,-3.9848499,0.25991833,-0.49493158,-0.82914722,0
-0.72337723,4.9262624,0.34678483,0.13186413,0.86880732,-0.47726905,0
0.64654136,0.42674303,-3.7066813,0.25991833,-0.49493158,-0.82914722,0
-1.7796087,-1.5451649,3.8239818,-0.25991833,0.49493158,0.82914722,0
-0.49977517,1.7883973,2.2910533,-0.25991833,0.49493158,0.82914722,0
-2.0270836,-0.85922718,2.880029,-0.95658469,-0.014716148,-0.29108265,0
1.5543385,-1.3147172,-2.3110695,0.25991833,-0.49493158,-0.82914722,0
-1.2209737,-2.7320635,3.1955876,-0.13186413,-0.86880732,0.47726905,0
1.6199675,-0.84944379,-1.5686224,0.95658469,0.014716148,0.29108265,0
0.28720737,1.6658964,2.7210176,0.95658469,0.014716148,0.29108265,0
0.78268909,1.5568795,1.0976906,0.95658469,0.014716148,0.29108265,0
1.6130953,2.515152,-3.7344041,0.13186413,0.86880732,-0.47726905,0
-0.57548547,4.2234988,-1.2318721,0.13186413,0.86880732,-0.47726905,0
0.90178633,3.0683188,0.345644,0.95658469,0.014716148,0.29108265,0
0.23274446,4.0934305,-0.6728425,0.13186413,0.86880732,-0.47726905,0
1.0611931,0.23831177,0.14497769,0.95658469,0.014716148,0.29108265,0
-1.6464605,-1.6484793,1.9619911,-0.95658469,-0.014716148,-0.29108265,0
1.3179621,3.5649846,-1.8393822,0.13186413,0.86880732,-0.47726905,0
0.90268505,-2.8802686,1.1696845,0.95658469,0.014716148,0.29108265,0
-0.43701148,-2.6135242,3.5897713,-0.13186413,-0.86880732,0.47726905,0
1.0204773,3.0933855,-0.36946416,0.95658469,0.014716148,0.29108265,0
0.44825792,4.7253284,0.55693197,0.13186413,0.86880732,-0.47726905,0
0.55483294,3.2627454,1.7106769,0.95658469,0.014716148,0.29108265,0
-1.2867429,-2.8911393,3.0417819,-0.13186413,-0.86880732,0.47726905,0
0.95578057,-1.466224,-0.094963521,0.95658469,0.014716148,0.29108265,0
1.7676805,-0.038560867,-3.2254386,0.25991833,-0.49493158,-0.82914722,0
0.94887733,-4.4227247,-0.54803681,0.25991833,-0.49493158,-0.82914722,0
1.5421371,2.4394133,-3.4016709,0.13186413,0.86880732,-0.47726905,0
1.8526471,-0.010457039,-2.0186362,0.95658469,0.014716148,0.29108265,0
-0.99009168,-1.8460395,4.329514,-0.25991833,0.49493158,0.82914722,0
0.16688247,-2.0813241,2.5625811,0.95658469,0.014716148,0.29108265,0
-0.95391226,-2.401794,0.26073325,-0.95658469,-0.014716148,-0.29108265,0
-0.61854279,-2.7674131,3.1163549,-0.13186413,-0.86880732,0.47726905,0
-1.0758734,1.1721704,2.7226763,-0.25991833,0.49493158,0.82914722,0
0.96037149,-4.3415437,-0.78269804,0.25991833,-0.49493158,-0.82914722,0
-0.49522281,2.9043422,1.5116146,-0.25991833,0.49493158,0.82914722,0
0.21363521,0.82547385,2.0588169,0.95658469,0.014716148,0.29108265,0
-0.66626298,0.25759855,-0.9352808,-0.95658469,-0.014716148,-0.29108265,0
0.63767493,0.37041852,1.3113332,0.95658469,0.014716148,0.29108265,0
0.36837411,0.75527382,-3.9321723,0.25991833,-0.49493158,-0.82914722,0
1.1929767,3.3354285,-1.7168629,0.13186413,0.86880732,-0.47726905,0
-0.72335529,-2.075614,-1.2318875,-0.95658469,-0.014716148,-0.29108265,0
1.5455847,3.213434,-2.2448688,0.13186413,0.86880732,-0.47726905,0
0.80427408,4.9298344,0.86006856,0.13186413,0.86880732,-0.47726905,0
0.76231575,0.61937463,1.2795122,0.95658469,0.014716148,0.29108265,0
-0.45927525,2.9101157,1.7726665,-0.25991833,0.49493158,0.82914722,0
1.5060236,1.565015,-4.2996469,0.25991833,-0.49493158,-0.82914722,0
-0.24957821,1.7620687,-2.6610866,-0.95658469,-0.014716148,-0.29108265,0
0.39787364,3.5047488,-1.7651,0.13186413,0.86880732,-0.47726905,0
-0.48752588,-2.9163082,2.981317,-0.13186413,-0.86880732,0.47726905,0
-0.85683441,4.4601717,-0.28475022,0.13186413,0.86880732,-0.47726905,0
-1.1861191,3.7589521,0.79747534,-0.25991833,0.49493158,0.82914722,0
-1.4337606,-2.5695639,1.7004802,-0.95658469,-0.014716148,-0.29108265,0
0.80332446,-3.3499582,1.020068,0.95658469,0.014716148,0.29108265,0
-0.54170394,-3.1337175,-1.1789479,-0.95658469,-0.014716148,-0.29108265,0
1.8085607,1.6879177,-2.4900537,0.95658469,0.014716148,0.29108265,0
0.90434098,-0.97519147,-2.7200255,0.25991833,-0.49493158,-0.82914722,0
0.91261148,-3.0419176,0.84573722,0.95658469,0.014716148,0.29108265,0
0.12257528,-1.7996783,-2.5410609,0.25991833,-0.49493158,-0.82914722,0
-1.0669641,4.2505803,0.64659929,-0.25991833,0.49493158,0.82914722,0
-1.575762,1.1549171,2.5197394,-0.25991833,0.49493158,0.82914722,0
-0.10202503,5.0196738,0.31061125,0.13186413,0.86880732,-0.47726905,0
-0.77026796,-2.7958341,3.2191255,-0.13186413,-0.86880732,0.47726905,0
0.54208159,2.9210105,-2.7663693,0.13186413,0.86880732,-0.47726905,0
1.1442426,-1.6946807,-0.30679882,0.95658469,0.014716148,0.29108265,0
0.79105842,2.3938494,-4.0762377,0.13186413,0.86880732,-0.47726905,0
2.0211399,1.1189747,-3.5938709,0.95658469,0.014716148,0.29108265,0
-1.2855066,1.8737822,0.43401748,-0.95658469,-0.014716148,-0.29108265,0
-0.95540768,-2.5496364,3.2886543,-0.13186413,-0.86880732,0.47726905,0
-0.20559692,-1.4851719,-2.5581992,0.25991833,-0.49493158,-0.82914722,0
0.92093444,3.8652892,-0.72058296,0.13186413,0.86880732,-0.47726905,0
-0.41464233,-4.8413858,-0.75761437,0.25991833,-0.49493158,-0.82914722,0
1.4848719,-1.2600137,-2.3009467,0.25991833,-0.49493158,-0.82914722,0
0.028218746,-4.5993657,-0.90138006,0.25991833,-0.49493158,-0.82914722,0
-1.0539668,2.7838323,1.4967741,-0.25991833,0.49493158,0.82914722,0
-1.0222073,0.61333382,2.9257329,-0.25991833,0.49493158,0.82914722,0
0.0012749434,3.2383571,-2.1647224,0.13186413,0.86880732,-0.47726905,0
0.45976889,-3.3703365,2.4312408,-0.13186413,-0.86880732,0.47726905,0
1.7330015,0.69377077,-2.376539,0.95658469,0.014716148,0.29108265,0
1.263236,2.8918867,-3.144918,0.13186413,0.86880732,-0.47726905,0
0.037588835,4.4839101,-0.2752738,0.13186413,0.86880732,-0.47726905,0
-1.4777575,-2.6500492,2.7942135,-0.13186413,-0.86880732,0.47726905,0
0.55104089,2.6141653,-3.1812556,0.13186413,0.86880732,-0.47726905,0
-1.5406278,-1.9101282,4.2067308,-0.25991833,0.49493158,0.82914722,0
-1.1734737,-3.5039136,1.5026219,-0.13186413,-0.86880732,0.47726905,0
2.0860977,1.4594572,-3.6502614,0.25991833,-0.49493158,-0.82914722,0
-0.95458674,3.6370673,-0.42155385,-0.95658469,-0.014716148,-0.29108265,0
-0.25390577,5.0628943,0.63820148,0.13186413,0.86880732,-0.47726905,0
1.0531104,3.930985,-0.90708065,0.95658469,0.014716148,0.29108265,0
-1.8861243,-2.272738,3.9214242,-0.13186413,-0.86880732,0.47726905,0
-1.4202937,-3.2609715,2.3572264,-0.13186413,-0.86880732,0.47726905,0
-1.3860819,0.53488517,3.072561,-0.25991833,0.49493158,0.82914722,0
1.7079313,2.825278,-2.6449642,0.13186413,0.86880732,-0.47726905,0
0.27887058,-0.016202509,-3.7589562,0.25991833,-0.49493158,-0.82914722,0
-1.3749645,2.745626,0.39108789,-0.95658469,-0.014716148,-0.29108265,0
-0.02533102,4.0307779,1.4014698,-0.25991833,0.49493158,0.82914722,0
-0.40967035,-3.4704561,1.919982,-0.13186413,-0.86880732,0.47726905,0
-1.1761755,-0.34363413,3.5396547,-0.25991833,0.49493158,0.82914722,0
0.41207606,2.7859445,-3.2719679,0.13186413,0.86880732,-0.47726905,0
0.5734756,4.052897,-1.1262722,0.13186413,0.86880732,-0.47726905,0
0.016034603,2.3432112,2.3634281,-0.25991833,0.49493158,0.82914722,0
0.63294482,0.3247568,1.8032374,0.95658469,0.014716148,0.29108265,0
0.012073517,3.9311156,-0.91168356,0.13186413,0.86880732,-0.47726905,0
-0.86459994,3.3717318,-0.52585852,-0.95658469,-0.014716148,-0.29108265,0
1.9015393,2.7872338,-3.1574686,0.13186413,0.86880732,-0.47726905,0
-0.556005,-1.9277717,4.3350792,-0.13186413,-0.86880732,0.47726905,0
1.1503067,-3.4225152,-1.1023281,0.25991833,-0.49493158,-0.82914722,0
0.87968695,-1.043308,0.51981622,0.95658469,0.014716148,0.29108265,0
0.63609707,-1.574478,1.5763526,0.95658469,0.014716148,0.29108265,0
-0.69925952,2.7916024,1.8794091,-0.25991833,0.49493158,0.82914722,0
-1.6106462,0.54255915,3.0060213,-0.25991833,0.49493158,0.82914722,0
-0.052813053,0.36238006,3.3089116,0.95658469,0.014716148,0.29108265,0
-0.018808007,-3.7222962,1.8201433,-0.13186413,-0.86880732,0.47726905,0
0.28340864,2.5187821,2.0418372,-0.25991833,0.49493158,0.82914722,0
0.10774064,-4.4244061,0.31460524,-0.13186413,-0.86880732,0.47726905,0
0.33040905,0.73157519,-3.7652302,0.25991833,-0.49493158,-0.82914722,0
-0.93210411,4.2003284,-0.6223619,-0.95658469,-0.014716148,-0.29108265,0
1.5857828,0.71035159,-3.3423092,0.25991833,-0.49493158,-0.82914722,0
-0.97862434,4.2542381,0.10781264,-0.95658469,-0.014716148,-0.29108265,0
0.85950744,-1.575274,0.073062778,0.95658469,0.014716148,0.29108265,0
-0.26582909,-0.50822997,-1.9456513,-0.95658469,-0.014716148,-0.29108265,0
1.5419643,2.0087044,-4.1929917,0.25991833,-0.49493158,-0.82914722,0
-0.7308476,-2.903188,-1.5543019,-0.95658469,-0.014716148,-0.29108265,0
0.68301487,4.0860624,-0.88750553,0.13186413,0.86880732,-0.47726905,0
0.6565094,-2.9360938,-1.4761779,0.25991833,-0.49493158,-0.82914722,0
1.1526027,-3.8420382,-0.52996385,0.95658469,0.014716148,0.29108265,0
0.90538204,3.521796,-1.5897734,0.13186413,0.86880732,-0.47726905,0
-1.7062181,-0.13431597,3.154583,-0.25991833,0.49493158,0.82914722,0
0.064906597,-4.277771,0.24276757,-0.13186413,-0.86880732,0.47726905,0
0.20271707,-4.689548,0.30484462,-0.13186413,-0.86880732,0.47726905,0
1.3376697,3.516711,-1.1789191,0.95658469,0.014716148,0.29108265,0
-1.3443722,1.8176408,0.29435858,-0.95658469,-0.014716148,-0.29108265,0
-0.9451015,1.3726242,2.3422303,-0.25991833,0.49493158,0.82914722,0
-1.4859755,3.1098783,1.1749563,-0.25991833,0.49493158,0.82914722,0
1.3103836,-0.68212008,-2.6600008,0.25991833,-0.49493158,-0.82914722,0
2.0222185,2.1799183,-3.5355067,0.95658469,0.014716148,0.29108265,0
1.3177046,2.6040416,-3.5200396,0.13186413,0.86880732,-0.47726905,0
0.64786434,-4.0396299,-1.1940358,0.25991833,-0.49493158,-0.82914722,0
-1.3737046,-3.8647025,1.3030064,-0.13186413,-0.86880732,0.47726905,0
-1.4431777,3.4784415,0.8741101,-0.25991833,0.49493158,0.82914722,0
0.81011575,-0.7335217,1.0414333,0.95658469,0.014716148,0.29108265,0
-1.6071278,1.5987909,1.3535694,-0.95658469,-0.014716148,-0.29108265,0
0.76486945,-3.232625,-1.480535,0.25991833,-0.49493158,-0.82914722,0
-1.0389991,-3.0216043,2.5178282,-0.13186413,-0.86880732,0.47726905,0
-1.2293444,2.3443761,1.8453748,-0.25991833,0.49493158,0.82914722,0
0.81036663,-2.7579346,-1.612952,0.25991833,-0.49493158,-0.82914722,0
-0.033231139,-1.9896516,4.0047655,0.95658469,0.014716148,0.29108265,0
0.88866305,4.3382759,-0.15238357,0.13186413,0.86880732,-0.47726905,0
0.8424437,4.1419849,-0.74549556,0.13186413,0.86880732,-0.47726905,0
1.215506,3.1934855,-1.916997,0.13186413,0.86880732,-0.47726905,0
1.9337314,1.0611794,-3.3457487,0.95658469,0.014716148,0.29108265,0
-0.53460908,4.3961544,-0.83161092,0.13186413,0.86880732,-0.47726905,0
-0.67390251,-4.7257447,-0.69735169,-0.13186413,-0.86880732,0.47726905,0
0.45731497,-4.1589265,-1.2240965,0.25991833,-0.49493158,-0.82914722,0
-0.0049512386,-4.2467275,0.55965161,-0.13186413,-0.86880732,0.47726905,0
1.2564204,-1.0150999,-2.6238122,0.25991833,-0.49493158,-0.82914722,0
0.90454578,4.8857856,0.54396892,0.13186413,0.86880732,-0.47726905,0
0.1608851,-4.2437053,1.083936,-0.13186413,-0.86880732,0.47726905,0
1.0178274,2.5988162,-3.2034609,0.13186413,0.86880732,-0.47726905,0
-1.2999725,-1.464264,4.2494121,-0.25991833,0.49493158,0.82914722,0
0.65262818,-2.9385085,0.97171843,0.95658469,0.014716148,0.29108265,0
-0.48923755,2.2001169,2.3456903,-0.25991833,0.49493158,0.82914722,0
-1.051554,-4.2241282,0.32491851,-0.13186413,-0.86880732,0.47726905,0
-0.71664882,0.46333694,3.3163757,-0.25991833,0.49493158,0.82914722,0
1.5681732,-1.4487131,-2.2425425,0.25991833,-0.49493158,-0.82914722,0
-1.1185873,-3.6100659,-0.18198514,-0.95658469,-0.014716148,-0.29108265,0
0.69150591,4.4716792,0.18635798,0.13186413,0.86880732,-0.47726905,0
-1.0000811,4.325634,-0.13355708,-0.95658469,-0.014716148,-0.29108265,0
0.99076104,4.0809102,-0.43577695,0.13186413,0.86880732,-0.47726905,0
-0.99379146,-1.8834232,4.6218786,-0.25991833,0.49493158,0.82914722,0
0.40460896,3.0830564,1.3444872,0.95658469,0.014716148,0.29108265,0
1.716671,2.7839074,-2.0229976,0.95658469,0.014716148,0.29108265,0
-1.2411163,-2.7401178,3.4622045,-0.13186413,-0.86880732,0.47726905,0
1.2329032,-2.9552283,-1.3832538,0.25991833,-0.49493158,-0.82914722,0
-0.14390063,0.62136817,3.1715114,-0.25991833,0.49493158,0.82914722,0
1.1452477,-0.398139,-2.9317684,0.25991833,-0.49493158,-0.82914722,0
-0.39208984,4.0354972,-0.75258207,0.13186413,0.86880732,-0.47726905,0
0.29226762,-1.2283403,2.3459215,0.95658469,0.014716148,0.29108265,0
1.5010015,2.6836796,-2.9028244,0.13186413,0.86880732,-0.47726905,0
0.10204417,3.1021855,-2.5819452,0.13186413,0.86880732,-0.47726905,0
-1.3832633,-4.0683131,0.65937734,-0.95658469,-0.014716148,-0.29108265,0
0.39523435,2.0621471,1.6567417,0.95658469,0.014716148,0.29108265,0
0.2564683,-4.4912195,-0.82483315,0.25991833,-0.49493158,-0.82914722,0
1.1700611,-3.5090225,0.1263535,0.95658469,0.014716148,0.29108265,0
-0.33605742,-2.8725846,2.7201018,-0.13186413,-0.86880732,0.47726905,0
1.6083044,0.13609588,-1.3067912,0.95658469,0.014716148,0.29108265,0
1.6361036,0.32876182,-3.1670628,0.25991833,-0.49493158,-0.82914722,0
-0.039697409,-1.0825636,-2.7815537,0.25991833,-0.49493158,-0.82914722,0
0.067307472,1.7335806,2.529284,-0.25991833,0.49493158,0.82914722,0
1.6488513,2.247051,-4.1511812,0.13186413,0.86880732,-0.47726905,0
0.44062924,2.1165783,1.7399557,0.95658469,0.014716148,0.29108265,0
-0.52721786,-3.1666422,-1.9103732,0.25991833,-0.49493158,-0.82914722,0
-1.6715082,-0.19303226,3.4141545,-0.25991833,0.49493158,0.82914722,0
-0.25326777,0.54431093,-2.6604278,-0.95658469,-0.014716148,-0.29108265,0
0.21235606,-2.7765775,3.1218753,-0.13186413,-0.86880732,0.47726905,0
1.3790115,3.1596994,-1.1659627,0.95658469,0.014716148,0.29108265,0
0.1050756,3.9973564,-1.130765,0.13186413,0.86880732,-0.47726905,0
0.92420244,0.36087346,-3.7848153,0.25991833,-0.49493158,-0.82914722,0
1.0227368,4.1682158,-0.43809938,0.13186413,0.86880732,-0.47726905,0
-0.99553323,3.1937318,1.4612768,-0.25991833,0.49493158,0.82914722,0
0.78691006,-3.1420684,0.96689141,0.95658469,0.014716148,0.29108265,0
1.859328,2.0307622,-4.3991222,0.25991833,-0.49493158,-0.82914722,0
-0.64927554,4.6590204,-0.27166009,0.13186413,0.86880732,-0.47726905,0
0.9211309,-4.5092516,0.34237051,-0.13186413,-0.86880732,0.47726905,0
0.34123373,-4.1686177,0.98291874,-0.13186413,-0.86880732,0.47726905,0
-0.14097452,-4.3982811,-0.86603951,0.25991833,-0.49493158,-0.82914722,0
-0.40644121,-2.3671966,-1.6974773,-0.95658469,-0.014716148,-0.29108265,0
0.49200296,4.4566059,0.28479314,0.13186413,0.86880732,-0.47726905,0
-0.35023969,2.3521919,-2.0101132,-0.95658469,-0.014716148,-0.29108265,0
1.3403898,3.0969884,-0.70977378,0.95658469,0.014716148,0.29108265,0
1.4500232,-2.6660595,-1.601088,0.25991833,-0.49493158,-0.82914722,0
-0.029400826,2.3521612,2.2404029,-0.25991833,0.49493158,0.82914722,0
-1.0596852,-2.8792951,2.6897886,-0.13186413,-0.86880732,0.47726905,0
-0.42557144,-4.8017979,-0.085587502,-0.13186413,-0.86880732,0.47726905,0
1.50351,-1.2281388,-0.93817735,0.95658469,0.014716148,0.29108265,0
-1.4725192,-2.4433379,2.1012006,-0.95658469,-0.014716148,-0.29108265,0
-0.51429355,-2.0653684,4.4640045,-0.13186413,-0.86880732,0.47726905,0
-0.30605316,3.4468393,1.4804339,-0.25991833,0.49493158,0.82914722,0
1.4268191,2.438623,-1.4491453,0.95658469,0.014716148,0.29108265,0
-1.1308496,-3.7892401,1.5698471,-0.13186413,-0.86880732,0.47726905,0
-0.70927358,0.64348948,3.127521,-0.25991833,0.49493158,0.82914722,0
0.96311837,2.2197411,-4.2921066,0.13186413,0.86880732,-0.47726905,0
1.0515649,-1.6406548,-0.35935676,0.95658469,0.014716148,0.29108265,0
-1.0999515,0.45408726,0.49823356,-0.95658469,-0.014716148,-0.29108265,0
-1.310951,-2.2784586,3.4806993,-0.13186413,-0.86880732,0.47726905,0
0.52670586,0.86146569,1.6459539,0.95658469,0.014716148,0.29108265,0
1.1227164,-2.0199296,-0.70566726,0.95658469,0.014716148,0.29108265,0
0.17665863,3.5935366,1.7002932,-0.25991833,0.49493158,0.82914722,0
-0.31689548,-2.9839015,-1.9540238,0.25991833,-0.49493158,-0.82914722,0
0.4899233,-1.5797551,1.7706664,0.95658469,0.014716148,0.29108265,0
0.83502579,-1.320528,-2.5136964,0.25991833,-0.49493158,-0.82914722,0
1.4202505,1.3662215,-3.818224,0.25991833,-0.49493158,-0.82914722,0
-0.59740108,2.3424087,-1.4589436,-0.95658469,-0.014716148,-0.29108265,0
-1.0295982,-1.4924645,-0.40391529,-0.95658469,-0.014716148,-0.29108265,0
0.26492625,3.0501132,-2.8579535,0.13186413,0.86880732,-0.47726905,0
-1.3607334,-2.6480565,1.6234055,-0.95658469,-0.014716148,-0.29108265,0
-0.66412652,-0.054668188,-0.89303899,-0.95658469,-0.014716148,-0.29108265,0
0.34393311,2.5412741,2.3970249,-0.25991833,0.49493158,0.82914722,0
1.7256869,1.6212642,-2.922647,0.95658469,0.014716148,0.29108265,0
-0.13943571,-3.1384592,2.7917674,-0.13186413,-0.86880732,0.47726905,0
1.4118745,1.1231548,-1.8032693,0.95658469,0.014716148,0.29108265,0
-0.88288558,-3.4941697,1.3980949,-0.13186413,-0.86880732,0.47726905,0
0.67347884,4.0696816,0.60225892,0.95658469,0.014716148,0.29108265,0
-0.1135428,-3.7863498,1.2891834,-0.13186413,-0.86880732,0.47726905,0
1.1762834,-4.5257983,-0.69588673,0.25991833,-0.49493158,-0.82914722,0
0.24043989,4.7116857,0.053916693,0.13186413,0.86880732,-0.47726905,0
1.0489988,1.8206314,-4.4363456,0.13186413,0.86880732,-0.47726905,0
-1.4896281,-2.5061207,3.5076215,-0.13186413,-0.86880732,0.47726905,0
-0.42897773,-2.3317492,4.1836495,-0.13186413,-0.86880732,0.47726905,0
-0.092889786,-3.5259066,-1.6318214,0.25991833,-0.49493158,-0.82914722,0
-0.24865508,-1.998124,4.6452179,-0.13186413,-0.86880732,0.47726905,0
-0.91178894,1.775685,2.3810198,-0.25991833,0.49493158,0.82914722,0
1.0454658,1.1220696,-0.70115018,0.95658469,0.014716148,0.29108265,0
0.66074729,4.0078192,-1.1305838,0.13186413,0.86880732,-0.47726905,0
1.9183695,2.4206214,-3.6931095,0.13186413,0.86880732,-0.47726905,0
0.5021112,0.89181226,-3.8693125,0.25991833,-0.49493158,-0.82914722,0
-0.3811363,3.4839587,-1.7330776,0.13186413,0.86880732,-0.47726905,0
-1.4762427,1.6168879,1.5287597,-0.95658469,-0.014716148,-0.29108265,0
0.39351285,-3.8672588,1.7202682,-0.13186413,-0.86880732,0.47726905,0
0.55891418,-4.3701663,-0.85552156,0.25991833,-0.49493158,-0.82914722,0
-0.039098799,-3.0957747,2.8994448,-0.13186413,-0.86880732,0.47726905,0
-0.58637238,3.1374383,1.3551981,-0.25991833,0.49493158,0.82914722,0
0.89616501,0.25020456,-0.15309381,0.95658469,0.014716148,0.29108265,0
0.67337823,2.6537604,0.53186452,0.95658469,0.014716148,0.29108265,0
1.6242865,1.553793,-3.9152904,0.25991833,-0.49493158,-0.82914722,0
-0.46661305,0.74503267,2.89784,-0.25991833,0.49493158,0.82914722,0
-0.28797221,-4.2238531,0.90498281,-0.13186413,-0.86880732,0.47726905,0
-0.59773302,2.8184414,1.5732192,-0.25991833,0.49493158,0.82914722,0
-0.40890592,-2.5899479,3.94677,-0.13186413,-0.86880732,0.47726905,0
-1.0273296,2.5532563,-0.13194942,-0.95658469,-0.014716148,-0.29108265,0
-0.72616339,3.1097469,1.5182439,-0.25991833,0.49493158,0.82914722,0
-1.5464944,-2.6512146,2.8361497,-0.13186413,-0.86880732,0.47726905,0
-0.90241343,-3.3083258,2.1517725,-0.13186413,-0.86880732,0.47726905,0
0.69441438,1.0649416,0.68236125,0.95658469,0.014716148,0.29108265,0
1.1070812,4.0345545,-0.58703876,0.95658469,0.014716148,0.29108265,0
-0.54738045,4.8042107,0.73962259,-0.25991833,0.49493158,0.82914722,0
1.0327878,-1.5571818,-2.5764725,0.25991833,-0.49493158,-0.82914722,0
-1.0167732,-4.2904139,0.4576962,-0.13186413,-0.86880732,0.47726905,0
-1.1731275,2.0340128,0.64073759,-0.95658469,-0.014716148,-0.29108265,0
-1.4580226,-1.0309681,3.5828094,-0.25991833,0.49493158,0.82914722,0
-1.2214184,4.7702689,0.42840433,-0.25991833,0.49493158,0.82914722,0
-0.077402115,-0.68400675,-2.624464,-0.95658469,-0.014716148,-0.29108265,0
-0.040277839,2.7094619,-2.9531131,-0.95658469,-0.014716148,-0.29108265,0
1.1831543,0.58204687,-3.689847,0.25991833,-0.49493158,-0.82914722,0
1.3742961,0.73686087,-3.7184601,0.25991833,-0.49493158,-0.82914722,0
1.6208502,-0.99789393,-2.0225589,0.95658469,0.014716148,0.29108265,0
0.50153399,-4.9525156,-0.56342816,-0.13186413,-0.86880732,0.47726905,0
1.2043784,-3.466907,-1.3991141,0.25991833,-0.49493158,-0.82914722,0
-0.51768184,2.0918853,2.2734997,-0.25991833,0.49493158,0.82914722,0
1.9693325,1.3564489,-3.919435,0.25991833,-0.49493158,-0.82914722,0
-0.44453645,-1.535219,-1.2506404,-0.95658469,-0.014716148,-0.29108265,0
