-0.29052639,1.3664801,3.5720277,0.2045363,0.14203084,0.96849996,0
-0.94476098,-0.31137514,0.15160243,-0.91264623,-0.33004218,0.24114141,0
-1.6674329,-0.48169434,-2.5619709,-0.91264623,-0.33004218,0.24114141,0
-0.18394566,-3.5616925,-3.0742269,-0.2045363,-0.14203084,-0.96849996,0
1.3583887,-0.3082529,3.3876212,0.2045363,0.14203084,0.96849996,0
0.50031877,-1.8571916,-3.6362159,-0.2045363,-0.14203084,-0.96849996,0
-0.79718947,0.24414471,-3.677156,-0.2045363,-0.14203084,-0.96849996,0
-0.096251845,-2.55199,-3.080415,-0.2045363,-0.14203084,-0.96849996,0
-0.6250577,1.5457896,-3.7327993,-0.2045363,-0.14203084,-0.96849996,0
-1.289019,2.5684228,-2.8863368,-0.35389531,0.93321997,-0.062118277,0
-0.5538826,1.5802631,-3.6842222,-0.2045363,-0.14203084,-0.96849996,0
-0.64022672,0.99607813,3.4533539,-0.91264623,-0.33004218,0.24114141,0
-1.5220606,2.6014118,1.7837772,-0.35389531,0.93321997,-0.062118277,0
1.4503459,-2.4243469,3.7884238,0.35389531,-0.93321997,0.062118277,0
-0.40104923,-0.3983748,-3.5746155,-0.2045363,-0.14203084,-0.96849996,0
1.6342217,-1.8472192,-0.77729267,0.91264623,0.33004218,-0.24114141,0
-0.27955997,-0.29846239,-3.3299279,-0.2045363,-0.14203084,-0.96849996,0
-2.4876847,2.1445,-3.2119026,-0.35389531,0.93321997,-0.062118277,0
1.1501788,-2.6725509,-1.04198,0.35389531,-0.93321997,0.062118277,0
0.43899167,1.7302709,0.12140971,0.91264623,0.33004218,-0.24114141,0
0.93333828,-0.074026465,-0.97978199,0.91264623,0.33004218,-0.24114141,0
-1.3404272,0.57552433,0.67934799,-0.91264623,-0.33004218,0.24114141,0
-0.69805026,3.0906353,0.43706283,-0.35389531,0.93321997,-0.062118277,0
-0.19073236,-3.1334963,-0.12211445,-0.91264623,-0.33004218,0.24114141,0
0.68133366,3.1815848,2.4401324,0.91264623,0.33004218,-0.24114141,0
1.6980623,0.38796622,2.2003663,0.91264623,0.33004218,-0.24114141,0
0.045716703,-0.11767423,-3.4485044,-0.2045363,-0.14203084,-0.96849996,0
-0.052143574,-2.9759767,-3.2443585,-0.2045363,-0.14203084,-0.96849996,0
0.16737834,0.28879431,3.4643536,0.2045363,0.14203084,0.96849996,0
1.4851358,-2.0505705,-0.81677377,0.91264623,0.33004218,-0.24114141,0
2.0575647,-2.2400594,3.5360973,0.2045363,0.14203084,0.96849996,0
-1.7827034,2.4954233,-3.2971737,-0.35389531,0.93321997,-0.062118277,0
1.6043646,-2.4937274,1.1675293,0.35389531,-0.93321997,0.062118277,0
0.016423464,-3.0855138,-1.3521789,0.35389531,-0.93321997,0.062118277,0
-1.2442286,2.544313,-1.4374857,-0.35389531,0.93321997,-0.062118277,0
2.0029149,-2.3113723,-0.0079645216,0.91264623,0.33004218,-0.24114141,0
-0.36025906,-2.539885,-1.4727674,-0.91264623,-0.33004218,0.24114141,0
-0.17583835,-3.1164553,-2.9811382,-0.2045363,-0.14203084,-0.96849996,0
-0.9648217,2.0037098,-3.5438981,-0.2045363,-0.14203084,-0.96849996,0
-1.04822,-0.039654195,-3.3349478,-0.2045363,-0.14203084,-0.96849996,0
-0.13574338,3.3083239,3.0608232,0.2045363,0.14203084,0.96849996,0
-0.84708846,-1.7826383,-3.3313012,-0.2045363,-0.14203084,-0.96849996,0
-1.3391489,2.6272485,-3.3244436,-0.35389531,0.93321997,-0.062118277,0
0.94801027,-0.37138224,3.5098026,0.2045363,0.14203084,0.96849996,0
-2.2908769,0.95683688,-3.2324011,-0.91264623,-0.33004218,0.24114141,0
-1.7144539,2.4316216,-1.9956306,-0.35389531,0.93321997,-0.062118277,0
1.5807788,-2.7930074,-0.0037969649,0.35389531,-0.93321997,0.062118277,0
-0.6390003,-2.2472334,-3.1793113,-0.2045363,-0.14203084,-0.96849996,0
-0.48436511,-3.2506752,-2.7730098,-0.91264623,-0.33004218,0.24114141,0
1.2167877,-0.48919946,3.6182227,0.2045363,0.14203084,0.96849996,0
1.3213089,-2.5965493,-1.241742,0.35389531,-0.93321997,0.062118277,0
-1.5114042,1.7124249,-3.5287375,-0.2045363,-0.14203084,-0.96849996,0
-2.1476977,1.7759075,-0.98267597,-0.91264623,-0.33004218,0.24114141,0
1.0968409,-2.7978086,-1.3703243,0.35389531,-0.93321997,0.062118277,0
1.4808649,-2.671263,2.8389282,0.35389531,-0.93321997,0.062118277,0
0.20759487,-1.7995701,-3.5908046,-0.2045363,-0.14203084,-0.96849996,0
0.96180177,-3.1333354,-2.4571679,0.35389531,-0.93321997,0.062118277,0
-1.0142699,-1.3816497,-1.4761404,-0.91264623,-0.33004218,0.24114141,0
-1.211096,2.6339381,-3.146039,-0.35389531,0.93321997,-0.062118277,0
0.18616942,-0.033032477,-3.4443133,0.91264623,0.33004218,-0.24114141,0
1.4102963,-2.6811485,2.1171303,0.35389531,-0.93321997,0.062118277,0
-0.57893002,-2.5791221,-1.7324432,-0.91264623,-0.33004218,0.24114141,0
2.1191981,-1.6191018,3.2889547,0.2045363,0.14203084,0.96849996,0
1.8542224,0.21915275,2.555793,0.91264623,0.33004218,-0.24114141,0
0.68937993,-3.0868897,-0.73219299,0.35389531,-0.93321997,0.062118277,0
-0.34341443,-2.649698,-2.9972856,-0.2045363,-0.14203084,-0.96849996,0
1.2587065,0.32774889,0.98802418,0.91264623,0.33004218,-0.24114141,0
0.81114185,-1.1290321,-2.0257964,0.91264623,0.33004218,-0.24114141,0
1.7889473,-2.5348454,-1.0953584,0.35389531,-0.93321997,0.062118277,0
1.0409883,-2.7760565,0.74000275,0.35389531,-0.93321997,0.062118277,0
1.2571354,-2.9085133,-2.2182491,0.35389531,-0.93321997,0.062118277,0
0.64504802,0.85848653,-0.84392232,0.91264623,0.33004218,-0.24114141,0
-1.5547457,2.6587791,1.2391984,-0.35389531,0.93321997,-0.062118277,0
0.2151103,-1.9314066,-3.3297324,-0.2045363,-0.14203084,-0.96849996,0
-1.9706328,2.2372794,-2.8740652,-0.35389531,0.93321997,-0.062118277,0
-0.72913289,2.7276115,3.385334,0.2045363,0.14203084,0.96849996,0
0.83492076,-2.5590219,3.6110907,0.35389531,-0.93321997,0.062118277,0
1.3659543,-0.16525605,3.1816809,0.2045363,0.14203084,0.96849996,0
-0.32598948,3.2720304,2.331923,-0.35389531,0.93321997,-0.062118277,0
0.62204146,-2.9402046,-1.6474488,0.35389531,-0.93321997,0.062118277,0
1.2716924,-2.1367145,-2.9203758,0.91264623,0.33004218,-0.24114141,0
0.1774739,-1.7778279,-3.5904374,-0.2045363,-0.14203084,-0.96849996,0
-1.3452868,1.1241934,1.2102282,-0.91264623,-0.33004218,0.24114141,0
-0.15001607,-2.2224267,-3.0965848,-0.2045363,-0.14203084,-0.96849996,0
-0.12238276,1.4209691,3.3386574,0.2045363,0.14203084,0.96849996,0
-0.85147989,2.6112177,-2.9603159,-0.35389531,0.93321997,-0.062118277,0
0.040782064,-0.88479018,2.5707555,-0.91264623,-0.33004218,0.24114141,0
-1.3567243,-1.4431758,-2.3699288,-0.91264623,-0.33004218,0.24114141,0
-1.3213503,2.6010041,-3.429682,-0.35389531,0.93321997,-0.062118277,0
1.243557,-0.66432822,3.2604289,0.2045363,0.14203084,0.96849996,0
2.6644673,-2.1486235,2.9143748,0.35389531,-0.93321997,0.062118277,0
-2.2269747,1.4711962,-3.1709356,-0.2045363,-0.14203084,-0.96849996,0
1.0087245,0.014680579,3.4783068,0.2045363,0.14203084,0.96849996,0
0.55356979,-3.1838045,0.28764486,0.35389531,-0.93321997,0.062118277,0
-0.41126326,-0.85910547,-3.2643635,-0.2045363,-0.14203084,-0.96849996,0
1.5869759,-0.17669424,3.2951846,0.2045363,0.14203084,0.96849996,0
-1.439625,2.7347775,0.5887543,-0.35389531,0.93321997,-0.062118277,0
1.0018071,-0.16439006,-0.11391161,0.91264623,0.33004218,-0.24114141,0
-0.30476964,-3.2918913,-1.9130406,0.35389531,-0.93321997,0.062118277,0
-1.9052863,0.14513731,-2.3723764,-0.91264623,-0.33004218,0.24114141,0
-1.2345325,2.0037453,1.4954939,-0.91264623,-0.33004218,0.24114141,0
0.57374108,-2.7726107,0.34260428,0.35389531,-0.93321997,0.062118277,0
-2.6934977,2.0333104,-2.942071,-0.35389531,0.93321997,-0.062118277,0
1.1882926,-0.51507401,-0.77635121,0.91264623,0.33004218,-0.24114141,0
0.30329573,-0.82448137,-3.7376959,-0.2045363,-0.14203084,-0.96849996,0
-2.4334376,2.3104129,-2.438693,-0.35389531,0.93321997,-0.062118277,0
-1.0493605,2.6199372,-1.2165534,-0.35389531,0.93321997,-0.062118277,0
0.46676892,-0.24633607,-3.4739532,0.91264623,0.33004218,-0.24114141,0
0.75598007,1.8370974,3.1651719,0.2045363,0.14203084,0.96849996,0
0.74340808,-2.343255,3.6119084,0.2045363,0.14203084,0.96849996,0
-1.3685076,2.4706142,-2.4370332,-0.35389531,0.93321997,-0.062118277,0
2.2927213,-1.3034532,2.4766719,0.91264623,0.33004218,-0.24114141,0
0.72074974,-2.1680689,3.9809093,0.2045363,0.14203084,0.96849996,0
1.4969336,-2.1668355,3.4708767,0.2045363,0.14203084,0.96849996,0
0.60027862,-0.28180081,-3.0522215,0.91264623,0.33004218,-0.24114141,0
1.2146642,0.79293346,2.1838436,0.91264623,0.33004218,-0.24114141,0
1.6442677,-1.8541048,-1.1605489,0.91264623,0.33004218,-0.24114141,0
0.32889986,3.5959418,2.8217463,-0.35389531,0.93321997,-0.062118277,0
-0.10754681,1.2158201,-2.2974215,0.91264623,0.33004218,-0.24114141,0
1.3377519,0.778023,3.3174398,0.2045363,0.14203084,0.96849996,0
-0.14516032,1.5821359,3.3357251,0.2045363,0.14203084,0.96849996,0
-0.77058208,2.5629339,-2.7943068,-0.35389531,0.93321997,-0.062118277,0
0.95903718,-2.760783,3.6799552,0.2045363,0.14203084,0.96849996,0
0.87830448,-0.44691777,3.5288723,0.2045363,0.14203084,0.96849996,0
-0.1465795,-3.4006717,-2.541805,0.35389531,-0.93321997,0.062118277,0
-2.0871153,1.2171551,-3.4895053,-0.2045363,-0.14203084,-0.96849996,0
0.94316363,-3.2005434,-2.9854877,0.35389531,-0.93321997,0.062118277,0
-0.10123229,-1.0251083,-3.6260605,-0.2045363,-0.14203084,-0.96849996,0
1.5502851,-0.82393736,1.1614925,0.91264623,0.33004218,-0.24114141,0
0.86101627,-2.9664667,-2.8187461,0.35389531,-0.93321997,0.062118277,0
0.48637843,-3.0910525,-1.6169221,0.35389531,-0.93321997,0.062118277,0
-0.17444211,0.83496714,3.6565285,0.2045363,0.14203084,0.96849996,0
0.11992347,-2.9834538,-0.19059527,0.35389531,-0.93321997,0.062118277,0
-0.88772732,0.76899207,1.1293309,-0.91264623,-0.33004218,0.24114141,0
-1.3225315,1.5186089,-3.4340048,-0.2045363,-0.14203084,-0.96849996,0
0.63642442,0.0065565705,-2.4268222,0.91264623,0.33004218,-0.24114141,0
0.42971307,0.050037712,-1.7402358,0.91264623,0.33004218,-0.24114141,0
1.0153601,-2.5370691,1.4197603,0.35389531,-0.93321997,0.062118277,0
0.32692564,-0.21098074,-2.9094431,0.91264623,0.33004218,-0.24114141,0
-2.2056611,1.090505,-2.0004246,-0.91264623,-0.33004218,0.24114141,0
-0.59260321,2.1800017,-3.0617826,0.91264623,0.33004218,-0.24114141,0
1.6786591,-1.8628799,3.5505261,0.2045363,0.14203084,0.96849996,0
1.496176,-2.3215032,3.0879872,0.35389531,-0.93321997,0.062118277,0
-0.4540841,0.69858927,2.5770407,-0.91264623,-0.33004218,0.24114141,0
-1.4134204,0.27485034,-3.3872657,-0.2045363,-0.14203084,-0.96849996,0
0.035799146,3.1618929,-0.42222771,0.91264623,0.33004218,-0.24114141,0
1.8542067,-0.68984318,1.4397753,0.91264623,0.33004218,-0.24114141,0
1.3510373,1.4299126,2.7983787,0.91264623,0.33004218,-0.24114141,0
1.8226087,-2.2184305,2.5694981,0.35389531,-0.93321997,0.062118277,0
1.4372146,-2.7473996,-2.2424176,0.91264623,0.33004218,-0.24114141,0
0.25834876,1.5361639,3.3151715,0.2045363,0.14203084,0.96849996,0
0.18200976,1.2230747,-2.2790127,0.91264623,0.33004218,-0.24114141,0
-0.30635929,-2.2925072,-0.60942769,-0.91264623,-0.33004218,0.24114141,0
-1.5969361,1.6072989,-3.6047957,-0.2045363,-0.14203084,-0.96849996,0
-0.78833425,-1.7557199,-3.1431303,-0.2045363,-0.14203084,-0.96849996,0
1.7035801,-2.5577703,2.8919086,0.35389531,-0.93321997,0.062118277,0
1.5137939,-2.647155,0.32349148,0.35389531,-0.93321997,0.062118277,0
0.595783,-3.2786641,-1.8897649,0.35389531,-0.93321997,0.062118277,0
-0.7774719,1.49075,3.4798651,0.2045363,0.14203084,0.96849996,0
0.66288006,3.5021608,2.7049189,-0.35389531,0.93321997,-0.062118277,0
1.0145066,1.740397,3.0010743,0.2045363,0.14203084,0.96849996,0
1.5832613,-2.3070438,2.2491093,0.35389531,-0.93321997,0.062118277,0
1.0543513,-3.0333545,-2.385474,0.35389531,-0.93321997,0.062118277,0
-0.93592119,2.8545706,0.63680363,-0.35389531,0.93321997,-0.062118277,0
0.86953235,1.4426568,1.6920487,0.91264623,0.33004218,-0.24114141,0
0.55707675,-0.56313139,-3.5821357,0.91264623,0.33004218,-0.24114141,0
1.5967897,0.56062329,2.354166,0.91264623,0.33004218,-0.24114141,0
-1.014452,2.7966809,2.2944512,-0.35389531,0.93321997,-0.062118277,0
-0.36002809,0.66000533,2.8707902,-0.91264623,-0.33004218,0.24114141,0
2.4891222,-1.4943982,2.7288043,0.91264623,0.33004218,-0.24114141,0
-1.6669865,2.4060404,1.5164664,-0.91264623,-0.33004218,0.24114141,0
0.88731241,-0.51766545,-1.9639611,0.91264623,0.33004218,-0.24114141,0
-1.556344,2.5122509,-3.0036576,-0.35389531,0.93321997,-0.062118277,0
0.8732447,-1.2063545,3.5005124,0.2045363,0.14203084,0.96849996,0
-1.7369245,0.59602398,-2.0284488,-0.91264623,-0.33004218,0.24114141,0
-0.99863082,-2.9125533,-3.0630012,-0.2045363,-0.14203084,-0.96849996,0
-0.12739733,-0.0077915192,3.0831735,-0.91264623,-0.33004218,0.24114141,0
-0.053162575,1.3766056,3.5305297,0.2045363,0.14203084,0.96849996,0
-1.4567959,0.59898764,0.25498736,-0.91264623,-0.33004218,0.24114141,0
-1.2422748,0.60676903,-3.5609295,-0.2045363,-0.14203084,-0.96849996,0
0.83806002,-1.6777146,3.5428059,0.2045363,0.14203084,0.96849996,0
-0.69562531,2.9716203,0.86137033,-0.35389531,0.93321997,-0.062118277,0
0.72437829,1.7296823,3.1598647,0.2045363,0.14203084,0.96849996,0
2.4487689,-1.9947571,1.62868,0.91264623,0.33004218,-0.24114141,0
-2.111182,0.88769329,-2.8278809,-0.91264623,-0.33004218,0.24114141,0
-0.28593779,2.9451089,-0.84678143,-0.35389531,0.93321997,-0.062118277,0
0.55514395,3.2727838,2.2214527,0.91264623,0.33004218,-0.24114141,0
2.102277,-1.8822162,1.326138,0.91264623,0.33004218,-0.24114141,0
0.18596292,-1.5175847,2.6670742,-0.91264623,-0.33004218,0.24114141,0
-0.044420958,3.2773519,3.1863661,-0.35389531,0.93321997,-0.062118277,0
1.1902298,-0.21038198,3.5883262,0.2045363,0.14203084,0.96849996,0
-0.59425569,1.6962641,3.5493805,0.2045363,0.14203084,0.96849996,0
0.087038875,-2.3127956,0.87546301,-0.91264623,-0.33004218,0.24114141,0
-1.7672222,2.508446,1.6176622,-0.35389531,0.93321997,-0.062118277,0
1.9379745,-0.71016318,3.4389317,0.2045363,0.14203084,0.96849996,0
-0.13429773,2.9647601,-0.77267659,-0.35389531,0.93321997,-0.062118277,0
-0.92064464,2.5117178,-3.1844959,-0.35389531,0.93321997,-0.062118277,0
-0.55832613,0.25964993,2.2030377,-0.91264623,-0.33004218,0.24114141,0
-0.31682539,-1.222905,-3.339479,-0.2045363,-0.14203084,-0.96849996,0
-0.082385063,2.4189115,-1.478138,0.91264623,0.33004218,-0.24114141,0
2.4187226,-1.987347,2.3152373,0.35389531,-0.93321997,0.062118277,0
-0.47470698,-0.95991439,1.1502647,-0.91264623,-0.33004218,0.24114141,0
-0.32372093,-2.9997947,-3.0038147,-0.2045363,-0.14203084,-0.96849996,0
-0.029132485,-2.9994674,-0.38459888,-0.91264623,-0.33004218,0.24114141,0
2.0326352,-0.61965001,3.3163512,0.2045363,0.14203084,0.96849996,0
0.56780005,1.3396978,-0.10862112,0.91264623,0.33004218,-0.24114141,0
1.2702296,1.2441897,2.5493863,0.91264623,0.33004218,-0.24114141,0
-1.6927388,2.4674959,-1.8715677,-0.35389531,0.93321997,-0.062118277,0
-1.8846049,1.1428357,-3.2520347,-0.2045363,-0.14203084,-0.96849996,0
-1.5337048,2.7363431,0.20147407,-0.35389531,0.93321997,-0.062118277,0
-0.71210015,2.9761589,0.011648148,-0.35389531,0.93321997,-0.062118277,0
-0.15302241,2.8368561,-1.1654634,0.91264623,0.33004218,-0.24114141,0
-2.6083856,2.0262313,-2.9019203,-0.91264623,-0.33004218,0.24114141,0
-1.3559659,2.4744921,-2.7324376,-0.35389531,0.93321997,-0.062118277,0
1.4370811,-2.8938293,-0.29113096,0.35389531,-0.93321997,0.062118277,0
0.47010523,-1.6206923,3.9576573,0.2045363,0.14203084,0.96849996,0
-0.53729379,-3.3386114,-2.9208872,-0.2045363,-0.14203084,-0.96849996,0
1.9445771,-2.5186515,1.517153,0.35389531,-0.93321997,0.062118277,0
1.3916575,-2.7113647,2.6454608,0.35389531,-0.93321997,0.062118277,0
-0.60417485,0.010728598,1.9442061,-0.91264623,-0.33004218,0.24114141,0
-0.82806849,-0.85906953,0.17842904,-0.91264623,-0.33004218,0.24114141,0
0.69535685,-2.6513345,-3.4295995,-0.2045363,-0.14203084,-0.96849996,0
0.92639303,-3.065589,-3.1712115,0.35389531,-0.93321997,0.062118277,0
0.88042581,-2.8917911,0.19340751,0.35389531,-0.93321997,0.062118277,0
0.0037308335,-0.047008485,-3.3870621,0.91264623,0.33004218,-0.24114141,0
0.8760978,-2.6338758,3.7750533,0.2045363,0.14203084,0.96849996,0
-2.2791328,2.0208905,-0.95077431,-0.91264623,-0.33004218,0.24114141,0
0.528467,-1.3350875,3.7889593,0.2045363,0.14203084,0.96849996,0
-0.41212606,-3.3377886,-1.9879209,-0.91264623,-0.33004218,0.24114141,0
-2.3134465,1.0093594,-3.4698117,-0.2045363,-0.14203084,-0.96849996,0
-1.6701616,2.5223646,-3.6697676,-0.35389531,0.93321997,-0.062118277,0
0.12863716,-0.023257375,-3.5306602,0.91264623,0.33004218,-0.24114141,0
-0.15425149,-1.1464348,2.6985662,-0.91264623,-0.33004218,0.24114141,0
-1.6675366,-0.46566218,-2.5690002,-0.91264623,-0.33004218,0.24114141,0
0.31575084,-2.1016254,-3.4376481,-0.2045363,-0.14203084,-0.96849996,0
0.97595882,2.2309179,2.9561658,0.2045363,0.14203084,0.96849996,0
-0.32443607,3.0037153,0.54214293,-0.35389531,0.93321997,-0.062118277,0
1.7735236,-2.5053763,2.0668852,0.35389531,-0.93321997,0.062118277,0
1.6496189,-2.8547885,-1.196455,0.91264623,0.33004218,-0.24114141,0
1.5399339,-2.5456007,-0.050099969,0.35389531,-0.93321997,0.062118277,0
-0.79493725,1.9529808,3.1541436,-0.91264623,-0.33004218,0.24114141,0
-1.490132,2.4281263,-3.4269121,-0.35389531,0.93321997,-0.062118277,0
-1.8285005,2.5329015,-1.0708207,-0.35389531,0.93321997,-0.062118277,0
1.7157778,-2.0270276,-1.0216446,0.91264623,0.33004218,-0.24114141,0
-1.3312196,0.057059646,-1.1237792,-0.91264623,-0.33004218,0.24114141,0
-0.12759572,0.93082672,-3.5860109,-0.2045363,-0.14203084,-0.96849996,0
-0.59770191,2.9249699,-0.28055292,-0.35389531,0.93321997,-0.062118277,0
-0.71089542,-2.5245228,-3.1925898,-0.2045363,-0.14203084,-0.96849996,0
-1.8595999,0.71062791,-2.3042386,-0.91264623,-0.33004218,0.24114141,0
-0.59393346,3.0899963,-1.0679834,-0.35389531,0.93321997,-0.062118277,0
1.4273822,-1.7734712,-0.59455681,0.91264623,0.33004218,-0.24114141,0
0.89746618,-2.8500774,-2.1381538,0.35389531,-0.93321997,0.062118277,0
0.62953401,-2.9651854,-1.468954,0.35389531,-0.93321997,0.062118277,0
0.039298296,2.9339077,3.126647,0.2045363,0.14203084,0.96849996,0
-2.0475817,1.3150386,-1.4452237,-0.91264623,-0.33004218,0.24114141,0
0.72178936,-2.9507136,0.87622601,0.35389531,-0.93321997,0.062118277,0
0.8487311,0.16959314,3.5277133,0.2045363,0.14203084,0.96849996,0
1.1040125,-0.92770785,3.5002024,0.2045363,0.14203084,0.96849996,0
0.85721391,0.32551348,0.13073176,0.91264623,0.33004218,-0.24114141,0
-0.84207308,2.6380816,-3.2338009,-0.35389531,0.93321997,-0.062118277,0
0.48506689,1.9376855,-0.25051486,0.91264623,0.33004218,-0.24114141,0
0.56267202,-1.9308114,3.8758311,0.2045363,0.14203084,0.96849996,0
1.4988668,-1.2158211,-0.50958437,0.91264623,0.33004218,-0.24114141,0
-1.25349,3.0356934,2.4272718,-0.35389531,0.93321997,-0.062118277,0
-0.5563736,1.1228284,2.8456967,-0.91264623,-0.33004218,0.24114141,0
-0.73295283,1.59611,3.7011747,0.2045363,0.14203084,0.96849996,0
0.35709614,-1.6881453,2.5549533,-0.91264623,-0.33004218,0.24114141,0
0.40134072,-1.7684904,-3.4623933,-0.2045363,-0.14203084,-0.96849996,0
0.94120961,0.10539739,3.3910773,0.2045363,0.14203084,0.96849996,0
2.0347564,-1.6288834,3.5321527,0.2045363,0.14203084,0.96849996,0
-1.2485957,-1.5212274,-2.9565392,-0.91264623,-0.33004218,0.24114141,0
0.021692038,-3.4336505,-2.7810166,0.35389531,-0.93321997,0.062118277,0
0.45017028,2.7259524,0.62160218,0.91264623,0.33004218,-0.24114141,0
-0.82886195,2.6750271,3.5958676,0.2045363,0.14203084,0.96849996,0
-0.98443174,3.0217941,2.5346146,-0.35389531,0.93321997,-0.062118277,0
-1.9521635,2.574276,0.062383384,-0.35389531,0.93321997,-0.062118277,0
-0.67622209,2.884212,-0.99370265,-0.35389531,0.93321997,-0.062118277,0
1.1510354,-1.9115769,3.547164,0.2045363,0.14203084,0.96849996,0
1.3488709,-2.0730867,-1.1112577,0.91264623,0.33004218,-0.24114141,0
1.7092479,-2.5171962,2.0388327,0.35389531,-0.93321997,0.062118277,0
-0.044937551,1.0276679,3.3581755,0.2045363,0.14203084,0.96849996,0
-2.1921141,0.98471904,-3.1116424,-0.91264623,-0.33004218,0.24114141,0
-0.24829555,2.4064763,-1.2656623,0.91264623,0.33004218,-0.24114141,0
-0.43224597,2.8064349,-1.0142431,-0.35389531,0.93321997,-0.062118277,0
-1.4323345,-0.95788908,-3.2573726,-0.2045363,-0.14203084,-0.96849996,0
1.7697455,-1.6197009,1.1576715,0.91264623,0.33004218,-0.24114141,0
-1.134944,0.24190456,-3.5272067,-0.2045363,-0.14203084,-0.96849996,0
-2.107132,1.8676045,-1.0895822,-0.91264623,-0.33004218,0.24114141,0
-0.32689822,2.9723573,-1.6026778,-0.35389531,0.93321997,-0.062118277,0
0.63493264,1.7201794,0.55029267,0.91264623,0.33004218,-0.24114141,0
1.9093491,-1.2854137,1.5097141,0.91264623,0.33004218,-0.24114141,0
-2.0788002,1.1065034,-3.4762058,-0.2045363,-0.14203084,-0.96849996,0
-2.0225286,2.3238738,-1.8016276,-0.35389531,0.93321997,-0.062118277,0
1.5030794,-1.2935951,3.4673588,0.2045363,0.14203084,0.96849996,0
1.018898,-2.5032487,1.9217513,0.35389531,-0.93321997,0.062118277,0
1.3286567,-2.9223034,-2.3736458,0.35389531,-0.93321997,0.062118277,0
0.64007771,1.4682809,3.3015347,0.2045363,0.14203084,0.96849996,0
0.99514353,0.45350125,3.3131049,0.2045363,0.14203084,0.96849996,0
-0.79168248,3.1721871,3.3727221,0.2045363,0.14203084,0.96849996,0
0.54735118,-1.5568063,3.4768219,-0.91264623,-0.33004218,0.24114141,0
-0.67533183,-2.2703128,-3.2855434,-0.2045363,-0.14203084,-0.96849996,0
1.4585066,-2.8140755,0.17546117,0.35389531,-0.93321997,0.062118277,0
-0.54909414,-1.9414951,-3.2870579,-0.2045363,-0.14203084,-0.96849996,0
-2.1172168,1.922997,-3.3475568,-0.2045363,-0.14203084,-0.96849996,0
1.2770061,-2.7010076,0.63072085,0.35389531,-0.93321997,0.062118277,0
-1.6897614,0.84799349,-1.828897,-0.91264623,-0.33004218,0.24114141,0
-1.84565,1.1486166,-3.3855968,-0.2045363,-0.14203084,-0.96849996,0
-0.93049181,-0.84535325,-3.1506917,-0.2045363,-0.14203084,-0.96849996,0
-0.38483095,0.46433029,-3.4379106,-0.2045363,-0.14203084,-0.96849996,0
-0.33688748,-2.5321887,-0.38120848,-0.91264623,-0.33004218,0.24114141,0
-1.5334935,2.5616949,-0.66474921,-0.35389531,0.93321997,-0.062118277,0
-0.0045166016,-2.1022549,-3.277081,-0.2045363,-0.14203084,-0.96849996,0
-2.3179665,2.2388716,-2.7346017,-0.35389531,0.93321997,-0.062118277,0
-0.036224484,1.1536337,3.4307299,0.2045363,0.14203084,0.96849996,0
-1.7023013,0.50582135,-1.163691,-0.91264623,-0.33004218,0.24114141,0
-0.30356431,3.1351953,2.9768753,-0.35389531,0.93321997,-0.062118277,0
-1.391362,0.31208932,-3.226331,-0.2045363,-0.14203084,-0.96849996,0
0.49876988,-1.8436589,3.6511645,0.2045363,0.14203084,0.96849996,0
0.74066472,-2.8297448,0.84487236,0.35389531,-0.93321997,0.062118277,0
-0.71053129,1.4905822,-3.8408098,-0.2045363,-0.14203084,-0.96849996,0
0.58124971,-2.8046165,1.9237183,-0.91264623,-0.33004218,0.24114141,0
-0.30888176,2.2841105,-2.8138671,0.91264623,0.33004218,-0.24114141,0
-1.0638905,3.0303915,2.2241702,-0.35389531,0.93321997,-0.062118277,0
1.3567026,-2.600312,-1.0586472,0.35389531,-0.93321997,0.062118277,0
-1.4059598,2.8225508,2.4004073,-0.35389531,0.93321997,-0.062118277,0
-0.30413604,3.0089426,-1.6183583,0.91264623,0.33004218,-0.24114141,0
1.5516744,-2.4951754,-1.5493642,0.91264623,0.33004218,-0.24114141,0
1.0302813,-2.7778292,-0.77430928,0.35389531,-0.93321997,0.062118277,0
1.658783,0.36064416,2.3590648,0.91264623,0.33004218,-0.24114141,0
-1.5722044,0.59904766,-1.5906498,-0.91264623,-0.33004218,0.24114141,0
-0.72646046,-0.5970962,-0.069940083,-0.91264623,-0.33004218,0.24114141,0
-2.1876888,2.3221881,-1.948342,-0.35389531,0.93321997,-0.062118277,0
1.224301,-2.1971898,3.6169686,0.2045363,0.14203084,0.96849996,0
-0.42025313,-0.061331093,3.0974658,-0.91264623,-0.33004218,0.24114141,0
-0.57166868,0.74707729,2.9616868,-0.91264623,-0.33004218,0.24114141,0
-2.1537285,2.243427,-1.5570575,-0.91264623,-0.33004218,0.24114141,0
1.1925693,-2.0598478,3.7925246,0.2045363,0.14203084,0.96849996,0
-0.088087797,3.2422016,1.4193496,-0.35389531,0.93321997,-0.062118277,0
1.2672489,-2.9054623,-0.36758909,0.35389531,-0.93321997,0.062118277,0
0.15929413,-0.099544734,-3.644665,-0.2045363,-0.14203084,-0.96849996,0
-0.93733478,-0.11693859,0.16301291,-0.91264623,-0.33004218,0.24114141,0
-1.9283328,1.6473922,-1.2787526,-0.91264623,-0.33004218,0.24114141,0
0.0075390339,-3.2994285,-3.3203762,-0.2045363,-0.14203084,-0.96849996,0
-0.43097529,-0.48508915,-3.5834341,-0.2045363,-0.14203084,-0.96849996,0
1.5065732,-0.87047154,1.0909253,0.91264623,0.33004218,-0.24114141,0
0.92463171,-2.5199575,3.1674521,0.35389531,-0.93321997,0.062118277,0
0.15374684,3.2572598,3.0632277,0.2045363,0.14203084,0.96849996,0
1.0458379,-2.9596689,-0.39370692,0.35389531,-0.93321997,0.062118277,0
-1.40895,1.5583568,-3.4231081,-0.2045363,-0.14203084,-0.96849996,0
-1.4600463,1.6051708,-3.4952245,-0.2045363,-0.14203084,-0.96849996,0
-1.642839,2.6079812,1.5735873,-0.35389531,0.93321997,-0.062118277,0
-0.49037027,-2.5191236,-3.3213828,-0.2045363,-0.14203084,-0.96849996,0
-1.3915703,1.80694,-3.6386776,-0.2045363,-0.14203084,-0.96849996,0
1.0919837,-0.50295806,-0.14402083,0.91264623,0.33004218,-0.24114141,0
1.6262665,-2.580574,0.26295114,0.35389531,-0.93321997,0.062118277,0
-0.93005478,2.4419494,-3.9228029,-0.2045363,-0.14203084,-0.96849996,0
0.90309298,-2.4971757,3.4093442,-0.91264623,-0.33004218,0.24114141,0
-1.1783404,0.76287597,1.4822652,-0.91264623,-0.33004218,0.24114141,0
-0.63610905,-2.0821145,-1.7842677,-0.91264623,-0.33004218,0.24114141,0
-0.61013305,-2.704962,-1.6285558,-0.91264623,-0.33004218,0.24114141,0
0.3837418,0.5958308,3.2888908,0.2045363,0.14203084,0.96849996,0
-0.20078093,0.86852098,3.3455844,0.2045363,0.14203084,0.96849996,0
-1.7490194,1.8980787,-3.5622072,-0.2045363,-0.14203084,-0.96849996,0
0.15709424,-3.3191495,-2.2255552,0.35389531,-0.93321997,0.062118277,0
-0.74901116,2.1125007,-3.8579173,-0.2045363,-0.14203084,-0.96849996,0
0.81986225,1.6835852,3.0132732,0.2045363,0.14203084,0.96849996,0
-1.4756826,2.7581031,-0.60843265,-0.35389531,0.93321997,-0.062118277,0
-0.40643132,-3.0551198,-1.9488139,-0.91264623,-0.33004218,0.24114141,0
-2.0147967,1.9588118,-3.5652902,-0.2045363,-0.14203084,-0.96849996,0
-0.94417453,-0.43488845,-3.4891801,-0.2045363,-0.14203084,-0.96849996,0
-2.0069075,1.7637337,-0.30629605,-0.91264623,-0.33004218,0.24114141,0
-1.891188,2.4137239,-0.29192433,-0.35389531,0.93321997,-0.062118277,0
0.58237123,-3.3001599,-1.6242762,0.35389531,-0.93321997,0.062118277,0
-1.2731004,3.006052,3.4175196,-0.35389531,0.93321997,-0.062118277,0
-0.27880514,0.96811646,3.6143773,0.2045363,0.14203084,0.96849996,0
0.64867377,-2.674809,-3.1967835,-0.2045363,-0.14203084,-0.96849996,0
-2.0542197,0.70161104,-3.3257654,-0.91264623,-0.33004218,0.24114141,0
-0.19532013,3.1309774,1.8083458,-0.35389531,0.93321997,-0.062118277,0
1.9395545,-2.3818908,2.8926468,0.35389531,-0.93321997,0.062118277,0
1.4562079,-1.0286558,3.2692935,0.2045363,0.14203084,0.96849996,0
-1.0081176,2.2555022,2.9554546,-0.91264623,-0.33004218,0.24114141,0
-0.69043016,-1.5350852,-3.3900404,-0.2045363,-0.14203084,-0.96849996,0
0.034830749,-0.84746855,-3.5101686,-0.2045363,-0.14203084,-0.96849996,0
0.026136875,-3.4165425,-1.8364669,0.35389531,-0.93321997,0.062118277,0
-2.1972735,1.3207142,-3.1606743,-0.2045363,-0.14203084,-0.96849996,0
-1.184556,-1.6185867,-2.9971566,-0.2045363,-0.14203084,-0.96849996,0
0.63259351,0.57491422,-0.59027421,0.91264623,0.33004218,-0.24114141,0
1.3323172,1.3202082,3.0152304,0.91264623,0.33004218,-0.24114141,0
-1.7717669,2.055865,-0.2416634,-0.91264623,-0.33004218,0.24114141,0
1.1006188,-2.8567042,-0.077380419,0.35389531,-0.93321997,0.062118277,0
-0.89996028,2.8765025,0.70808089,-0.35389531,0.93321997,-0.062118277,0
0.87904429,-2.9240949,1.7298737,0.35389531,-0.93321997,0.062118277,0
-1.0849055,-0.71355689,-3.2124679,-0.2045363,-0.14203084,-0.96849996,0
0.47183192,2.6117826,1.3775361,0.91264623,0.33004218,-0.24114141,0
-0.36763,-3.2416778,-1.7934806,-0.91264623,-0.33004218,0.24114141,0
0.24122906,2.6469252,3.1371915,0.2045363,0.14203084,0.96849996,0
0.32318962,-2.9966331,0.77369499,0.35389531,-0.93321997,0.062118277,0
1.1366616,1.7050774,2.335681,0.91264623,0.33004218,-0.24114141,0
-2.0996025,0.91083992,-2.3004689,-0.91264623,-0.33004218,0.24114141,0
1.5465589,-2.8026288,-0.25550127,0.35389531,-0.93321997,0.062118277,0
-1.3202257,-0.21577543,-1.8026849,-0.91264623,-0.33004218,0.24114141,0
-1.4318845,-1.561913,-3.2469773,-0.2045363,-0.14203084,-0.96849996,0
0.11816871,0.99177706,3.2394848,0.2045363,0.14203084,0.96849996,0
-1.3329169,-0.36937785,-1.4909849,-0.91264623,-0.33004218,0.24114141,0
-0.18840182,1.7083762,3.5855443,0.2045363,0.14203084,0.96849996,0
-0.17733645,2.4387913,3.1956503,0.2045363,0.14203084,0.96849996,0
0.32494211,3.6097922,2.285816,-0.35389531,0.93321997,-0.062118277,0
-0.93994057,-1.3583868,-3.2922807,-0.2045363,-0.14203084,-0.96849996,0
1.0277196,-2.9050834,1.9152119,0.35389531,-0.93321997,0.062118277,0
1.5464404,-1.2037327,3.5145552,0.2045363,0.14203084,0.96849996,0
-0.28177571,3.3369746,1.6853539,-0.35389531,0.93321997,-0.062118277,0
0.090976357,2.3910844,3.1159277,0.2045363,0.14203084,0.96849996,0
-0.27673554,3.2158332,1.6283951,-0.35389531,0.93321997,-0.062118277,0
0.52264094,-2.9825623,0.95019066,0.35389531,-0.93321997,0.062118277,0
-0.14530432,-1.570085,1.1601453,-0.91264623,-0.33004218,0.24114141,0
-1.1241915,-0.89583647,-1.7676752,-0.91264623,-0.33004218,0.24114141,0
0.27920771,1.8606274,-0.73943305,0.91264623,0.33004218,-0.24114141,0
1.7226475,-2.3198073,0.45336884,0.35389531,-0.93321997,0.062118277,0
-1.791162,0.8825438,-3.4198356,-0.2045363,-0.14203084,-0.96849996,0
0.5958848,-3.0593195,-2.2892489,0.35389531,-0.93321997,0.062118277,0
-1.9629229,2.1972423,-1.3071465,-0.35389531,0.93321997,-0.062118277,0
-1.6707659,2.4702516,-0.95669061,-0.35389531,0.93321997,-0.062118277,0
-0.47642493,2.9635432,1.9580835,-0.35389531,0.93321997,-0.062118277,0
-0.41639459,-1.9949583,-0.39455763,-0.91264623,-0.33004218,0.24114141,0
-0.42475039,0.69831556,-3.4826336,-0.2045363,-0.14203084,-0.96849996,0
-0.68748087,0.82035267,3.0328951,-0.91264623,-0.33004218,0.24114141,0
-1.8100998,-0.54161471,-3.2042508,-0.2045363,-0.14203084,-0.96849996,0
0.084115028,-0.45040733,-3.5913372,-0.2045363,-0.14203084,-0.96849996,0
0.64877129,-3.1086297,-1.3817236,0.35389531,-0.93321997,0.062118277,0
-0.55538392,2.5826342,3.4912255,0.2045363,0.14203084,0.96849996,0
-0.45216787,2.2891068,3.3579171,0.2045363,0.14203084,0.96849996,0
0.73016751,-1.5973256,-3.7397687,-0.2045363,-0.14203084,-0.96849996,0
0.016389966,2.4327855,-0.11483243,0.91264623,0.33004218,-0.24114141,0
-1.3796588,2.8152444,-0.54051864,-0.35389531,0.93321997,-0.062118277,0
0.79204464,-2.9644437,-2.5719543,0.35389531,-0.93321997,0.062118277,0
2.0463789,-0.66919261,3.4465015,0.2045363,0.14203084,0.96849996,0
-1.2645464,2.7625396,1.2121016,-0.35389531,0.93321997,-0.062118277,0
0.71519852,-2.769423,-3.1990249,-0.2045363,-0.14203084,-0.96849996,0
-1.7487142,0.40750164,-3.4577863,-0.2045363,-0.14203084,-0.96849996,0
1.3142327,0.99814695,1.940019,0.91264623,0.33004218,-0.24114141,0
0.65366256,-1.2885005,-3.7357345,-0.2045363,-0.14203084,-0.96849996,0
-1.0456057,2.5227461,-1.2721137,-0.35389531,0.93321997,-0.062118277,0
-0.2612977,3.2182505,0.97770643,-0.35389531,0.93321997,-0.062118277,0
0.3681829,-3.0786412,-0.05032751,0.35389531,-0.93321997,0.062118277,0
0.056691825,1.972636,-1.7130915,0.91264623,0.33004218,-0.24114141,0
-0.99403995,1.1586466,-3.5404072,-0.2045363,-0.14203084,-0.96849996,0
1.5364771,-2.1775753,-2.030524,0.91264623,0.33004218,-0.24114141,0
-0.7745167,-0.79135638,-0.67176449,-0.91264623,-0.33004218,0.24114141,0
-1.3185768,1.1105778,0.20469943,-0.91264623,-0.33004218,0.24114141,0
-1.3420827,2.7799854,-1.1997395,-0.35389531,0.93321997,-0.062118277,0
-1.0154123,-0.91644365,-3.4687133,-0.2045363,-0.14203084,-0.96849996,0
0.26796055,3.4986885,2.8265371,-0.35389531,0.93321997,-0.062118277,0
0.90167487,-2.8270993,-0.13584763,0.35389531,-0.93321997,0.062118277,0
1.3950626,0.072716177,3.3114126,0.2045363,0.14203084,0.96849996,0
1.5974889,0.70479548,3.3005066,0.2045363,0.14203084,0.96849996,0
1.1679547,-2.794683,-0.99955297,0.35389531,-0.93321997,0.062118277,0
-1.1669655,2.6997671,-2.0332093,-0.35389531,0.93321997,-0.062118277,0
0.80859315,-2.9084005,1.2048249,0.35389531,-0.93321997,0.062118277,0
0.4337917,0.76628423,-1.7279457,0.91264623,0.33004218,-0.24114141,0
-1.8934627,1.3730575,-3.6091504,-0.2045363,-0.14203084,-0.96849996,0
-1.6304431,2.5322399,1.5592654,-0.91264623,-0.33004218,0.24114141,0
0.13405383,-1.7676426,2.7535119,-0.91264623,-0.33004218,0.24114141,0
0.60542798,-3.1841929,-0.76926452,0.35389531,-0.93321997,0.062118277,0
-0.034044087,1.4677551,-1.5786771,0.91264623,0.33004218,-0.24114141,0
-0.15355712,0.73670805,3.3780971,0.2045363,0.14203084,0.96849996,0
-1.0688705,2.4913697,-2.6873305,-0.35389531,0.93321997,-0.062118277,0
-0.2867806,2.411135,3.3597841,0.2045363,0.14203084,0.96849996,0
-0.29382873,0.23574892,3.4866874,0.2045363,0.14203084,0.96849996,0
-0.37290525,-2.3250465,-0.6018182,-0.91264623,-0.33004218,0.24114141,0
-0.93909049,1.4077336,2.83812,-0.91264623,-0.33004218,0.24114141,0
-1.1635983,-0.098281741,-3.2981405,-0.2045363,-0.14203084,-0.96849996,0
-1.4059746,2.670568,1.5436774,-0.35389531,0.93321997,-0.062118277,0
-0.34115767,3.291311,3.3549948,0.2045363,0.14203084,0.96849996,0
1.5252515,-2.6953075,1.4501568,0.35389531,-0.93321997,0.062118277,0
-0.92799586,0.50398415,0.62214702,-0.91264623,-0.33004218,0.24114141,0
-1.3974664,2.6816976,-1.9168532,-0.35389531,0.93321997,-0.062118277,0
-0.20145869,-1.36158,1.5627197,-0.91264623,-0.33004218,0.24114141,0
-0.0560112,-1.9012156,1.8137845,-0.91264623,-0.33004218,0.24114141,0
-0.19480681,-1.7485734,-3.3273485,-0.2045363,-0.14203084,-0.96849996,0
2.1677179,-2.2449648,2.6412644,0.35389531,-0.93321997,0.062118277,0
-0.67428219,2.8034401,-1.2254713,-0.35389531,0.93321997,-0.062118277,0
1.8105313,-2.2903709,-0.48711124,0.91264623,0.33004218,-0.24114141,0
-1.0886359,1.6354697,-3.443717,-0.2045363,-0.14203084,-0.96849996,0
-0.9483605,0.3556816,-3.5807486,-0.2045363,-0.14203084,-0.96849996,0
-0.31610346,-3.3455505,-2.4237497,0.35389531,-0.93321997,0.062118277,0
-2.4572694,2.1683524,-3.0388937,-0.35389531,0.93321997,-0.062118277,0
-0.8905158,2.709883,-3.0323851,-0.35389531,0.93321997,-0.062118277,0
-1.1858417,1.693911,1.9884299,-0.91264623,-0.33004218,0.24114141,0
-0.32009548,-2.0661178,-0.063701302,-0.91264623,-0.33004218,0.24114141,0
1.6887183,-2.0150356,0.25743842,0.91264623,0.33004218,-0.24114141,0
-0.6354605,2.974838,-1.8873973,-0.35389531,0.93321997,-0.062118277,0
1.2189971,-2.5610421,2.6829381,0.35389531,-0.93321997,0.062118277,0
-1.7440217,2.4945393,1.7169657,-0.35389531,0.93321997,-0.062118277,0
-0.73608279,2.6588087,-3.5082848,0.91264623,0.33004218,-0.24114141,0
0.86564767,0.51426423,-0.028673291,0.91264623,0.33004218,-0.24114141,0
1.3897758,-2.8483419,0.52511114,0.35389531,-0.93321997,0.062118277,0
-2.2547398,2.0513043,-2.7516294,-0.35389531,0.93321997,-0.062118277,0
-0.30513573,3.3904912,1.6590784,-0.35389531,0.93321997,-0.062118277,0
-0.57322025,3.1857603,1.9393127,-0.35389531,0.93321997,-0.062118277,0
0.77653944,-2.7212567,3.1937776,0.35389531,-0.93321997,0.062118277,0
-0.67902553,1.2061521,-3.5896342,-0.2045363,-0.14203084,-0.96849996,0
0.627648,2.7470989,1.3017912,0.91264623,0.33004218,-0.24114141,0
-2.2898364,2.3335326,-3.0096583,-0.35389531,0.93321997,-0.062118277,0
0.71883661,-0.82211947,-1.7241263,0.91264623,0.33004218,-0.24114141,0
-0.35687721,3.1548409,-1.2405839,0.91264623,0.33004218,-0.24114141,0
-1.5144359,2.5379117,-2.962064,-0.35389531,0.93321997,-0.062118277,0
1.225291,-2.8630819,-0.53194904,0.35389531,-0.93321997,0.062118277,0
1.0469885,0.48901957,0.35377222,0.91264623,0.33004218,-0.24114141,0
0.64703333,0.76115769,-0.062122572,0.91264623,0.33004218,-0.24114141,0
0.42979354,1.4541584,-0.26356757,0.91264623,0.33004218,-0.24114141,0
-0.46049738,3.0305338,1.2822249,-0.35389531,0.93321997,-0.062118277,0
2.1534891,-2.2824621,1.268353,0.35389531,-0.93321997,0.062118277,0
0.97316402,-0.26661623,3.6502044,0.2045363,0.14203084,0.96849996,0
-0.97240013,-0.41127104,-0.12018994,-0.91264623,-0.33004218,0.24114141,0
0.21802485,3.3061943,1.9834228,-0.35389531,0.93321997,-0.062118277,0
1.1357371,2.3927467,3.2085712,0.2045363,0.14203084,0.96849996,0
0.86605811,-2.7161183,-3.4018335,-0.2045363,-0.14203084,-0.96849996,0
-2.1160288,1.2905228,-3.1991568,-0.2045363,-0.14203084,-0.96849996,0
-0.53159237,-1.6945446,-3.094193,-0.2045363,-0.14203084,-0.96849996,0
-0.23475918,-0.92854011,2.0742495,-0.91264623,-0.33004218,0.24114141,0
-1.0458965,0.92561567,0.86558527,-0.91264623,-0.33004218,0.24114141,0
0.68939447,1.1401855,-0.076121025,0.91264623,0.33004218,-0.24114141,0
-1.5290538,2.2081106,-3.3362975,-0.35389531,0.93321997,-0.062118277,0
0.36387303,-0.28263095,3.6105702,0.2045363,0.14203084,0.96849996,0
-0.074280739,-3.491744,-1.2879391,0.35389531,-0.93321997,0.062118277,0
0.96286964,-2.7489772,3.8697212,0.35389531,-0.93321997,0.062118277,0
1.5837748,-2.8906665,-1.8453381,0.91264623,0.33004218,-0.24114141,0
-0.18747795,2.0673106,3.3724349,0.2045363,0.14203084,0.96849996,0
-0.36315823,-3.4806876,-1.6725632,0.35389531,-0.93321997,0.062118277,0
-0.96157557,0.77062643,2.0028589,-0.91264623,-0.33004218,0.24114141,0
0.41818544,0.25543213,-1.9858565,0.91264623,0.33004218,-0.24114141,0
1.7550735,-0.74235761,3.1843865,0.2045363,0.14203084,0.96849996,0
0.57567358,-0.0049002767,-1.7971102,0.91264623,0.33004218,-0.24114141,0
1.3200408,-2.5222273,-0.25912762,0.35389531,-0.93321997,0.062118277,0
-1.6754625,-0.29757863,-3.0499566,-0.91264623,-0.33004218,0.24114141,0
2.0232844,-1.2202663,3.2120268,0.2045363,0.14203084,0.96849996,0
2.0684018,-0.40849209,2.6171298,0.91264623,0.33004218,-0.24114141,0
-1.0427319,2.496007,-2.6972618,-0.35389531,0.93321997,-0.062118277,0
1.1095717,-1.3021237,3.6088812,0.2045363,0.14203084,0.96849996,0
-1.6833653,-1.0517597,-2.9891689,-0.2045363,-0.14203084,-0.96849996,0
-0.10246956,-1.7898312,0.90694016,-0.91264623,-0.33004218,0.24114141,0
-1.3148036,-0.36617005,-2.0396366,-0.91264623,-0.33004218,0.24114141,0
-0.60665184,-0.29209837,-3.4117539,-0.2045363,-0.14203084,-0.96849996,0
0.75067341,-0.19281143,-1.2267845,0.91264623,0.33004218,-0.24114141,0
1.4974488,-0.57640576,1.3909715,0.91264623,0.33004218,-0.24114141,0
1.262314,-1.0060879,3.4083226,0.2045363,0.14203084,0.96849996,0
2.0201538,-2.3868201,1.7975752,0.35389531,-0.93321997,0.062118277,0
-1.3981607,-0.29633063,-3.2778254,-0.2045363,-0.14203084,-0.96849996,0
0.27895099,0.068368673,-3.1383271,0.91264623,0.33004218,-0.24114141,0
0.069507837,-3.179965,-2.9027696,0.35389531,-0.93321997,0.062118277,0
1.3431697,1.2567199,2.6905365,0.91264623,0.33004218,-0.24114141,0
-0.83562744,2.715663,-3.5017509,-0.35389531,0.93321997,-0.062118277,0
0.90898681,-2.5747221,2.6671934,0.35389531,-0.93321997,0.062118277,0
-2.2457342,0.87395895,-3.2155056,-0.2045363,-0.14203084,-0.96849996,0
1.9487145,-2.1688411,2.8861141,0.35389531,-0.93321997,0.062118277,0
0.63302284,0.37776512,-1.7518528,0.91264623,0.33004218,-0.24114141,0
-0.73363352,2.9723451,1.2165267,-0.35389531,0.93321997,-0.062118277,0
-0.41026866,2.9077399,-0.1002807,-0.35389531,0.93321997,-0.062118277,0
-0.75123209,-2.5633485,-3.11572,-0.2045363,-0.14203084,-0.96849996,0
0.47352082,-1.71589,3.8634169,0.2045363,0.14203084,0.96849996,0
0.5094614,-2.9647019,-1.9814198,0.35389531,-0.93321997,0.062118277,0
-1.0106426,0.49693716,-3.5603046,-0.2045363,-0.14203084,-0.96849996,0
1.407243,-2.3079419,-2.4177046,0.91264623,0.33004218,-0.24114141,0
-0.72700512,2.2975721,3.5280318,0.2045363,0.14203084,0.96849996,0
-0.70616364,2.8149981,0.069668174,-0.35389531,0.93321997,-0.062118277,0
0.1186831,-3.4799066,-2.9628301,0.35389531,-0.93321997,0.062118277,0
-2.0518122,0.92667222,-2.7638676,-0.91264623,-0.33004218,0.24114141,0
0.54095185,-0.73995471,-3.5273273,-0.2045363,-0.14203084,-0.96849996,0
0.80190849,2.4395196,2.1210861,0.91264623,0.33004218,-0.24114141,0
-2.0309789,0.21198863,-3.1641808,-0.2045363,-0.14203084,-0.96849996,0
0.62040567,-1.4668863,-3.5735536,-0.2045363,-0.14203084,-0.96849996,0
0.79763591,-2.9891367,1.0599704,0.35389531,-0.93321997,0.062118277,0
-0.70083392,2.3717651,-3.6416657,-0.2045363,-0.14203084,-0.96849996,0
-0.77268356,-1.9435565,-3.0843399,-0.2045363,-0.14203084,-0.96849996,0
0.53461242,-3.4114518,-3.2251463,0.35389531,-0.93321997,0.062118277,0
0.50821543,3.5174022,1.8875087,-0.35389531,0.93321997,-0.062118277,0
-0.41943824,-1.4075073,0.56510699,-0.91264623,-0.33004218,0.24114141,0
-1.8158026,2.1781538,-2.8028066,-0.35389531,0.93321997,-0.062118277,0
1.6124773,-1.5735184,0.2281061,0.91264623,0.33004218,-0.24114141,0
-2.5685911,1.2459478,-3.1130552,-0.91264623,-0.33004218,0.24114141,0
-1.4247127,-1.4770904,-3.2899501,-0.2045363,-0.14203084,-0.96849996,0
0.24359977,3.0540318,3.0191402,0.2045363,0.14203084,0.96849996,0
1.409364,-2.6500876,1.6249081,0.35389531,-0.93321997,0.062118277,0
0.71720183,-2.6022258,2.2793112,0.35389531,-0.93321997,0.062118277,0
0.45964149,-1.1701618,3.5460761,0.2045363,0.14203084,0.96849996,0
0.80755031,2.32407,1.5044088,0.91264623,0.33004218,-0.24114141,0
2.275737,-2.0963974,3.1949232,0.35389531,-0.93321997,0.062118277,0
1.3946297,-2.8060322,-2.7291067,0.35389531,-0.93321997,0.062118277,0
-1.5217023,2.9317765,1.5405247,-0.35389531,0.93321997,-0.062118277,0
1.3297862,-2.508476,0.86000121,0.35389531,-0.93321997,0.062118277,0
-1.3159853,2.7139547,-2.7661643,-0.35389531,0.93321997,-0.062118277,0
-1.4149714,2.4926589,2.3279347,-0.91264623,-0.33004218,0.24114141,0
-0.091020584,-3.4007771,-1.5552809,0.35389531,-0.93321997,0.062118277,0
-0.95219898,-2.3172402,-3.1859863,-0.2045363,-0.14203084,-0.96849996,0
0.13971102,-1.919518,2.8517902,-0.91264623,-0.33004218,0.24114141,0
-0.71248591,0.60441685,-3.7199659,-0.2045363,-0.14203084,-0.96849996,0
-1.9396093,2.4121487,-2.6903043,-0.35389531,0.93321997,-0.062118277,0
1.7327585,-1.3737488,0.65596014,0.91264623,0.33004218,-0.24114141,0
1.4652973,0.3883155,2.1297004,0.91264623,0.33004218,-0.24114141,0
0.16236115,-3.1790781,0.38297224,0.35389531,-0.93321997,0.062118277,0
-0.45781422,3.2198474,1.9945035,-0.35389531,0.93321997,-0.062118277,0
-0.91227722,0.84314609,-3.3662903,-0.2045363,-0.14203084,-0.96849996,0
2.3323064,-2.3527567,1.4844588,0.35389531,-0.93321997,0.062118277,0
-1.3887424,2.6851034,1.3001454,-0.35389531,0.93321997,-0.062118277,0
-1.5971235,2.2887731,-2.6155896,-0.35389531,0.93321997,-0.062118277,0
1.6196283,0.084671676,3.3915408,0.2045363,0.14203084,0.96849996,0
0.17445284,-0.050287157,-2.9254832,0.91264623,0.33004218,-0.24114141,0
0.37249041,1.5476072,0.12849212,0.91264623,0.33004218,-0.24114141,0
-0.4356935,2.9011772,-1.382458,-0.35389531,0.93321997,-0.062118277,0
1.841821,-2.7610822,-1.2987549,0.35389531,-0.93321997,0.062118277,0
-1.0664563,3.1375961,3.2436299,-0.35389531,0.93321997,-0.062118277,0
-0.17527872,-1.8325498,0.36210003,-0.91264623,-0.33004218,0.24114141,0
2.3464885,-2.0687923,2.7874918,0.35389531,-0.93321997,0.062118277,0
-0.073289752,-0.61016071,-3.5143015,-0.2045363,-0.14203084,-0.96849996,0
-0.37464774,3.1709626,-0.73159832,-0.35389531,0.93321997,-0.062118277,0
-0.14828646,2.7617416,-0.59727526,0.91264623,0.33004218,-0.24114141,0
0.68693942,1.1998363,3.285497,0.2045363,0.14203084,0.96849996,0
0.50111651,-3.0257869,-0.53491378,0.35389531,-0.93321997,0.062118277,0
-1.6778686,1.5360333,-3.4192319,-0.2045363,-0.14203084,-0.96849996,0
-0.0031858683,-2.0101714,0.55841589,-0.91264623,-0.33004218,0.24114141,0
0.6229344,0.48963881,3.4793649,0.2045363,0.14203084,0.96849996,0
-2.2165544,2.2329984,-3.2588811,-0.35389531,0.93321997,-0.062118277,0
1.6432192,-0.61597502,3.3246055,0.2045363,0.14203084,0.96849996,0
1.0044315,0.38689792,3.3777468,0.2045363,0.14203084,0.96849996,0
0.7487734,0.47274035,-0.84028012,0.91264623,0.33004218,-0.24114141,0
0.66325974,3.32918,3.1026044,0.2045363,0.14203084,0.96849996,0
0.79137713,-0.826177,-3.0897598,0.91264623,0.33004218,-0.24114141,0
1.0482869,-1.7201555,-3.2802768,0.91264623,0.33004218,-0.24114141,0
-1.0774884,2.0563307,-3.6910291,-0.2045363,-0.14203084,-0.96849996,0
1.2170634,-2.8779058,-3.4334176,-0.2045363,-0.14203084,-0.96849996,0
2.0231769,-2.211226,0.56985426,0.91264623,0.33004218,-0.24114141,0
-1.1487041,2.5284882,-2.3727946,-0.35389531,0.93321997,-0.062118277,0
-0.28181508,0.0035976171,3.7487884,-0.91264623,-0.33004218,0.24114141,0
-0.42422199,-3.377697,-2.859206,0.35389531,-0.93321997,0.062118277,0
-0.2396352,-1.44372,1.6513785,-0.91264623,-0.33004218,0.24114141,0
-1.6862299,1.0993402,-0.0082459003,-0.91264623,-0.33004218,0.24114141,0
1.3628206,-2.6310687,0.1270306,0.35389531,-0.93321997,0.062118277,0
1.5230124,-2.4589958,2.9532993,0.35389531,-0.93321997,0.062118277,0
-0.73006296,-2.5086708,-2.6816652,-0.91264623,-0.33004218,0.24114141,0
0.83212155,0.50271493,-1.0059528,0.91264623,0.33004218,-0.24114141,0
2.4946797,-1.8720016,2.6394956,0.91264623,0.33004218,-0.24114141,0
1.3251842,-0.72376412,0.57974851,0.91264623,0.33004218,-0.24114141,0
-0.94594741,2.8571594,-0.24850242,-0.35389531,0.93321997,-0.062118277,0
-0.46355247,3.1715288,1.8788753,-0.35389531,0.93321997,-0.062118277,0
-0.43961167,1.0292832,3.363893,0.2045363,0.14203084,0.96849996,0
0.37743485,-0.77511525,-3.5657415,-0.2045363,-0.14203084,-0.96849996,0
-0.33877099,1.8234698,3.3453164,0.2045363,0.14203084,0.96849996,0
-1.2623253,2.7011609,3.0332909,-0.91264623,-0.33004218,0.24114141,0
0.85330939,-2.9872658,-3.1750453,-0.2045363,-0.14203084,-0.96849996,0
0.78238392,-3.0913477,-1.2551976,0.35389531,-0.93321997,0.062118277,0
-1.8087709,0.38915423,-3.2307029,-0.2045363,-0.14203084,-0.96849996,0
-0.24845463,0.72079259,-3.7321558,-0.2045363,-0.14203084,-0.96849996,0
0.96944284,-0.30400336,3.6286979,0.2045363,0.14203084,0.96849996,0
2.389739,-2.2353363,2.4814005,0.35389531,-0.93321997,0.062118277,0
-0.31886661,0.28328064,-3.3827803,-0.2045363,-0.14203084,-0.96849996,0
1.3924365,-2.8332009,-1.4083045,0.35389531,-0.93321997,0.062118277,0
2.1316874,-0.80495691,3.1296616,0.91264623,0.33004218,-0.24114141,0
0.21623218,2.43452,3.1254148,0.2045363,0.14203084,0.96849996,0
-0.82306945,2.6606808,-2.4997838,-0.35389531,0.93321997,-0.062118277,0
-0.30475938,1.7497966,3.3775973,0.2045363,0.14203084,0.96849996,0
0.6484639,-0.5111745,-1.966264,0.91264623,0.33004218,-0.24114141,0
-0.43931404,-0.53429836,-3.2805297,-0.2045363,-0.14203084,-0.96849996,0
-2.27986,2.2807784,-3.0286038,-0.35389531,0.93321997,-0.062118277,0
0.11924493,-1.6350307,2.4381516,-0.91264623,-0.33004218,0.24114141,0
0.79465646,0.7195363,3.4467258,0.2045363,0.14203084,0.96849996,0
-0.16144776,2.0304995,3.399828,0.2045363,0.14203084,0.96849996,0
-2.008378,2.1350193,-2.4721704,-0.35389531,0.93321997,-0.062118277,0
1.8309411,-2.4576218,2.7771223,0.35389531,-0.93321997,0.062118277,0
0.60941935,2.0079117,0.30140865,0.91264623,0.33004218,-0.24114141,0
-1.1519866,2.7687244,0.14137626,-0.35389531,0.93321997,-0.062118277,0
0.43047738,-0.92052978,-3.1646311,0.91264623,0.33004218,-0.24114141,0
-1.0793868,0.26373333,0.80965161,-0.91264623,-0.33004218,0.24114141,0
-2.5486736,2.2327645,-3.0900068,-0.35389531,0.93321997,-0.062118277,0
1.7456242,-2.3212688,3.6558845,0.35389531,-0.93321997,0.062118277,0
-0.039152384,-3.1303988,-0.9101916,0.35389531,-0.93321997,0.062118277,0
-0.34550595,-2.7111468,-3.1869242,-0.2045363,-0.14203084,-0.96849996,0
0.14510214,-2.0105622,2.2764735,-0.91264623,-0.33004218,0.24114141,0
-1.617697,2.38482,-2.8302305,-0.35389531,0.93321997,-0.062118277,0
1.0319743,-2.7618716,-0.22538897,0.35389531,-0.93321997,0.062118277,0
-0.2992855,-0.85726553,-3.5460587,-0.2045363,-0.14203084,-0.96849996,0
-1.002852,-1.6779475,-2.3159969,-0.91264623,-0.33004218,0.24114141,0
-1.3145142,1.2158368,-3.3672526,-0.2045363,-0.14203084,-0.96849996,0
-0.37902272,-2.292737,-3.0371878,-0.2045363,-0.14203084,-0.96849996,0
-1.013352,-1.4407785,-0.84108412,-0.91264623,-0.33004218,0.24114141,0
-0.64764249,1.6667104,-3.680608,-0.2045363,-0.14203084,-0.96849996,0
-0.78824329,-2.1908789,-1.2713416,-0.91264623,-0.33004218,0.24114141,0
-0.37258911,-3.1742065,-1.6330724,-0.91264623,-0.33004218,0.24114141,0
-1.6852179,1.090055,-3.3802915,-0.2045363,-0.14203084,-0.96849996,0
-1.0971899,-0.68021989,-3.3725901,-0.2045363,-0.14203084,-0.96849996,0
-1.6475747,1.2651291,-0.25071454,-0.91264623,-0.33004218,0.24114141,0
0.34818554,-1.9508462,2.9486992,-0.91264623,-0.33004218,0.24114141,0
-1.3898386,-1.5551414,-3.0854955,-0.91264623,-0.33004218,0.24114141,0
-0.1458993,3.2475336,3.2013354,0.2045363,0.14203084,0.96849996,0
-0.81277716,-2.795835,-2.9506297,-0.2045363,-0.14203084,-0.96849996,0
1.5622302,-0.023118377,2.552232,0.91264623,0.33004218,-0.24114141,0
-0.86763859,2.9068933,3.4198773,0.2045363,0.14203084,0.96849996,0
