-1.1104813,2.1133578,-0.73649776,0.14726466,0.13546371,-0.97977674,0
1.5806704,5.4008212,1.159003,-0.58962393,0.80735016,0.023001075,0
-0.0051727295,4.3690567,1.3444706,-0.58962393,0.80735016,0.023001075,0
-3.5339296,1.8501085,0.041786194,-0.58962393,0.80735016,0.023001075,0
-2.0061133,-2.8900914,0.29968429,-0.14726466,-0.13546371,0.97977674,0
-1.6047404,-5.3692341,-1.7478398,0.58962393,-0.80735016,-0.023001075,0
-5.9181237,-0.48380828,-1.0648952,-0.79413879,-0.57431269,-0.19876695,0
4.7040253,-1.117923,-0.12242317,0.58962393,-0.80735016,-0.023001075,0
1.5150445,-2.9143918,-1.1074127,0.14726466,0.13546371,-0.97977674,0
2.5117636,5.1256251,0.71397567,0.79413879,0.57431269,0.19876695,0
4.3567715,-1.0246745,1.6078613,-0.14726466,-0.13546371,0.97977674,0
0.34676313,-4.2508731,0.21126753,0.58962393,-0.80735016,-0.023001075,0
1.9328887,1.0194434,1.4455097,-0.14726466,-0.13546371,0.97977674,0
2.4190357,4.7970028,1.1203759,0.79413879,0.57431269,0.19876695,0
-5.0291667,0.58228564,0.36387634,-0.58962393,0.80735016,0.023001075,0
4.0685277,2.0055118,1.7716949,-0.14726466,-0.13546371,0.97977674,0
-0.85386634,2.426157,1.0344174,-0.14726466,-0.13546371,0.97977674,0
-1.3048555,-3.1141114,-1.7622616,0.14726466,0.13546371,-0.97977674,0
-2.147855,2.9395306,0.91063511,-0.58962393,0.80735016,0.023001075,0
5.2020693,1.5694311,0.2305665,0.79413879,0.57431269,0.19876695,0
-4.0290976,-1.5085294,-1.8092015,0.14726466,0.13546371,-0.97977674,0
-5.0857983,-1.2926418,-1.8803391,-0.79413879,-0.57431269,-0.19876695,0
0.86510134,-3.7553473,-0.70188081,0.58962393,-0.80735016,-0.023001075,0
-0.09281671,1.0962441,-0.87067908,0.14726466,0.13546371,-0.97977674,0
5.3899045,-0.30880105,1.3154755,0.58962393,-0.80735016,-0.023001075,0
-4.0449591,1.4230098,-1.1009765,-0.58962393,0.80735016,0.023001075,0
1.77292,-0.78027511,-0.79160607,0.14726466,0.13546371,-0.97977674,0
2.6643658,4.8735194,0.41467047,0.79413879,0.57431269,0.19876695,0
-2.6436775,-4.3685751,-1.664325,-0.79413879,-0.57431269,-0.19876695,0
-3.5524707,1.9972007,-0.54284024,-0.58962393,0.80735016,0.023001075,0
-0.91203809,0.60803521,0.82716465,-0.14726466,-0.13546371,0.97977674,0
-4.9225497,-0.25432158,0.34620953,-0.14726466,-0.13546371,0.97977674,0
0.38687849,1.8577441,-0.5075832,0.14726466,0.13546371,-0.97977674,0
-5.7639689,0.28778338,-0.27801609,-0.58962393,0.80735016,0.023001075,0
-1.0479647,-2.7009172,-1.6573365,0.14726466,0.13546371,-0.97977674,0
-4.6939564,-0.94609416,-1.8398042,0.14726466,0.13546371,-0.97977674,0
-4.8889861,0.80025291,-1.5650606,-0.58962393,0.80735016,0.023001075,0
2.5396004,-2.2838376,-0.64500606,0.58962393,-0.80735016,-0.023001075,0
0.86248946,-3.0166969,-1.1552849,0.14726466,0.13546371,-0.97977674,0
0.39898682,4.7493472,0.23474669,-0.58962393,0.80735016,0.023001075,0
0.78086042,4.760427,0.27460945,-0.58962393,0.80735016,0.023001075,0
1.5649805,-1.9674195,-1.0094335,0.14726466,0.13546371,-0.97977674,0
1.4402146,4.4253535,-0.10146546,0.14726466,0.13546371,-0.97977674,0
-3.6771526,-3.3045356,-1.544956,-0.79413879,-0.57431269,-0.19876695,0
-1.8003998,2.8913484,0.40629506,-0.58962393,0.80735016,0.023001075,0
-4.353436,-2.5627818,-0.14200401,-0.79413879,-0.57431269,-0.19876695,0
-2.920717,-4.603374,-0.46667957,-0.79413879,-0.57431269,-0.19876695,0
5.5194945,1.2834744,0.29071999,0.79413879,0.57431269,0.19876695,0
-1.8109056,-0.400051,0.68963516,-0.14726466,-0.13546371,0.97977674,0
-1.105794,-4.9428492,-0.10185003,0.58962393,-0.80735016,-0.023001075,0
-2.7469645,-1.8143773,-1.603755,0.14726466,0.13546371,-0.97977674,0
-2.7943642,-3.9354911,-1.6962731,-0.79413879,-0.57431269,-0.19876695,0
-2.0679862,-5.4098468,-1.7303407,-0.79413879,-0.57431269,-0.19876695,0
5.0929055,-0.57062042,0.88043261,0.58962393,-0.80735016,-0.023001075,0
0.78900337,-3.8482223,-1.4193683,0.58962393,-0.80735016,-0.023001075,0
-4.2032661,-2.37238,0.254498,-0.14726466,-0.13546371,0.97977674,0
1.8059731,5.3351355,2.1048551,0.79413879,0.57431269,0.19876695,0
0.66920614,-4.0410051,0.226311,0.58962393,-0.80735016,-0.023001075,0
3.8353195,2.9235494,0.98681188,0.79413879,0.57431269,0.19876695,0
-3.1985726,-3.9283743,-1.2006059,-0.79413879,-0.57431269,-0.19876695,0
1.8913867,5.7059684,0.54545999,-0.58962393,0.80735016,0.023001075,0
-2.0929048,-5.5477109,-0.35109091,-0.79413879,-0.57431269,-0.19876695,0
2.7367496,-1.6007869,-0.96054792,0.14726466,0.13546371,-0.97977674,0
0.92835283,-3.6827817,-0.085394643,0.58962393,-0.80735016,-0.023001075,0
4.5972023,-1.1649045,0.56263566,0.58962393,-0.80735016,-0.023001075,0
-0.62829304,3.7429657,-0.60141575,0.14726466,0.13546371,-0.97977674,0
2.2166481,3.4693732,2.0140347,-0.14726466,-0.13546371,0.97977674,0
-1.747452,-5.4661775,-1.1961751,0.58962393,-0.80735016,-0.023001075,0
-2.7982402,-4.5958676,-0.42200446,-0.79413879,-0.57431269,-0.19876695,0
4.7128286,2.1853397,0.31195927,0.79413879,0.57431269,0.19876695,0
2.7957792,-1.6050042,-0.76917696,0.14726466,0.13546371,-0.97977674,0
4.8898449,-0.52346301,-0.10953999,0.58962393,-0.80735016,-0.023001075,0
-0.15744781,-4.2001333,-0.29818672,0.58962393,-0.80735016,-0.023001075,0
-0.59251738,4.1012206,1.5420229,-0.58962393,0.80735016,0.023001075,0
2.2434707,0.051773988,1.3916265,-0.14726466,-0.13546371,0.97977674,0
0.48517728,-2.7409291,-1.3668306,0.14726466,0.13546371,-0.97977674,0
-3.2717202,-2.7639606,0.13193202,-0.14726466,-0.13546371,0.97977674,0
0.59226656,-4.1067762,-0.68876946,0.58962393,-0.80735016,-0.023001075,0
0.50871468,1.180295,1.3002307,-0.14726466,-0.13546371,0.97977674,0
5.0353503,1.1889416,1.3340411,0.79413879,0.57431269,0.19876695,0
0.70361197,0.17199516,-0.89558291,0.14726466,0.13546371,-0.97977674,0
3.5297608,3.7586827,0.95805931,0.79413879,0.57431269,0.19876695,0
-3.7146397,1.8380475,-0.28438306,-0.58962393,0.80735016,0.023001075,0
0.84326148,-3.816067,-1.1498581,0.58962393,-0.80735016,-0.023001075,0
-1.6666656,-4.4422903,0.16116118,-0.14726466,-0.13546371,0.97977674,0
-2.6175332,-5.0117373,-1.1153545,-0.79413879,-0.57431269,-0.19876695,0
-2.1984794,-5.445251,-0.81737161,-0.79413879,-0.57431269,-0.19876695,0
2.9908199,3.8961647,1.8663905,0.79413879,0.57431269,0.19876695,0
1.9333876,-0.92419493,-0.88255858,0.14726466,0.13546371,-0.97977674,0
5.5755587,0.98954201,0.42030096,0.79413879,0.57431269,0.19876695,0
2.2179434,2.6620038,1.5373012,-0.14726466,-0.13546371,0.97977674,0
4.2512522,2.3502281,-0.18057728,0.14726466,0.13546371,-0.97977674,0
-0.62794685,3.9874816,1.3228645,-0.58962393,0.80735016,0.023001075,0
-1.9159968,3.1117029,0.084917903,-0.58962393,0.80735016,0.023001075,0
5.001173,1.9586422,0.18684912,0.79413879,0.57431269,0.19876695,0
-2.4887712,2.5957808,-0.19853508,-0.58962393,0.80735016,0.023001075,0
-6.0310717,-0.5766952,-0.18682909,-0.79413879,-0.57431269,-0.19876695,0
5.9721069,-0.066050529,0.32486391,0.58962393,-0.80735016,-0.023001075,0
0.42688799,-4.1700792,-0.90665275,0.58962393,-0.80735016,-0.023001075,0
-2.2251565,-4.8650584,-0.089528799,-0.14726466,-0.13546371,0.97977674,0
4.8599219,-0.77644038,-0.20947504,0.58962393,-0.80735016,-0.023001075,0
5.7054815,0.018289566,0.59488392,0.58962393,-0.80735016,-0.023001075,0
3.887763,3.0075462,1.5183558,0.79413879,0.57431269,0.19876695,0
-0.61515427,-4.9920325,-0.79282296,0.58962393,-0.80735016,-0.023001075,0
2.1239226,-2.6516342,0.59288967,0.58962393,-0.80735016,-0.023001075,0
4.8105202,-0.96602774,-0.42489576,0.14726466,0.13546371,-0.97977674,0
4.6982794,-1.1458744,0.55417204,0.58962393,-0.80735016,-0.023001075,0
-2.4763482,-2.4863191,0.27463627,-0.14726466,-0.13546371,0.97977674,0
1.2847314,-1.896439,-1.200145,0.14726466,0.13546371,-0.97977674,0
1.8403623,5.7130527,1.8590186,0.79413879,0.57431269,0.19876695,0
-6.0293169,-0.31111193,-0.56162834,-0.79413879,-0.57431269,-0.19876695,0
4.5968513,-0.78528285,-0.43009329,0.58962393,-0.80735016,-0.023001075,0
1.2932677,1.5226073,-0.54729843,0.14726466,0.13546371,-0.97977674,0
3.7825308,3.265152,0.69815731,0.79413879,0.57431269,0.19876695,0
5.7669973,0.33259678,0.7786932,0.79413879,0.57431269,0.19876695,0
-5.04283,-1.368187,-1.4798036,-0.79413879,-0.57431269,-0.19876695,0
0.98935127,-3.407146,-0.77269936,0.58962393,-0.80735016,-0.023001075,0
-4.8989234,-1.1516365,-1.832674,-0.79413879,-0.57431269,-0.19876695,0
5.2730818,1.5155103,0.55686331,0.79413879,0.57431269,0.19876695,0
-5.5562563,-1.2843828,-0.2037487,-0.79413879,-0.57431269,-0.19876695,0
-6.2084675,-0.31296206,-0.3374877,-0.79413879,-0.57431269,-0.19876695,0
-2.0239384,0.75089717,0.87165606,-0.14726466,-0.13546371,0.97977674,0
3.1976137,4.2517352,0.79640055,0.79413879,0.57431269,0.19876695,0
-2.9445891,-2.3343329,-1.6854067,0.14726466,0.13546371,-0.97977674,0
-2.7338731,2.0977826,0.11256242,-0.58962393,0.80735016,0.023001075,0
-1.0491803,-0.55005211,-1.2861102,0.14726466,0.13546371,-0.97977674,0
2.0635831,2.4786849,1.5536437,-0.14726466,-0.13546371,0.97977674,0
5.1505251,1.6472812,0.3627305,0.79413879,0.57431269,0.19876695,0
0.23607588,-4.2926908,-1.2484192,0.58962393,-0.80735016,-0.023001075,0
1.3474684,-0.63479614,-0.96698517,0.14726466,0.13546371,-0.97977674,0
4.1449995,2.2839742,1.682332,0.79413879,0.57431269,0.19876695,0
5.3739262,0.43821132,1.7770391,0.79413879,0.57431269,0.19876695,0
1.8864095,-2.9163332,-0.71869087,0.58962393,-0.80735016,-0.023001075,0
-3.9436085,-2.7495432,0.11995268,-0.14726466,-0.13546371,0.97977674,0
1.7598438,0.45798016,-0.66124916,0.14726466,0.13546371,-0.97977674,0
5.5212274,0.94393253,0.62370777,0.79413879,0.57431269,0.19876695,0
3.1378961,-0.83540332,-0.46567464,0.14726466,0.13546371,-0.97977674,0
-3.0941403,-3.8255491,-1.2976389,-0.79413879,-0.57431269,-0.19876695,0
0.17703438,-4.2635069,-1.1278639,0.58962393,-0.80735016,-0.023001075,0
-0.39485204,-1.6767776,-1.3149219,0.14726466,0.13546371,-0.97977674,0
5.741528,0.50561261,0.041612148,0.79413879,0.57431269,0.19876695,0
0.27004004,-4.3057261,-0.92176783,0.58962393,-0.80735016,-0.023001075,0
-2.6902223,-4.7354279,-0.86296964,-0.79413879,-0.57431269,-0.19876695,0
-5.6835408,-0.65477157,-0.84502888,-0.79413879,-0.57431269,-0.19876695,0
-5.7362366,-0.75550532,-0.67047215,-0.79413879,-0.57431269,-0.19876695,0
-3.9655526,1.4954548,-0.29988146,-0.58962393,0.80735016,0.023001075,0
3.1063287,4.1371403,0.53708243,0.79413879,0.57431269,0.19876695,0
5.7455621,0.19542527,0.9903388,0.79413879,0.57431269,0.19876695,0
-3.8350499,-1.3562988,-1.9733679,0.14726466,0.13546371,-0.97977674,0
-2.0615931,-2.6688623,0.53735733,-0.14726466,-0.13546371,0.97977674,0
3.9541249,3.0189624,-0.16463137,0.14726466,0.13546371,-0.97977674,0
-5.3338366,0.3643117,0.135571,-0.58962393,0.80735016,0.023001075,0
-2.574264,-5.2016473,0.019504547,-0.79413879,-0.57431269,-0.19876695,0
-1.3851728,-5.2746263,-1.6684004,0.58962393,-0.80735016,-0.023001075,0
4.8530302,1.6853671,0.75438738,0.79413879,0.57431269,0.19876695,0
4.2935991,1.8087827,1.9095674,0.79413879,0.57431269,0.19876695,0
1.2604866,5.3991632,1.6479735,-0.58962393,0.80735016,0.023001075,0
1.271616,5.350584,1.822214,-0.58962393,0.80735016,0.023001075,0
-1.1010804,-5.2339206,-0.50668883,0.58962393,-0.80735016,-0.023001075,0
-2.4773748,-4.7180815,-1.1115632,-0.79413879,-0.57431269,-0.19876695,0
-4.376039,-1.7814034,-1.8474188,-0.79413879,-0.57431269,-0.19876695,0
0.39759469,3.968703,-0.28006089,0.14726466,0.13546371,-0.97977674,0
2.8151057,3.4745173,1.893136,-0.14726466,-0.13546371,0.97977674,0
3.0676866,3.5697072,2.0825868,0.79413879,0.57431269,0.19876695,0
0.1202426,-1.5097265,-1.3586712,0.14726466,0.13546371,-0.97977674,0
-3.9533737,1.4825497,-0.5292275,-0.58962393,0.80735016,0.023001075,0
2.3138857,5.0737028,0.57659888,0.79413879,0.57431269,0.19876695,0
3.7764726,-0.49181283,1.3581219,-0.14726466,-0.13546371,0.97977674,0
0.84495974,4.7893648,1.8507751,-0.58962393,0.80735016,0.023001075,0
5.75002,0.50136614,0.17431259,0.79413879,0.57431269,0.19876695,0
-1.0948577,3.68067,-0.28499997,-0.58962393,0.80735016,0.023001075,0
-0.75319004,-4.2299638,-1.8499374,0.14726466,0.13546371,-0.97977674,0
1.8186362,-2.9908578,-0.65889078,0.58962393,-0.80735016,-0.023001075,0
-0.85331738,0.72576189,1.1689291,-0.14726466,-0.13546371,0.97977674,0
-0.21289784,-0.48965478,-1.1692104,0.14726466,0.13546371,-0.97977674,0
-5.6566558,-0.78840709,-1.253252,-0.79413879,-0.57431269,-0.19876695,0
-5.0141597,-0.53838229,0.13848495,-0.14726466,-0.13546371,0.97977674,0
-1.5067763,3.2508845,-0.6702491,-0.58962393,0.80735016,0.023001075,0
1.0390627,-1.1927396,1.1634744,-0.14726466,-0.13546371,0.97977674,0
-3.1086006,-4.4962687,-0.12596703,-0.79413879,-0.57431269,-0.19876695,0
-3.4255757,-3.1982546,-1.4813662,-0.79413879,-0.57431269,-0.19876695,0
3.6481762,-1.4216242,-0.32020497,0.58962393,-0.80735016,-0.023001075,0
5.9621181,0.50746846,0.2431016,0.79413879,0.57431269,0.19876695,0
3.349175,3.0210946,1.7965412,-0.14726466,-0.13546371,0.97977674,0
-5.19628,0.63669765,-1.5244079,-0.58962393,0.80735016,0.023001075,0
6.0902605,0.38107252,0.50366402,0.79413879,0.57431269,0.19876695,0
-4.1517262,0.08231312,-1.499809,0.14726466,0.13546371,-0.97977674,0
-0.49288678,-3.8039169,-1.4745827,0.14726466,0.13546371,-0.97977674,0
-1.3757622,-0.69728094,-1.2282534,0.14726466,0.13546371,-0.97977674,0
0.63474435,-0.33145693,0.87362218,-0.14726466,-0.13546371,0.97977674,0
-4.8507657,0.27448356,-1.8934391,0.14726466,0.13546371,-0.97977674,0
5.3781385,-0.39563227,-0.070592403,0.58962393,-0.80735016,-0.023001075,0
4.3445549,-0.98836219,0.60789418,0.58962393,-0.80735016,-0.023001075,0
5.7251501,0.93564558,0.40879297,0.79413879,0.57431269,0.19876695,0
-0.050261021,-3.3047988,0.5943107,-0.14726466,-0.13546371,0.97977674,0
-5.4432487,-0.79682815,-1.4404325,-0.79413879,-0.57431269,-0.19876695,0
-4.828742,-1.8231944,-1.3336444,-0.79413879,-0.57431269,-0.19876695,0
-0.28581715,3.4772124,-0.45923379,0.14726466,0.13546371,-0.97977674,0
4.50175,2.6166563,0.50777674,0.79413879,0.57431269,0.19876695,0
-1.6657183,-5.4515548,-0.26706243,0.58962393,-0.80735016,-0.023001075,0
2.6997948,4.7797518,1.3075283,0.79413879,0.57431269,0.19876695,0
5.386385,1.1138704,1.0635858,0.79413879,0.57431269,0.19876695,0
5.3332596,0.83851016,1.5071855,0.79413879,0.57431269,0.19876695,0
1.806025,5.5345831,0.05076313,-0.58962393,0.80735016,0.023001075,0
-4.7447195,0.74493456,0.081309319,-0.58962393,0.80735016,0.023001075,0
1.9690011,1.7834889,1.7095627,-0.14726466,-0.13546371,0.97977674,0
5.7524486,0.023258448,0.87563467,0.58962393,-0.80735016,-0.023001075,0
-2.7867191,2.2571785,0.24897814,-0.58962393,0.80735016,0.023001075,0
-2.3120971,-1.3915528,-1.4519259,0.14726466,0.13546371,-0.97977674,0
1.8634276,-3.0270257,0.71855944,0.58962393,-0.80735016,-0.023001075,0
-1.2623844,3.2588751,-0.51258314,-0.58962393,0.80735016,0.023001075,0
-5.4817619,-1.1491046,-0.018912315,-0.79413879,-0.57431269,-0.19876695,0
-0.83743572,-4.850091,-0.95878696,0.58962393,-0.80735016,-0.023001075,0
3.2364841,4.3629227,0.43938804,0.79413879,0.57431269,0.19876695,0
0.78435206,4.7098131,1.7191205,-0.58962393,0.80735016,0.023001075,0
-5.1238232,-1.0025414,-1.2839899,-0.79413879,-0.57431269,-0.19876695,0
-5.6278777,-0.86235642,-0.72562456,-0.79413879,-0.57431269,-0.19876695,0
2.713273,-1.9778417,-0.81882858,0.14726466,0.13546371,-0.97977674,0
-0.69293594,-4.7939525,-0.80018854,0.58962393,-0.80735016,-0.023001075,0
4.6506486,-1.0147867,-0.11051226,0.58962393,-0.80735016,-0.023001075,0
-1.583329,-5.3829741,-0.76763368,0.58962393,-0.80735016,-0.023001075,0
2.3383553,3.4273651,-0.051319599,0.14726466,0.13546371,-0.97977674,0
3.8451622,2.8510022,1.3051095,0.79413879,0.57431269,0.19876695,0
3.1805716,3.6569793,1.6022043,0.79413879,0.57431269,0.19876695,0
-4.6565771,-1.6068473,-1.0072298,-0.79413879,-0.57431269,-0.19876695,0
4.3303857,2.7102683,1.0163908,0.79413879,0.57431269,0.19876695,0
-4.1932054,-2.6725163,-0.64540005,-0.79413879,-0.57431269,-0.19876695,0
-5.1649189,-1.5770295,0.047431946,-0.14726466,-0.13546371,0.97977674,0
-5.1893816,-1.6655807,-0.29401541,-0.79413879,-0.57431269,-0.19876695,0
5.1781797,1.2687397,1.5103559,0.79413879,0.57431269,0.19876695,0
-3.4155889,1.6862715,-0.43845105,-0.58962393,0.80735016,0.023001075,0
2.5264895,5.153554,0.31237507,0.79413879,0.57431269,0.19876695,0
-2.4100091,0.32317495,0.60010362,-0.14726466,-0.13546371,0.97977674,0
-2.4208701,-5.0089612,-0.69482994,-0.79413879,-0.57431269,-0.19876695,0
0.52743793,4.7003417,1.6774607,-0.58962393,0.80735016,0.023001075,0
5.0895853,1.1191134,0.7391057,0.79413879,0.57431269,0.19876695,0
1.6583428,5.3764524,0.94354558,-0.58962393,0.80735016,0.023001075,0
-4.4667969,-1.9640328,-0.81599379,-0.79413879,-0.57431269,-0.19876695,0
-4.0559397,-1.6770705,-1.9859436,0.14726466,0.13546371,-0.97977674,0
2.2236199,4.994523,1.6773331,0.79413879,0.57431269,0.19876695,0
-0.73768187,2.7768409,1.3379998,-0.14726466,-0.13546371,0.97977674,0
-5.0824261,-1.0624398,-1.1700883,-0.79413879,-0.57431269,-0.19876695,0
-1.215394,1.4809775,-0.83746004,0.14726466,0.13546371,-0.97977674,0
-0.97862816,-5.2363238,-0.11666656,0.58962393,-0.80735016,-0.023001075,0
3.1518269,4.2664461,0.66246009,0.79413879,0.57431269,0.19876695,0
2.4870605,-2.3751795,1.0403663,0.58962393,-0.80735016,-0.023001075,0
-3.1855288,-4.6603727,0.039042473,-0.79413879,-0.57431269,-0.19876695,0
-3.5419662,-3.5407395,-0.39720535,-0.79413879,-0.57431269,-0.19876695,0
3.2066867,3.5243587,1.2113376,0.79413879,0.57431269,0.19876695,0
0.58311319,2.8605006,1.5420905,-0.14726466,-0.13546371,0.97977674,0
-1.3079618,1.6870321,1.1325444,-0.14726466,-0.13546371,0.97977674,0
-1.4196177,-1.2205465,0.75255311,-0.14726466,-0.13546371,0.97977674,0
-0.93815851,2.2217832,1.1557208,-0.14726466,-0.13546371,0.97977674,0
4.6650982,-1.0486556,0.55863237,0.58962393,-0.80735016,-0.023001075,0
0.48599672,-2.9771895,0.83757985,-0.14726466,-0.13546371,0.97977674,0
4.5348883,-1.2020961,0.11764288,0.58962393,-0.80735016,-0.023001075,0
5.8355598,-0.064437389,1.2587366,0.58962393,-0.80735016,-0.023001075,0
5.4563003,0.50091958,0.98875332,0.79413879,0.57431269,0.19876695,0
2.375412,4.8664041,0.9223609,0.79413879,0.57431269,0.19876695,0
-3.8839865,-3.0722768,-1.3918741,-0.79413879,-0.57431269,-0.19876695,0
1.6690044,-2.0597332,0.90300345,-0.14726466,-0.13546371,0.97977674,0
-0.27085054,0.15000319,0.85030955,-0.14726466,-0.13546371,0.97977674,0
2.1733413,5.455801,0.96060109,0.79413879,0.57431269,0.19876695,0
-5.3543153,-0.8314712,-1.0409031,-0.79413879,-0.57431269,-0.19876695,0
5.3984804,1.2769878,0.24315405,0.79413879,0.57431269,0.19876695,0
1.4161384,3.4360714,-0.19260335,0.14726466,0.13546371,-0.97977674,0
-0.60307908,3.6500812,0.37445819,-0.58962393,0.80735016,0.023001075,0
3.6479859,-1.472039,-0.4194541,0.58962393,-0.80735016,-0.023001075,0
5.0208354,-0.48150945,-0.32931995,0.14726466,0.13546371,-0.97977674,0
0.33983588,-3.8992915,-1.428844,0.58962393,-0.80735016,-0.023001075,0
5.3332024,0.86183536,1.0872388,0.79413879,0.57431269,0.19876695,0
0.24234676,4.2909603,0.18220115,-0.58962393,0.80735016,0.023001075,0
5.2226882,-0.5222702,1.2481518,0.58962393,-0.80735016,-0.023001075,0
-1.4013135,-5.3167381,-1.8779821,0.58962393,-0.80735016,-0.023001075,0
0.4163065,2.9072452,-0.52510267,0.14726466,0.13546371,-0.97977674,0
-2.046958,-5.6240606,-0.33632112,-0.79413879,-0.57431269,-0.19876695,0
-4.771523,-1.4690137,-1.8162656,0.14726466,0.13546371,-0.97977674,0
-5.3910551,0.56913352,-0.51886559,-0.58962393,0.80735016,0.023001075,0
2.6091948,4.8394256,1.6365864,0.79413879,0.57431269,0.19876695,0
3.7304082,-1.8482976,1.1492872,0.58962393,-0.80735016,-0.023001075,0
4.8587022,1.891747,0.63266087,0.79413879,0.57431269,0.19876695,0
-2.1606193,1.8000233,-1.2473109,0.14726466,0.13546371,-0.97977674,0
5.4590836,0.26644456,1.789237,0.79413879,0.57431269,0.19876695,0
2.4814129,3.2835841,1.8628151,-0.14726466,-0.13546371,0.97977674,0
-5.0946865,0.38745522,0.0018978119,-0.58962393,0.80735016,0.023001075,0
-4.7191048,-0.31972313,0.29653502,-0.14726466,-0.13546371,0.97977674,0
-6.0000067,0.0071310997,-1.1157532,-0.79413879,-0.57431269,-0.19876695,0
1.9107742,-1.2435185,0.94474638,-0.14726466,-0.13546371,0.97977674,0
-3.0262582,-1.1861488,-1.4483156,0.14726466,0.13546371,-0.97977674,0
1.9220999,-0.57420832,1.1612612,-0.14726466,-0.13546371,0.97977674,0
-4.7267432,-2.1008983,-1.0254292,-0.79413879,-0.57431269,-0.19876695,0
-3.9917679,-1.2409009,-1.7985954,0.14726466,0.13546371,-0.97977674,0
1.6254237,0.94773519,-0.70062828,0.14726466,0.13546371,-0.97977674,0
-3.4694295,-3.5472312,-1.5454142,-0.79413879,-0.57431269,-0.19876695,0
0.60222638,-0.27331573,1.1550487,-0.14726466,-0.13546371,0.97977674,0
-0.83667314,1.7012706,1.3196653,-0.14726466,-0.13546371,0.97977674,0
2.6518979,-2.3771615,0.55037832,0.58962393,-0.80735016,-0.023001075,0
0.90284872,0.50772953,-0.71855688,0.14726466,0.13546371,-0.97977674,0
4.1145692,2.8798275,0.53372431,0.79413879,0.57431269,0.19876695,0
-1.9063408,-5.7252665,-0.26964355,0.58962393,-0.80735016,-0.023001075,0
1.9398601,-2.6919465,-0.9580195,0.58962393,-0.80735016,-0.023001075,0
2.2560644,5.747077,0.38497663,0.79413879,0.57431269,0.19876695,0
-4.4125061,-2.419096,-1.2906127,-0.79413879,-0.57431269,-0.19876695,0
-4.8270264,-1.4460018,-0.74045563,-0.79413879,-0.57431269,-0.19876695,0
3.7777638,2.0348611,-0.014193535,0.14726466,0.13546371,-0.97977674,0
-1.3823349,-3.4496326,0.19207931,-0.14726466,-0.13546371,0.97977674,0
-1.1038606,3.5491414,1.1626945,-0.58962393,0.80735016,0.023001075,0
-5.6227274,-1.1046565,-0.19290543,-0.79413879,-0.57431269,-0.19876695,0
1.8262761,4.5231094,-0.27053595,0.14726466,0.13546371,-0.97977674,0
1.9422266,5.5264597,1.6987178,0.79413879,0.57431269,0.19876695,0
4.117229,2.111505,1.6549244,0.79413879,0.57431269,0.19876695,0
1.5709097,5.2706947,1.7979435,-0.58962393,0.80735016,0.023001075,0
-4.9683018,0.59889197,-1.4095409,-0.58962393,0.80735016,0.023001075,0
4.9875798,-0.81437588,1.7190058,-0.14726466,-0.13546371,0.97977674,0
4.9735069,1.5488567,0.070538521,0.14726466,0.13546371,-0.97977674,0
-3.8501618,-2.7320685,-1.6737711,-0.79413879,-0.57431269,-0.19876695,0
-2.3269827,2.8067017,0.58580565,-0.58962393,0.80735016,0.023001075,0
-3.3991687,-3.2810822,0.10500288,-0.14726466,-0.13546371,0.97977674,0
-5.4100637,0.078231812,-1.9300275,0.14726466,0.13546371,-0.97977674,0
-5.376658,-1.0340481,-0.15382433,-0.79413879,-0.57431269,-0.19876695,0
-2.5905545,-4.4812136,-1.6915503,-0.79413879,-0.57431269,-0.19876695,0
1.4774318,-3.3707583,0.93301713,-0.14726466,-0.13546371,0.97977674,0
5.6727066,0.2991035,1.6632996,0.79413879,0.57431269,0.19876695,0
2.0321946,-2.9224095,0.51124072,0.58962393,-0.80735016,-0.023001075,0
5.8547373,0.46881104,1.0163722,0.79413879,0.57431269,0.19876695,0
5.3095365,1.1271515,-0.090907097,0.79413879,0.57431269,0.19876695,0
-0.88674235,-5.1569824,-1.7457222,0.58962393,-0.80735016,-0.023001075,0
-4.3160048,-2.1935258,-1.642724,-0.79413879,-0.57431269,-0.19876695,0
-0.5209775,-4.7153587,-1.0696211,0.58962393,-0.80735016,-0.023001075,0
-0.63522816,-4.668489,-0.13024557,0.58962393,-0.80735016,-0.023001075,0
3.91681,3.1685596,1.3414538,0.79413879,0.57431269,0.19876695,0
-2.5379176,-4.5643587,-1.9806144,-0.79413879,-0.57431269,-0.19876695,0
-4.4677792,-0.94357699,-1.9591863,0.14726466,0.13546371,-0.97977674,0
-3.6291771,1.731755,-1.0817113,-0.58962393,0.80735016,0.023001075,0
3.515722,-1.6382582,0.74257016,0.58962393,-0.80735016,-0.023001075,0
5.6362658,0.2135725,1.9425588,-0.14726466,-0.13546371,0.97977674,0
3.9029505,-1.2552117,-0.15117145,0.58962393,-0.80735016,-0.023001075,0
3.3821788,-1.9438703,1.2251124,0.58962393,-0.80735016,-0.023001075,0
5.0410538,0.77625895,-0.078699589,0.14726466,0.13546371,-0.97977674,0
-2.977236,-3.8603044,-1.7236986,-0.79413879,-0.57431269,-0.19876695,0
2.1531062,0.37514955,1.2857561,-0.14726466,-0.13546371,0.97977674,0
-0.64607859,3.6532695,-0.58846891,-0.58962393,0.80735016,0.023001075,0
-3.808166,-3.2712951,-0.53828621,-0.79413879,-0.57431269,-0.19876695,0
-2.9595017,-4.5168715,-0.64381313,-0.79413879,-0.57431269,-0.19876695,0
1.0318924,0.5263508,1.3762268,-0.14726466,-0.13546371,0.97977674,0
-1.2362018,-5.197186,-0.78643823,0.58962393,-0.80735016,-0.023001075,0
-1.2154459,0.71460277,-1.0134375,0.14726466,0.13546371,-0.97977674,0
2.6277652,3.8185759,-0.16582322,0.14726466,0.13546371,-0.97977674,0
6.1161795,-0.14032102,1.410264,0.58962393,-0.80735016,-0.023001075,0
1.0130134,-3.323828,-1.1617378,0.58962393,-0.80735016,-0.023001075,0
4.2026215,-1.0969808,-0.36465001,0.58962393,-0.80735016,-0.023001075,0
-3.994782,-3.0910144,-0.18585539,-0.79413879,-0.57431269,-0.19876695,0
-0.051636696,-4.1075387,-1.2376244,0.58962393,-0.80735016,-0.023001075,0
-1.4821355,-0.3927362,0.78526378,-0.14726466,-0.13546371,0.97977674,0
-0.40229654,4.2289181,1.6276156,-0.58962393,0.80735016,0.023001075,0
-5.7965856,0.33516574,-0.5063448,-0.58962393,0.80735016,0.023001075,0
-5.3079243,0.66927624,-0.57622337,-0.58962393,0.80735016,0.023001075,0
-0.31269932,-2.3817058,0.52531135,-0.14726466,-0.13546371,0.97977674,0
2.3355341,5.4949012,0.32648063,0.79413879,0.57431269,0.19876695,0
-0.91565323,3.8808448,-0.24899645,-0.58962393,0.80735016,0.023001075,0
-3.4054823,-3.2993531,-1.5792239,-0.79413879,-0.57431269,-0.19876695,0
0.81110811,-3.6214008,-0.68160421,0.58962393,-0.80735016,-0.023001075,0
1.7139207,2.974618,-0.40071464,0.14726466,0.13546371,-0.97977674,0
3.0097113,3.2827506,-0.23273396,0.14726466,0.13546371,-0.97977674,0
-3.7128701,-3.7272077,-0.51875925,-0.79413879,-0.57431269,-0.19876695,0
0.17608833,-2.1270022,0.61314631,-0.14726466,-0.13546371,0.97977674,0
-4.9944754,-1.2686592,-1.7479615,-0.79413879,-0.57431269,-0.19876695,0
5.1302328,1.5509973,0.15865374,0.79413879,0.57431269,0.19876695,0
5.745327,0.53660464,0.26875401,0.79413879,0.57431269,0.19876695,0
2.475626,0.22269154,-0.65646124,0.14726466,0.13546371,-0.97977674,0
-4.0438185,1.6487385,-1.0480065,-0.58962393,0.80735016,0.023001075,0
3.5822294,3.6943412,0.3765583,0.79413879,0.57431269,0.19876695,0
4.4704866,-0.54909128,1.5584953,-0.14726466,-0.13546371,0.97977674,0
-3.2516391,2.1510441,0.19598556,-0.58962393,0.80735016,0.023001075,0
0.024613202,0.8240118,0.98949236,-0.14726466,-0.13546371,0.97977674,0
-1.8167987,-5.7875824,-0.54700565,0.58962393,-0.80735016,-0.023001075,0
1.4475437,0.25723886,-0.89482081,0.14726466,0.13546371,-0.97977674,0
-1.0610303,-1.8840129,-1.3644689,0.14726466,0.13546371,-0.97977674,0
-0.068471909,-4.1612382,-0.67181313,0.58962393,-0.80735016,-0.023001075,0
3.2493317,-1.8728667,0.40457344,0.58962393,-0.80735016,-0.023001075,0
-3.9774976,-3.088057,-0.94879532,-0.79413879,-0.57431269,-0.19876695,0
4.8864684,1.79677,0.99338531,0.79413879,0.57431269,0.19876695,0
-2.47509,-1.783584,-1.5449595,0.14726466,0.13546371,-0.97977674,0
5.0306101,1.7166841,0.50523615,0.79413879,0.57431269,0.19876695,0
0.56965876,-3.9311414,-0.99357486,0.58962393,-0.80735016,-0.023001075,0
-2.4690771,0.015436217,-1.4367341,0.14726466,0.13546371,-0.97977674,0
5.6889224,0.59344959,0.38922548,0.79413879,0.57431269,0.19876695,0
-5.9072804,-0.43622899,-0.19003677,-0.79413879,-0.57431269,-0.19876695,0
4.0371356,0.33485866,-0.20862246,0.14726466,0.13546371,-0.97977674,0
3.3205864,3.8428278,0.50089312,0.79413879,0.57431269,0.19876695,0
-1.5061712,-5.3357639,-1.2142837,0.58962393,-0.80735016,-0.023001075,0
-1.4329648,2.4099839,1.0859771,-0.14726466,-0.13546371,0.97977674,0
3.2654107,3.7315235,1.6432533,0.79413879,0.57431269,0.19876695,0
4.7254272,1.707171,1.8245184,0.79413879,0.57431269,0.19876695,0
5.2151093,1.1850252,0.85356665,0.79413879,0.57431269,0.19876695,0
3.5614572,-0.76557273,1.5611303,-0.14726466,-0.13546371,0.97977674,0
-3.0662673,-3.8181791,-0.86769819,-0.79413879,-0.57431269,-0.19876695,0
4.6756344,1.9677969,1.1604228,0.79413879,0.57431269,0.19876695,0
2.6632452,4.6103306,1.9210117,-0.14726466,-0.13546371,0.97977674,0
4.2100158,3.1042547,0.088117123,0.79413879,0.57431269,0.19876695,0
-5.9037161,0.20626748,-1.5980029,-0.58962393,0.80735016,0.023001075,0
-4.0455966,-0.73571068,-1.6039431,0.14726466,0.13546371,-0.97977674,0
-0.65281415,2.2172401,1.3064836,-0.14726466,-0.13546371,0.97977674,0
5.1118164,1.3976634,1.4196877,0.79413879,0.57431269,0.19876695,0
-3.2048638,1.963335,0.26846457,-0.58962393,0.80735016,0.023001075,0
2.7701931,0.44649363,-0.7044251,0.14726466,0.13546371,-0.97977674,0
1.6404771,2.1332145,-0.36806023,0.14726466,0.13546371,-0.97977674,0
-2.8100471,1.3971114,-1.1684769,0.14726466,0.13546371,-0.97977674,0
5.5160251,1.1628287,0.59098864,0.79413879,0.57431269,0.19876695,0
-0.30975723,4.2069511,-0.50934178,0.14726466,0.13546371,-0.97977674,0
0.68539619,-4.0323896,-0.11514832,0.58962393,-0.80735016,-0.023001075,0
-1.9336549,-4.2435017,-1.9603658,0.14726466,0.13546371,-0.97977674,0
-5.4411597,-1.1105728,-0.3246026,-0.79413879,-0.57431269,-0.19876695,0
-0.25265026,2.2667928,-0.77057213,0.14726466,0.13546371,-0.97977674,0
-4.1275725,0.76447248,0.62215447,-0.14726466,-0.13546371,0.97977674,0
1.4022176,-3.0557971,-0.99117088,0.58962393,-0.80735016,-0.023001075,0
-0.78198433,3.7353201,-0.10220268,-0.58962393,0.80735016,0.023001075,0
2.3835599,1.4562932,1.4642957,-0.14726466,-0.13546371,0.97977674,0
1.9909844,-3.1229258,0.63337851,0.58962393,-0.80735016,-0.023001075,0
0.70709729,4.4610105,1.7839504,-0.14726466,-0.13546371,0.97977674,0
3.1403468,-0.015444875,1.3646576,-0.14726466,-0.13546371,0.97977674,0
3.6761494,3.4328632,0.58512592,0.79413879,0.57431269,0.19876695,0
-1.7566764,-5.5873618,-1.5943403,0.58962393,-0.80735016,-0.023001075,0
3.0323479,4.129982,0.53829098,0.79413879,0.57431269,0.19876695,0
-0.71118116,-4.5339632,0.30661869,-0.14726466,-0.13546371,0.97977674,0
-6.1680298,-0.0096607208,-0.57219553,-0.58962393,0.80735016,0.023001075,0
2.8138902,0.69713193,1.3604262,-0.14726466,-0.13546371,0.97977674,0
-1.5639124,-5.3306704,-0.61193967,0.58962393,-0.80735016,-0.023001075,0
-2.9054687,-3.6275344,0.26919866,-0.14726466,-0.13546371,0.97977674,0
0.75653982,4.9108906,0.9032104,-0.58962393,0.80735016,0.023001075,0
-4.2603855,-0.099278569,-1.6182718,0.14726466,0.13546371,-0.97977674,0
-3.8499079,-3.0274405,-0.32392502,-0.79413879,-0.57431269,-0.19876695,0
4.3343639,2.5487401,1.0569096,0.79413879,0.57431269,0.19876695,0
5.1477146,1.2476768,0.16144323,0.79413879,0.57431269,0.19876695,0
-0.87397957,2.0721672,1.1459183,-0.14726466,-0.13546371,0.97977674,0
-3.1000845,0.50894988,0.49771023,-0.14726466,-0.13546371,0.97977674,0
-5.0764847,-1.5036641,-1.3287039,-0.79413879,-0.57431269,-0.19876695,0
4.8649311,1.7824852,1.0899472,0.79413879,0.57431269,0.19876695,0
5.5234218,0.36920547,-0.059427261,0.14726466,0.13546371,-0.97977674,0
-0.55602384,-3.8026824,-1.6617011,0.14726466,0.13546371,-0.97977674,0
1.5509887,-3.0444937,-0.7556954,0.58962393,-0.80735016,-0.023001075,0
5.2731071,1.2148371,0.6466217,0.79413879,0.57431269,0.19876695,0
5.1426396,0.92684603,1.6445422,0.79413879,0.57431269,0.19876695,0
-2.139833,2.0604892,-1.1305673,0.14726466,0.13546371,-0.97977674,0
0.23984098,-4.3980961,0.23299718,0.58962393,-0.80735016,-0.023001075,0
3.026988,0.98526353,1.4740181,-0.14726466,-0.13546371,0.97977674,0
2.3631644,4.5195475,2.1798055,-0.14726466,-0.13546371,0.97977674,0
1.0182917,-2.4751177,-1.0603204,0.14726466,0.13546371,-0.97977674,0
4.3350053,1.8160976,2.0566871,-0.14726466,-0.13546371,0.97977674,0
-3.6204541,-1.1268224,-1.6417966,0.14726466,0.13546371,-0.97977674,0
-3.2284825,-3.770905,-1.2161832,-0.79413879,-0.57431269,-0.19876695,0
-2.6131101,-4.735569,-1.3079004,-0.79413879,-0.57431269,-0.19876695,0
2.3656018,5.002214,0.96113849,0.79413879,0.57431269,0.19876695,0
3.2578471,-0.41415858,-0.617764,0.14726466,0.13546371,-0.97977674,0
-3.621515,0.031066895,0.47792244,-0.14726466,-0.13546371,0.97977674,0
0.064064026,-4.2329845,-0.073394835,0.58962393,-0.80735016,-0.023001075,0
1.8169048,5.2594433,1.8502754,0.79413879,0.57431269,0.19876695,0
5.6840043,-0.20934701,0.13425779,0.58962393,-0.80735016,-0.023001075,0
4.1785955,2.9108863,0.81403875,0.79413879,0.57431269,0.19876695,0
2.499028,-0.48087764,1.2996826,-0.14726466,-0.13546371,0.97977674,0
-4.0830727,-1.8738307,-2.002785,0.14726466,0.13546371,-0.97977674,0
4.5269384,2.7764554,-0.13459969,0.79413879,0.57431269,0.19876695,0
-5.4672451,-0.011316895,-1.8691716,0.14726466,0.13546371,-0.97977674,0
-1.1208915,-2.8732665,0.57113421,-0.14726466,-0.13546371,0.97977674,0
-5.5971441,-0.98133683,-0.67358637,-0.79413879,-0.57431269,-0.19876695,0
2.4356372,0.41982681,1.5615982,-0.14726466,-0.13546371,0.97977674,0
-2.9653728,2.2157221,0.88053131,-0.58962393,0.80735016,0.023001075,0
2.2382157,5.4761891,1.088496,0.79413879,0.57431269,0.19876695,0
-5.1056633,0.68552303,-1.0246496,-0.58962393,0.80735016,0.023001075,0
-0.081577778,4.3897185,0.9648273,-0.58962393,0.80735016,0.023001075,0
-2.1525195,-1.8401468,0.25363135,-0.14726466,-0.13546371,0.97977674,0
-4.5981989,-2.0629411,-0.1244688,-0.79413879,-0.57431269,-0.19876695,0
0.91126156,4.0712895,-0.34766901,0.14726466,0.13546371,-0.97977674,0
-5.1937618,-1.2017202,-0.046343803,-0.79413879,-0.57431269,-0.19876695,0
4.1844954,2.5657632,0.94780397,0.79413879,0.57431269,0.19876695,0
1.4635048,5.4782238,0.43179154,-0.58962393,0.80735016,0.023001075,0
1.0255182,1.3524662,-0.61028123,0.14726466,0.13546371,-0.97977674,0
3.509294,-0.10715896,1.3926473,-0.14726466,-0.13546371,0.97977674,0
2.0840852,5.6637878,0.25821042,0.79413879,0.57431269,0.19876695,0
0.51771784,4.6772318,0.82076979,-0.58962393,0.80735016,0.023001075,0
3.559346,3.3781545,0.356987,0.79413879,0.57431269,0.19876695,0
-5.935997,-0.41717529,-0.59141588,-0.79413879,-0.57431269,-0.19876695,0
1.7760491,-2.1332364,0.96162212,-0.14726466,-0.13546371,0.97977674,0
1.4097021,0.65540814,-0.73671353,0.14726466,0.13546371,-0.97977674,0
-2.7613785,-2.7966483,-1.6724365,0.14726466,0.13546371,-0.97977674,0
2.5872366,4.2393117,1.67554,0.79413879,0.57431269,0.19876695,0
-1.8768544,-5.5496812,-0.920434,0.58962393,-0.80735016,-0.023001075,0
4.5357199,1.7108471,1.4318452,0.79413879,0.57431269,0.19876695,0
-0.94762278,3.5167422,-0.70800686,0.14726466,0.13546371,-0.97977674,0
1.8585551,-2.9614854,-0.3632077,0.58962393,-0.80735016,-0.023001075,0
-0.74614334,-4.8458953,-0.10420096,0.58962393,-0.80735016,-0.023001075,0
-3.3106961,1.1460409,-1.2937398,0.14726466,0.13546371,-0.97977674,0
-0.9786936,1.1454417,0.97513163,-0.14726466,-0.13546371,0.97977674,0
1.7378554,5.714107,1.4203529,-0.58962393,0.80735016,0.023001075,0
3.6146545,-1.6938281,1.3397419,-0.14726466,-0.13546371,0.97977674,0
0.70046008,-1.2209063,-0.94543117,0.14726466,0.13546371,-0.97977674,0
-2.613893,-2.0467367,0.17601657,-0.14726466,-0.13546371,0.97977674,0
1.20295,-0.45482588,1.0731394,-0.14726466,-0.13546371,0.97977674,0
-4.1959491,-2.8068662,-0.89833832,-0.79413879,-0.57431269,-0.19876695,0
-2.6770403,-4.30058,-1.5706229,-0.79413879,-0.57431269,-0.19876695,0
-1.5458593,-5.6472473,-1.6243392,0.58962393,-0.80735016,-0.023001075,0
-5.1738663,-1.1983191,-1.2388849,-0.79413879,-0.57431269,-0.19876695,0
1.9552464,5.175528,1.5246859,0.79413879,0.57431269,0.19876695,0
1.6493528,-0.20016062,-0.97594607,0.14726466,0.13546371,-0.97977674,0
-2.1246648,-3.8258777,0.00075864792,-0.14726466,-0.13546371,0.97977674,0
-4.8358841,-2.2934842,-0.059721947,-0.79413879,-0.57431269,-0.19876695,0
0.81995964,4.8062177,1.7874182,-0.14726466,-0.13546371,0.97977674,0
-5.1798863,-1.4914761,-0.86226082,-0.79413879,-0.57431269,-0.19876695,0
1.9921248,-2.894551,-0.14557552,0.58962393,-0.80735016,-0.023001075,0
2.585746,1.0121145,1.4277967,-0.14726466,-0.13546371,0.97977674,0
-4.9098191,-1.7679799,-1.0830312,-0.79413879,-0.57431269,-0.19876695,0
-4.6833239,0.6955297,-0.383255,-0.58962393,0.80735016,0.023001075,0
-0.73171854,-1.5048918,0.58657789,-0.14726466,-0.13546371,0.97977674,0
5.5013752,0.64532709,0.68722248,0.79413879,0.57431269,0.19876695,0
2.3854442,5.1908193,1.2262847,0.79413879,0.57431269,0.19876695,0
2.3579531,-2.6076601,0.10264266,0.58962393,-0.80735016,-0.023001075,0
-2.6752822,2.5356596,0.64974701,-0.58962393,0.80735016,0.023001075,0
-4.7710657,1.016644,-0.56495667,-0.58962393,0.80735016,0.023001075,0
1.9676876,-2.9876003,-1.0015222,0.14726466,0.13546371,-0.97977674,0
1.5452456,5.6634164,0.39102912,-0.58962393,0.80735016,0.023001075,0
4.3098907,2.0928087,1.8847635,0.79413879,0.57431269,0.19876695,0
3.4679561,3.4453573,0.52775574,0.79413879,0.57431269,0.19876695,0
-5.7629104,-0.66853213,-0.73592567,-0.79413879,-0.57431269,-0.19876695,0
4.0524783,2.6361718,0.49035788,0.79413879,0.57431269,0.19876695,0
-3.7612422,1.4645458,0.69977617,-0.58962393,0.80735016,0.023001075,0
-1.2427101,-5.2151613,-0.57093978,0.58962393,-0.80735016,-0.023001075,0
-1.5128701,3.10392,0.9450841,-0.58962393,0.80735016,0.023001075,0
1.5511229,5.6658034,1.0545831,-0.58962393,0.80735016,0.023001075,0
-0.67594624,-4.8550639,-0.24410224,0.58962393,-0.80735016,-0.023001075,0
1.9915243,1.1962808,-0.45705271,0.14726466,0.13546371,-0.97977674,0
-4.7407327,0.91289437,-0.65731812,-0.58962393,0.80735016,0.023001075,0
1.1778944,4.9630041,1.624542,-0.58962393,0.80735016,0.023001075,0
5.4304762,-0.57709479,1.0147104,0.58962393,-0.80735016,-0.023001075,0
2.7957139,4.5991063,1.4768655,0.79413879,0.57431269,0.19876695,0
-3.5246768,1.7312596,0.15050578,-0.58962393,0.80735016,0.023001075,0
2.0039296,5.4991598,1.002002,0.79413879,0.57431269,0.19876695,0
0.70873046,-3.9417377,-1.4719846,0.58962393,-0.80735016,-0.023001075,0
-1.9647902,-2.691371,-1.6894628,0.14726466,0.13546371,-0.97977674,0
4.9365568,1.7161651,0.88840532,0.79413879,0.57431269,0.19876695,0
6.204597,0.15996933,0.77428532,0.79413879,0.57431269,0.19876695,0
3.3812113,2.5830746,-0.069208384,0.14726466,0.13546371,-0.97977674,0
2.0342629,-2.8717167,0.6853587,0.58962393,-0.80735016,-0.023001075,0
-3.7265062,-2.1956656,-1.7095499,0.14726466,0.13546371,-0.97977674,0
-2.9672608,-4.6973963,-0.47860265,-0.79413879,-0.57431269,-0.19876695,0
-2.5944057,-4.4437218,-1.7536519,-0.79413879,-0.57431269,-0.19876695,0
-5.1079164,-0.85906756,-1.6556411,-0.79413879,-0.57431269,-0.19876695,0
0.63397741,3.3742256,1.5194364,-0.14726466,-0.13546371,0.97977674,0
0.10639489,-1.3275406,0.8671571,-0.14726466,-0.13546371,0.97977674,0
2.9472995,-2.2182829,0.12400842,0.58962393,-0.80735016,-0.023001075,0
-5.7495694,0.23475742,0.013957977,-0.58962393,0.80735016,0.023001075,0
-3.3710465,1.8052013,0.46450806,-0.58962393,0.80735016,0.023001075,0
-2.5673211,-5.2190547,-0.38711667,-0.79413879,-0.57431269,-0.19876695,0
-1.439543,3.17699,0.023558557,-0.58962393,0.80735016,0.023001075,0
2.5921052,-2.5339127,-0.90267825,0.58962393,-0.80735016,-0.023001075,0
6.0677176,0.26613307,0.63168764,0.79413879,0.57431269,0.19876695,0
-0.56389523,3.726393,-0.54354858,-0.58962393,0.80735016,0.023001075,0
3.1886144,3.5338581,2.0167439,0.79413879,0.57431269,0.19876695,0
2.9269443,1.4283593,-0.30656171,0.14726466,0.13546371,-0.97977674,0
0.76187181,-3.7946754,-0.6562838,0.58962393,-0.80735016,-0.023001075,0
4.7573581,-1.094517,1.2187257,0.58962393,-0.80735016,-0.023001075,0
0.39912534,1.3478129,-0.69601774,0.14726466,0.13546371,-0.97977674,0
-5.2630191,-1.4222562,-0.5610404,-0.79413879,-0.57431269,-0.19876695,0
2.072648,5.235898,1.3836727,0.79413879,0.57431269,0.19876695,0
0.97573638,1.1786199,1.1277933,-0.14726466,-0.13546371,0.97977674,0
-5.0579782,-0.8254993,-1.6637893,-0.79413879,-0.57431269,-0.19876695,0
-1.5568483,2.9508615,0.5626598,-0.58962393,0.80735016,0.023001075,0
-3.933121,-1.6333575,-2.0344687,0.14726466,0.13546371,-0.97977674,0
-0.4943018,3.9902625,1.1040673,-0.58962393,0.80735016,0.023001075,0
-3.2886221,-3.8132,-0.022282124,-0.79413879,-0.57431269,-0.19876695,0
4.3266945,-0.98421502,0.57394814,0.58962393,-0.80735016,-0.023001075,0
-2.5866253,2.3915727,0.72308815,-0.58962393,0.80735016,0.023001075,0
-3.3787069,1.3279891,-1.2821174,0.14726466,0.13546371,-0.97977674,0
-4.9574862,0.5991596,-0.53980589,-0.58962393,0.80735016,0.023001075,0
-2.6191282,-5.0594454,-0.19148517,-0.79413879,-0.57431269,-0.19876695,0
3.5899978,3.503551,0.014036179,0.14726466,0.13546371,-0.97977674,0
-0.47062778,-4.6393046,-0.8029964,0.58962393,-0.80735016,-0.023001075,0
3.8371665,2.854265,1.8167927,0.79413879,0.57431269,0.19876695,0
-3.4203854,-0.00088953972,0.30251503,-0.14726466,-0.13546371,0.97977674,0
2.6254849,-2.4795518,0.24940407,0.58962393,-0.80735016,-0.023001075,0
1.4569504,4.4308772,1.7604114,-0.14726466,-0.13546371,0.97977674,0
4.4605827,2.0253859,1.778307,0.79413879,0.57431269,0.19876695,0
5.6900544,0.67012167,0.29251337,0.79413879,0.57431269,0.19876695,0
-3.4761271,-3.5210302,-1.7585082,-0.79413879,-0.57431269,-0.19876695,0
-5.4215474,-1.3349349,-0.48253536,-0.79413879,-0.57431269,-0.19876695,0
5.6583395,0.026831388,1.9286942,0.79413879,0.57431269,0.19876695,0
-1.2011595,3.6068044,-0.59357077,-0.58962393,0.80735016,0.023001075,0
-0.82252932,3.0576782,-0.79078114,0.14726466,0.13546371,-0.97977674,0
-3.2323244,-3.6886775,-0.74580407,-0.79413879,-0.57431269,-0.19876695,0
0.0091872215,4.1483536,0.34277982,-0.58962393,0.80735016,0.023001075,0
5.9780626,-0.14919281,0.48294163,0.58962393,-0.80735016,-0.023001075,0
0.70747757,5.0627637,1.208041,-0.58962393,0.80735016,0.023001075,0
-5.3567452,-0.74600136,-1.4206738,-0.79413879,-0.57431269,-0.19876695,0
1.4773684,5.5874224,0.89509797,-0.58962393,0.80735016,0.023001075,0
-5.6962147,-0.67891383,-0.2388196,-0.79413879,-0.57431269,-0.19876695,0
-2.9294038,-4.4458141,-0.37737799,-0.79413879,-0.57431269,-0.19876695,0
2.9624877,4.5264578,0.81507158,0.79413879,0.57431269,0.19876695,0
3.2977123,-1.804428,-0.22768188,0.58962393,-0.80735016,-0.023001075,0
-0.55580199,1.1780002,1.1410363,-0.14726466,-0.13546371,0.97977674,0
-1.798558,-5.4689903,-1.0049548,0.58962393,-0.80735016,-0.023001075,0
-1.0629989,-1.3827329,-1.21658,0.14726466,0.13546371,-0.97977674,0
-2.4474006,-5.0650682,-1.1605144,-0.79413879,-0.57431269,-0.19876695,0
-4.8916159,-1.3471038,-0.76384497,-0.79413879,-0.57431269,-0.19876695,0
-0.016401291,2.4849877,1.1887503,-0.14726466,-0.13546371,0.97977674,0
-0.63073707,3.8373086,1.4294643,-0.58962393,0.80735016,0.023001075,0
-1.5291729,-3.9495711,-1.8374134,0.14726466,0.13546371,-0.97977674,0
-5.0123324,0.50195265,-1.1782198,-0.58962393,0.80735016,0.023001075,0
-2.8207638,-2.5194871,0.068443298,-0.14726466,-0.13546371,0.97977674,0
2.6543937,4.772974,0.73205638,0.79413879,0.57431269,0.19876695,0
-4.5207634,-2.2373557,-1.2968907,-0.79413879,-0.57431269,-0.19876695,0
-4.6203814,-1.724436,-1.2830939,-0.79413879,-0.57431269,-0.19876695,0
5.394331,0.93361187,-0.18629742,0.14726466,0.13546371,-0.97977674,0
2.4981022,3.0577784,-0.19197226,0.14726466,0.13546371,-0.97977674,0
3.9789569,-1.2181802,0.28430605,0.58962393,-0.80735016,-0.023001075,0
1.8554788,-2.8310034,0.92023945,0.58962393,-0.80735016,-0.023001075,0
-2.3479371,0.80049151,-1.417966,0.14726466,0.13546371,-0.97977674,0
-3.3879094,-3.3954589,0.17849064,-0.14726466,-0.13546371,0.97977674,0
2.877367,3.1381936,-0.13253665,0.14726466,0.13546371,-0.97977674,0
5.3298793,0.47945678,1.6701303,0.79413879,0.57431269,0.19876695,0
-2.8102713,-2.4510686,-1.8593163,0.14726466,0.13546371,-0.97977674,0
0.53467649,-1.1431983,-1.0300028,0.14726466,0.13546371,-0.97977674,0
3.340107,4.1698074,0.15822411,0.14726466,0.13546371,-0.97977674,0
-2.4418998,2.5280294,-0.60399294,-0.58962393,0.80735016,0.023001075,0
-4.3170757,-0.72239721,-1.6804132,0.14726466,0.13546371,-0.97977674,0
-4.0724931,-2.582525,-0.63346672,-0.79413879,-0.57431269,-0.19876695,0
-4.1501684,1.1461074,0.1769197,-0.58962393,0.80735016,0.023001075,0
1.5599699,-0.11770988,-0.77849257,0.14726466,0.13546371,-0.97977674,0
-2.2345243,-5.5641093,-0.9858551,-0.79413879,-0.57431269,-0.19876695,0
4.8912983,-0.94106317,0.27714443,0.58962393,-0.80735016,-0.023001075,0
-2.3662522,-3.6509387,0.093623877,-0.14726466,-0.13546371,0.97977674,0
4.9999824,0.20983958,-0.33579636,0.14726466,0.13546371,-0.97977674,0
1.6021276,-2.8843193,-1.0604663,0.14726466,0.13546371,-0.97977674,0
-1.4400904,-5.4047942,-1.243867,0.58962393,-0.80735016,-0.023001075,0
-4.0913706,-3.2135425,-0.14340305,-0.79413879,-0.57431269,-0.19876695,0
-2.3292778,2.1703496,1.0868809,-0.14726466,-0.13546371,0.97977674,0
0.56807566,4.9484811,0.85810375,-0.58962393,0.80735016,0.023001075,0
-3.2808745,-3.337621,-1.5047786,-0.79413879,-0.57431269,-0.19876695,0
-4.6298399,-1.6296945,-1.4471235,-0.79413879,-0.57431269,-0.19876695,0
-4.2095022,1.4826353,-0.1329515,-0.58962393,0.80735016,0.023001075,0
-5.1120176,-1.4879351,-0.26972055,-0.79413879,-0.57431269,-0.19876695,0
-5.0676017,0.50123978,-0.032930851,-0.58962393,0.80735016,0.023001075,0
3.1716754,4.5847359,0.030669212,0.79413879,0.57431269,0.19876695,0
-0.017471313,1.4032035,1.0627736,-0.14726466,-0.13546371,0.97977674,0
-0.84816384,-3.4958291,0.24396241,-0.14726466,-0.13546371,0.97977674,0
5.0284171,1.2098249,1.8397636,0.79413879,0.57431269,0.19876695,0
-2.6905811,2.213099,-0.79863107,-0.58962393,0.80735016,0.023001075,0
2.0638673,3.9388928,-0.25729728,0.14726466,0.13546371,-0.97977674,0
4.28721,-1.3345802,0.95041895,0.58962393,-0.80735016,-0.023001075,0
-1.6138027,-5.1264057,-1.8408623,0.14726466,0.13546371,-0.97977674,0
-3.1159592,1.9379697,-0.1156888,-0.58962393,0.80735016,0.023001075,0
-2.5389471,1.6816018,-1.3526013,0.14726466,0.13546371,-0.97977674,0
-5.2044811,-1.0167167,-0.81729889,-0.79413879,-0.57431269,-0.19876695,0
0.772578,-1.0806662,1.0368412,-0.14726466,-0.13546371,0.97977674,0
-0.84614277,-5.100791,-0.50463808,0.58962393,-0.80735016,-0.023001075,0
0.51913118,-2.2380326,-1.2803104,0.14726466,0.13546371,-0.97977674,0
-1.4136074,-2.7387657,-1.567852,0.14726466,0.13546371,-0.97977674,0
-1.1529224,-4.7523704,-1.901792,0.14726466,0.13546371,-0.97977674,0
2.7541294,5.0162148,0.0027711391,0.79413879,0.57431269,0.19876695,0
-2.5128338,-4.961215,-1.6059248,-0.79413879,-0.57431269,-0.19876695,0
-2.1933658,-0.28189072,-1.4500456,0.14726466,0.13546371,-0.97977674,0
-1.7396929,-5.3800397,-1.5739357,0.58962393,-0.80735016,-0.023001075,0
-3.9695172,-3.3552737,-0.52429342,-0.79413879,-0.57431269,-0.19876695,0
-3.2618232,-3.7731576,-0.39623499,-0.79413879,-0.57431269,-0.19876695,0
5.6650114,0.82783675,-0.06269455,0.79413879,0.57431269,0.19876695,0
-1.2880819,-5.3307309,-1.7772552,0.58962393,-0.80735016,-0.023001075,0
5.4911356,0.36753404,1.3561687,0.79413879,0.57431269,0.19876695,0
2.0835583,-2.045526,0.97678345,-0.14726466,-0.13546371,0.97977674,0
0.81633902,4.780293,0.17372906,-0.58962393,0.80735016,0.023001075,0
-5.154027,0.40901184,0.22066498,-0.58962393,0.80735016,0.023001075,0
-5.2239933,-0.79970741,-1.3575101,-0.79413879,-0.57431269,-0.19876695,0
4.8749514,0.25236106,1.6329265,-0.14726466,-0.13546371,0.97977674,0
2.787802,4.0943136,1.8192654,0.79413879,0.57431269,0.19876695,0
-3.4937408,-3.3787806,-0.81071162,-0.79413879,-0.57431269,-0.19876695,0
2.9409771,4.1073656,1.58919,0.79413879,0.57431269,0.19876695,0
0.966712,-3.5893555,-0.53941393,0.58962393,-0.80735016,-0.023001075,0
1.9755826,-1.3762548,1.2875375,-0.14726466,-0.13546371,0.97977674,0
1.8377647,-3.1592112,0.062924027,0.58962393,-0.80735016,-0.023001075,0
-6.0073624,-0.39458728,-0.034210205,-0.79413879,-0.57431269,-0.19876695,0
-0.52805758,-4.6699624,-0.54333282,0.58962393,-0.80735016,-0.023001075,0
2.6263876,-2.4501979,0.43000376,0.58962393,-0.80735016,-0.023001075,0
2.4757948,2.9161046,1.9615277,-0.14726466,-0.13546371,0.97977674,0
1.4331338,-2.5569234,0.77753389,-0.14726466,-0.13546371,0.97977674,0
2.2574406,-2.8863721,0.52246034,0.58962393,-0.80735016,-0.023001075,0
-4.7900743,-2.0295615,-0.33294678,-0.79413879,-0.57431269,-0.19876695,0
4.7882771,1.9023743,0.35763645,0.79413879,0.57431269,0.19876695,0
-4.3731742,-1.5297832,0.050779819,-0.14726466,-0.13546371,0.97977674,0
-3.6243367,-2.6579995,-2.0484695,0.14726466,0.13546371,-0.97977674,0
4.4482384,2.7190177,0.053016186,0.14726466,0.13546371,-0.97977674,0
0.91340351,-1.9714514,-0.95188737,0.14726466,0.13546371,-0.97977674,0
2.3595619,4.9429054,1.9533422,0.79413879,0.57431269,0.19876695,0
-2.2737093,2.7181139,0.13941693,-0.58962393,0.80735016,0.023001075,0
-1.8282747,-1.819867,-1.4415146,0.14726466,0.13546371,-0.97977674,0
0.8929944,5.1332216,0.91375542,-0.58962393,0.80735016,0.023001075,0
0.50387645,2.1736295,-0.72017956,0.14726466,0.13546371,-0.97977674,0
1.0742337,-0.8085801,1.046237,-0.14726466,-0.13546371,0.97977674,0
-2.9143898,2.3872628,0.92502666,-0.58962393,0.80735016,0.023001075,0
