-1.450366,1.4087586,-0.2874856,-0.14292727,0.75548065,0.63939118,0
-0.66716051,-3.0525026,1.8322084,0.14292727,-0.75548065,-0.63939118,0
1.1630242,-4.3081656,3.8610501,0.61497754,-0.43838823,0.65545321,0
-0.73729706,-4.2264118,4.3986001,-0.77548343,-0.48689324,0.40194589,0
-0.46020818,3.4198239,-2.3028011,-0.14292727,0.75548065,0.63939118,0
5.501873,0.16220403,2.684247,0.61497754,-0.43838823,0.65545321,0
3.4969175,1.763288,-2.2961106,0.77548343,0.48689324,-0.40194589,0
0.92817056,-0.051885843,1.7941313,-0.14292727,0.75548065,0.63939118,0
-4.1657724,-2.4194403,0.3509489,-0.77548343,-0.48689324,0.40194589,0
2.944324,0.27964115,1.9188583,-0.14292727,0.75548065,0.63939118,0
3.5262775,-1.8648609,1.4010448,0.14292727,-0.75548065,-0.63939118,0
-1.5032735,4.249825,-3.6653485,-0.61497754,0.43838823,-0.65545321,0
-0.50937665,0.26305771,1.1032417,-0.14292727,0.75548065,0.63939118,0
5.1677256,0.11614633,2.7184176,0.61497754,-0.43838823,0.65545321,0
4.0746107,1.5108802,-1.7304561,0.77548343,0.48689324,-0.40194589,0
3.1906409,2.6457653,-1.4542441,0.77548343,0.48689324,-0.40194589,0
-1.1811655,2.6095221,-1.7848589,-0.14292727,0.75548065,0.63939118,0
3.3765609,-2.2411237,3.2433825,0.61497754,-0.43838823,0.65545321,0
-3.983722,1.490952,-0.96003103,-0.14292727,0.75548065,0.63939118,0
-0.74680543,3.8868327,-3.2177153,-0.14292727,0.75548065,0.63939118,0
-2.8949828,2.4421639,-3.3993359,-0.61497754,0.43838823,-0.65545321,0
-2.2426791,-1.9287621,3.3568566,-0.14292727,0.75548065,0.63939118,0
3.6926186,1.5792578,0.36685747,-0.14292727,0.75548065,0.63939118,0
-1.7645853,3.1441107,-4.0165696,-0.61497754,0.43838823,-0.65545321,0
1.8814976,-3.1200624,4.0300136,0.61497754,-0.43838823,0.65545321,0
-1.6543397,-1.0865111,-0.85270691,0.14292727,-0.75548065,-0.63939118,0
0.064924777,-0.51213491,2.0140567,-0.14292727,0.75548065,0.63939118,0
-4.5868049,-0.85204035,1.1302154,-0.77548343,-0.48689324,0.40194589,0
-1.2779005,-3.4055436,4.7891831,-0.77548343,-0.48689324,0.40194589,0
5.5029631,0.27326989,2.2957289,-0.14292727,0.75548065,0.63939118,0
-0.52922583,3.4416485,-4.8710318,-0.61497754,0.43838823,-0.65545321,0
-2.2537863,3.3754182,-2.6913681,-0.14292727,0.75548065,0.63939118,0
-6.1041222,-0.25367975,-0.77583885,-0.77548343,-0.48689324,0.40194589,0
-0.96442914,-2.8460538,4.8085632,-0.14292727,0.75548065,0.63939118,0
2.4711597,-3.0763137,3.1166644,0.61497754,-0.43838823,0.65545321,0
-3.9671526,-2.0953698,0.67952758,-0.77548343,-0.48689324,0.40194589,0
0.22291605,-0.15358639,-1.3231983,0.14292727,-0.75548065,-0.63939118,0
0.044432402,-3.740592,2.8127818,0.14292727,-0.75548065,-0.63939118,0
0.20691895,-1.8572619,0.79430938,0.14292727,-0.75548065,-0.63939118,0
6.183444,0.2730577,2.2574992,0.61497754,-0.43838823,0.65545321,0
1.7386122,3.1495214,-4.0375638,0.77548343,0.48689324,-0.40194589,0
3.8050718,0.57175994,-1.2526616,0.14292727,-0.75548065,-0.63939118,0
1.7314829,-1.7536174,4.1114416,-0.14292727,0.75548065,0.63939118,0
2.5911579,-3.2556632,2.7868223,0.14292727,-0.75548065,-0.63939118,0
4.6792827,0.88209534,-0.91947848,0.77548343,0.48689324,-0.40194589,0
-4.5444221,-0.91846198,1.6165661,-0.77548343,-0.48689324,0.40194589,0
0.21385312,5.0201416,-4.4135776,-0.61497754,0.43838823,-0.65545321,0
0.33259869,1.3322308,-3.1447845,0.14292727,-0.75548065,-0.63939118,0
2.3437078,0.8824836,-1.9958563,0.14292727,-0.75548065,-0.63939118,0
3.7308383,-2.5734982,2.0543509,0.14292727,-0.75548065,-0.63939118,0
-4.5846334,1.9229283,-2.1229591,-0.61497754,0.43838823,-0.65545321,0
-4.3390255,-1.7204585,0.85149306,-0.77548343,-0.48689324,0.40194589,0
-0.16758084,-4.1504421,5.2869701,0.61497754,-0.43838823,0.65545321,0
-5.861187,-0.22288537,-0.093822479,-0.77548343,-0.48689324,0.40194589,0
1.3620255,4.0356574,-3.5870266,0.77548343,0.48689324,-0.40194589,0
-5.8740883,1.3200061,-1.27771,-0.61497754,0.43838823,-0.65545321,0
6.1603465,0.4232837,0.79428124,0.77548343,0.48689324,-0.40194589,0
-5.8994517,-0.37079108,-1.1219537,-0.77548343,-0.48689324,0.40194589,0
4.1770458,0.039252788,-0.40906966,0.14292727,-0.75548065,-0.63939118,0
4.1020603,1.927086,-1.3945487,0.77548343,0.48689324,-0.40194589,0
0.92888778,-2.2714365,1.6274638,0.14292727,-0.75548065,-0.63939118,0
0.92556405,4.3006845,-4.0737991,0.77548343,0.48689324,-0.40194589,0
2.8189797,-0.18943369,-0.88103372,0.14292727,-0.75548065,-0.63939118,0
2.5170493,1.7571571,-0.080630697,-0.14292727,0.75548065,0.63939118,0
-0.57566905,4.1184225,-3.6122327,-0.14292727,0.75548065,0.63939118,0
2.8932691,-1.7402787,3.9422617,0.61497754,-0.43838823,0.65545321,0
-3.2396386,2.050904,-3.3378439,-0.61497754,0.43838823,-0.65545321,0
-2.1968405,-2.4054511,0.86668706,0.14292727,-0.75548065,-0.63939118,0
4.657711,-0.35290122,2.8555236,0.61497754,-0.43838823,0.65545321,0
-4.1506329,-1.592607,1.1600422,-0.77548343,-0.48689324,0.40194589,0
1.2825673,3.9817142,-3.9503112,0.77548343,0.48689324,-0.40194589,0
-4.11412,-1.3373581,1.9132922,-0.77548343,-0.48689324,0.40194589,0
-4.4200311,-0.83562994,1.7511388,-0.77548343,-0.48689324,0.40194589,0
1.562976,2.1969583,-3.5348063,0.14292727,-0.75548065,-0.63939118,0
2.9974246,2.1439712,-2.4273195,0.77548343,0.48689324,-0.40194589,0
4.4600916,-1.358621,2.4903564,0.61497754,-0.43838823,0.65545321,0
-5.0334702,-1.8603137,-0.29815841,-0.77548343,-0.48689324,0.40194589,0
-5.4986119,-0.2294488,-2.3911073,-0.61497754,0.43838823,-0.65545321,0
6.5627112,0.39730406,1.6574116,0.77548343,0.48689324,-0.40194589,0
-3.4055305,1.341205,-3.3007751,-0.61497754,0.43838823,-0.65545321,0
-5.4894733,-0.1658282,0.42831397,-0.77548343,-0.48689324,0.40194589,0
-0.58073854,-4.7638464,4.0276875,-0.77548343,-0.48689324,0.40194589,0
-0.56967652,0.072114348,1.3773568,-0.14292727,0.75548065,0.63939118,0
2.3571596,-2.0969539,1.5675802,0.14292727,-0.75548065,-0.63939118,0
-1.6523799,-0.22676706,1.2496372,-0.14292727,0.75548065,0.63939118,0
5.9779944,0.24442452,0.5075171,0.77548343,0.48689324,-0.40194589,0
3.9619064,2.4112227,-0.9046241,0.77548343,0.48689324,-0.40194589,0
2.2336748,2.7698309,-3.524358,0.77548343,0.48689324,-0.40194589,0
1.0573521,-3.463402,4.0214443,0.61497754,-0.43838823,0.65545321,0
5.059124,0.38905078,-0.73774743,0.77548343,0.48689324,-0.40194589,0
-3.4129229,1.4037683,-3.211493,-0.61497754,0.43838823,-0.65545321,0
3.1742468,-0.54171103,-0.23546457,0.14292727,-0.75548065,-0.63939118,0
-0.97966886,-4.0102749,4.4676876,-0.77548343,-0.48689324,0.40194589,0
3.4184754,-2.1839623,2.7977176,0.61497754,-0.43838823,0.65545321,0
2.4979248,2.4372373,-3.5400834,0.77548343,0.48689324,-0.40194589,0
-4.9767389,-1.3015356,-0.050985456,-0.77548343,-0.48689324,0.40194589,0
0.5037086,4.2489367,-5.0076241,-0.61497754,0.43838823,-0.65545321,0
-3.6177857,-1.5311617,-0.6390053,0.14292727,-0.75548065,-0.63939118,0
4.4699254,1.7742667,-0.52040529,0.77548343,0.48689324,-0.40194589,0
3.506469,1.2333277,-2.3051112,0.14292727,-0.75548065,-0.63939118,0
0.186257,-1.2889066,2.8760011,-0.14292727,0.75548065,0.63939118,0
1.9166559,-1.8304659,1.064805,0.14292727,-0.75548065,-0.63939118,0
1.8879709,3.0861752,-3.5504501,0.77548343,0.48689324,-0.40194589,0
1.6820893,3.189893,-1.8319371,-0.14292727,0.75548065,0.63939118,0
-2.2732263,-3.7088046,2.4513848,-0.77548343,-0.48689324,0.40194589,0
0.33010435,-2.8374147,1.9199362,0.14292727,-0.75548065,-0.63939118,0
-4.1192737,1.0306076,-2.8346305,-0.61497754,0.43838823,-0.65545321,0
-3.1412182,-0.22211003,-2.0398226,0.14292727,-0.75548065,-0.63939118,0
-2.5201607,1.8929379,-3.8490539,-0.61497754,0.43838823,-0.65545321,0
4.4528308,0.52093863,2.1523848,-0.14292727,0.75548065,0.63939118,0
-0.71880615,-2.4651799,1.1560693,0.14292727,-0.75548065,-0.63939118,0
6.0380845,0.88217854,1.2380319,0.77548343,0.48689324,-0.40194589,0
5.4729919,1.0865556,0.48403025,0.77548343,0.48689324,-0.40194589,0
-2.1095841,-2.1548493,3.7940035,-0.14292727,0.75548065,0.63939118,0
5.1341581,-1.7345203,1.5772762,0.14292727,-0.75548065,-0.63939118,0
1.5139672,-2.8044624,4.046855,0.61497754,-0.43838823,0.65545321,0
2.5323176,-1.8942956,4.2892923,0.61497754,-0.43838823,0.65545321,0
-1.9168224,-1.7573206,3.0354943,-0.14292727,0.75548065,0.63939118,0
-3.3755674,1.5742276,-1.124862,-0.14292727,0.75548065,0.63939118,0
0.80576754,-4.3960276,3.9463587,0.61497754,-0.43838823,0.65545321,0
-2.2668171,2.0130975,-3.8993611,-0.61497754,0.43838823,-0.65545321,0
-0.065197095,0.78915012,0.67876011,-0.14292727,0.75548065,0.63939118,0
-4.0046196,-1.0274462,-0.98547435,0.14292727,-0.75548065,-0.63939118,0
4.9796305,-1.690824,1.8319902,0.61497754,-0.43838823,0.65545321,0
-4.2735848,-1.833693,0.36473534,-0.77548343,-0.48689324,0.40194589,0
1.9693142,-2.9020371,2.4902244,0.14292727,-0.75548065,-0.63939118,0
6.243413,0.20283484,1.8290553,0.61497754,-0.43838823,0.65545321,0
1.6000345,3.1235693,-3.9734755,0.77548343,0.48689324,-0.40194589,0
-3.9917686,-2.2568474,0.69736898,-0.77548343,-0.48689324,0.40194589,0
-1.2330537,-3.91329,3.8666115,-0.77548343,-0.48689324,0.40194589,0
2.6915958,2.0744245,-3.2846286,0.77548343,0.48689324,-0.40194589,0
-3.7168052,-0.90117574,-1.5910478,0.14292727,-0.75548065,-0.63939118,0
5.2472677,1.28088,0.31774902,0.77548343,0.48689324,-0.40194589,0
-5.879694,-0.21920353,-0.056194544,-0.77548343,-0.48689324,0.40194589,0
3.609967,0.52325773,1.7738559,-0.14292727,0.75548065,0.63939118,0
1.0742745,0.12523937,-1.7688717,0.14292727,-0.75548065,-0.63939118,0
-5.4248261,-0.25582492,0.80726993,-0.14292727,0.75548065,0.63939118,0
-5.2152843,-0.28879786,-2.5735433,0.14292727,-0.75548065,-0.63939118,0
-3.8068745,-1.613862,1.6152937,-0.77548343,-0.48689324,0.40194589,0
5.7995229,0.31337976,2.4016757,0.61497754,-0.43838823,0.65545321,0
0.84888238,-1.5297983,3.3923004,-0.14292727,0.75548065,0.63939118,0
-0.35279202,-3.6500268,5.576777,0.61497754,-0.43838823,0.65545321,0
4.9998999,-1.1483043,2.271419,0.61497754,-0.43838823,0.65545321,0
-2.4085298,2.2679112,-3.6247106,-0.61497754,0.43838823,-0.65545321,0
3.9234138,-0.36148334,3.0909491,-0.14292727,0.75548065,0.63939118,0
-5.8985195,-0.061081588,-0.41373801,-0.77548343,-0.48689324,0.40194589,0
-2.1338472,-0.44070756,-1.445592,0.14292727,-0.75548065,-0.63939118,0
-2.7710791,-2.2997353,0.34167045,0.14292727,-0.75548065,-0.63939118,0
6.4230981,-0.71444476,1.3566885,0.61497754,-0.43838823,0.65545321,0
1.5753863,3.2143414,-3.816371,0.77548343,0.48689324,-0.40194589,0
-1.4740114,-2.3358865,3.8498383,-0.14292727,0.75548065,0.63939118,0
-4.0941281,-1.663927,0.95130026,-0.77548343,-0.48689324,0.40194589,0
5.7339525,-0.047869712,0.11609411,0.77548343,0.48689324,-0.40194589,0
0.75329661,4.2082262,-3.457335,-0.14292727,0.75548065,0.63939118,0
-0.83005166,4.2032304,-4.1545091,-0.61497754,0.43838823,-0.65545321,0
-5.2336226,-0.95626986,0.21720695,-0.77548343,-0.48689324,0.40194589,0
-5.809566,1.1139189,-1.4437542,-0.61497754,0.43838823,-0.65545321,0
-2.5594873,-3.1519794,2.6451433,-0.77548343,-0.48689324,0.40194589,0
5.864934,0.77569938,1.4716585,0.77548343,0.48689324,-0.40194589,0
4.0485163,-2.0370483,2.3562083,0.61497754,-0.43838823,0.65545321,0
2.7970929,-0.10415292,2.0745597,-0.14292727,0.75548065,0.63939118,0
-2.4420238,-2.7526963,2.9828489,-0.77548343,-0.48689324,0.40194589,0
-6.0431871,-0.52550781,-1.148047,-0.77548343,-0.48689324,0.40194589,0
1.0957749,4.3637748,-4.0014043,0.77548343,0.48689324,-0.40194589,0
6.0226765,-0.97971863,1.2919831,0.61497754,-0.43838823,0.65545321,0
5.2189655,0.023997538,-0.18084168,0.14292727,-0.75548065,-0.63939118,0
-3.1481657,-2.6027749,1.6609875,-0.77548343,-0.48689324,0.40194589,0
-1.3814461,2.4590266,-1.4290876,-0.14292727,0.75548065,0.63939118,0
5.0906005,-1.4825358,1.3257704,0.14292727,-0.75548065,-0.63939118,0
4.7012191,1.936951,-0.032676816,0.77548343,0.48689324,-0.40194589,0
1.276145,3.6017814,-4.3833094,0.77548343,0.48689324,-0.40194589,0
1.6777582,-3.4051764,4.0121956,0.61497754,-0.43838823,0.65545321,0
2.1317277,3.7427359,-2.9571207,0.77548343,0.48689324,-0.40194589,0
-4.3895679,-0.85389721,1.44619,-0.77548343,-0.48689324,0.40194589,0
1.7870046,-1.4942074,0.72607064,0.14292727,-0.75548065,-0.63939118,0
3.7015615,-1.4951694,3.3610978,0.61497754,-0.43838823,0.65545321,0
3.8736877,1.6692851,-1.9841318,0.77548343,0.48689324,-0.40194589,0
1.9246492,2.679543,-4.3480415,0.77548343,0.48689324,-0.40194589,0
3.1982813,-1.2662487,3.6327925,0.61497754,-0.43838823,0.65545321,0
-2.1940255,-3.085484,3.1846604,-0.77548343,-0.48689324,0.40194589,0
5.3446212,1.5146588,0.81396794,0.77548343,0.48689324,-0.40194589,0
-0.82099485,-3.8448567,5.1905994,-0.77548343,-0.48689324,0.40194589,0
1.6264458,4.1961775,-3.1004226,-0.14292727,0.75548065,0.63939118,0
5.2989097,1.6431669,0.73233414,0.77548343,0.48689324,-0.40194589,0
3.0634303,-2.6828766,2.8025622,0.61497754,-0.43838823,0.65545321,0
-4.0276561,0.69207096,-3.1370859,-0.61497754,0.43838823,-0.65545321,0
-2.727519,-2.7748938,2.1399927,-0.77548343,-0.48689324,0.40194589,0
-0.45347357,3.7047009,-4.4912615,-0.61497754,0.43838823,-0.65545321,0
-0.38956392,-2.0703387,3.6196952,-0.14292727,0.75548065,0.63939118,0
-5.8595686,-0.34092021,-0.84712434,-0.77548343,-0.48689324,0.40194589,0
3.4915724,-0.91455507,0.40204787,0.14292727,-0.75548065,-0.63939118,0
-6.3856425,0.48511791,-0.97619104,-0.77548343,-0.48689324,0.40194589,0
1.0131092,4.2689877,-3.251296,-0.14292727,0.75548065,0.63939118,0
-1.8711448,3.0377169,-3.8541017,-0.61497754,0.43838823,-0.65545321,0
6.5438814,-0.64808619,0.58611822,0.77548343,0.48689324,-0.40194589,0
-3.9557076,2.1795475,-2.4198642,-0.61497754,0.43838823,-0.65545321,0
-2.1976826,1.0800023,-0.07736659,-0.14292727,0.75548065,0.63939118,0
-1.1585679,2.7685895,-4.5586557,-0.61497754,0.43838823,-0.65545321,0
-6.2078447,-0.45949626,-1.3900104,-0.77548343,-0.48689324,0.40194589,0
4.1275444,-0.4242661,3.1324673,-0.14292727,0.75548065,0.63939118,0
5.6714888,0.38415593,0.13162851,0.77548343,0.48689324,-0.40194589,0
1.7565593,-2.6140435,4.1365623,0.61497754,-0.43838823,0.65545321,0
0.42339587,4.3632369,-4.8630333,-0.61497754,0.43838823,-0.65545321,0
1.1995373,3.6757181,-4.5099182,0.77548343,0.48689324,-0.40194589,0
-1.8891783,-0.94840658,-0.81956202,0.14292727,-0.75548065,-0.63939118,0
2.4026706,1.4630066,-2.7456963,0.14292727,-0.75548065,-0.63939118,0
-2.9866908,2.5983706,-3.1025014,-0.61497754,0.43838823,-0.65545321,0
1.500863,0.3209728,-1.3273687,0.14292727,-0.75548065,-0.63939118,0
-5.8961649,-0.8287735,-0.68682742,-0.77548343,-0.48689324,0.40194589,0
2.6843152,2.2013245,-0.439886,-0.14292727,0.75548065,0.63939118,0
-5.1440697,-1.8090496,-0.43580496,-0.77548343,-0.48689324,0.40194589,0
0.75032306,-3.8257084,4.0904164,0.61497754,-0.43838823,0.65545321,0
-1.0750258,3.1147552,-4.6764135,-0.61497754,0.43838823,-0.65545321,0
0.067375183,4.2388725,-4.9393845,-0.61497754,0.43838823,-0.65545321,0
2.6007884,0.71176279,-1.7447984,0.14292727,-0.75548065,-0.63939118,0
5.199502,-1.7155246,1.5942874,0.61497754,-0.43838823,0.65545321,0
2.3922331,2.7092562,-3.5777354,0.77548343,0.48689324,-0.40194589,0
-4.4070177,-1.2108412,1.316591,-0.77548343,-0.48689324,0.40194589,0
1.7411056,-3.0351741,4.0488095,0.61497754,-0.43838823,0.65545321,0
1.9903991,-1.9172854,1.0670307,0.14292727,-0.75548065,-0.63939118,0
3.943239,-1.4928901,3.1426368,0.61497754,-0.43838823,0.65545321,0
0.5819006,4.6280861,-4.8050709,0.77548343,0.48689324,-0.40194589,0
-0.21748424,4.016922,-4.4861012,-0.61497754,0.43838823,-0.65545321,0
0.48827463,-1.6845191,0.23201513,0.14292727,-0.75548065,-0.63939118,0
-5.3049393,0.22250605,-2.4254932,-0.61497754,0.43838823,-0.65545321,0
0.57871819,4.4477649,-4.9144645,0.77548343,0.48689324,-0.40194589,0
1.645957,-3.2525942,3.6457496,0.61497754,-0.43838823,0.65545321,0
-5.3952446,-1.1250309,-0.6289382,-0.77548343,-0.48689324,0.40194589,0
2.135273,1.5582325,-2.6716614,0.14292727,-0.75548065,-0.63939118,0
-2.2367787,2.3605518,-3.992445,-0.61497754,0.43838823,-0.65545321,0
6.2220259,-0.13925505,0.76308727,0.77548343,0.48689324,-0.40194589,0
2.030014,-2.7111626,3.8340144,0.61497754,-0.43838823,0.65545321,0
1.8727235,-2.9520133,3.8523927,0.61497754,-0.43838823,0.65545321,0
3.1423938,-2.1163821,3.2206821,0.61497754,-0.43838823,0.65545321,0
4.2228851,-0.69594014,-0.015413523,0.14292727,-0.75548065,-0.63939118,0
-1.0781519,-2.5799692,1.1722844,0.14292727,-0.75548065,-0.63939118,0
0.75762987,-1.2824172,3.0336061,-0.14292727,0.75548065,0.63939118,0
-5.1506901,-0.59478402,0.26276183,-0.77548343,-0.48689324,0.40194589,0
5.5651035,0.14889006,-0.60701752,0.77548343,0.48689324,-0.40194589,0
3.746048,-2.0964634,2.747716,0.61497754,-0.43838823,0.65545321,0
-4.3798547,-2.1101732,0.11279225,-0.77548343,-0.48689324,0.40194589,0
2.5548577,3.3658197,-2.3106863,0.77548343,0.48689324,-0.40194589,0
0.80695033,-4.2565613,4.1579089,0.61497754,-0.43838823,0.65545321,0
-4.6887407,1.6803741,-1.9153275,-0.61497754,0.43838823,-0.65545321,0
-1.7640016,0.48253429,-2.281919,0.14292727,-0.75548065,-0.63939118,0
1.7647212,-3.308105,3.7830071,0.61497754,-0.43838823,0.65545321,0
-4.4032955,1.0734251,-2.6897464,-0.61497754,0.43838823,-0.65545321,0
3.652458,1.2789198,-2.4135754,0.77548343,0.48689324,-0.40194589,0
-2.4009502,-0.98156846,-1.2225285,0.14292727,-0.75548065,-0.63939118,0
-3.8723228,2.0774052,-2.5278139,-0.61497754,0.43838823,-0.65545321,0
1.3120011,1.763623,-3.0436912,0.14292727,-0.75548065,-0.63939118,0
2.5230832,-3.1152182,2.9657102,0.61497754,-0.43838823,0.65545321,0
-5.8961115,-0.060465813,-2.2222753,-0.61497754,0.43838823,-0.65545321,0
0.65302682,3.0563602,-5.2127414,0.14292727,-0.75548065,-0.63939118,0
4.9248514,-0.58415174,2.5246582,0.61497754,-0.43838823,0.65545321,0
-6.2294502,0.3127408,-1.5849843,-0.61497754,0.43838823,-0.65545321,0
-1.2765286,1.9725693,-4.3538914,0.14292727,-0.75548065,-0.63939118,0
-2.4303021,-0.19385993,1.4607816,-0.14292727,0.75548065,0.63939118,0
1.1894152,3.9588809,-4.4664578,0.77548343,0.48689324,-0.40194589,0
2.0956459,-2.8777931,4.0085325,0.61497754,-0.43838823,0.65545321,0
4.3271408,0.23269391,1.9840665,-0.14292727,0.75548065,0.63939118,0
-1.9492384,2.2854061,-4.4128728,-0.61497754,0.43838823,-0.65545321,0
-6.1285124,-0.44900465,-1.2795851,-0.77548343,-0.48689324,0.40194589,0
6.521349,-0.47414672,1.3982496,0.61497754,-0.43838823,0.65545321,0
3.5257857,-1.7853918,2.9006591,0.61497754,-0.43838823,0.65545321,0
-3.3602381,0.32652867,0.52505124,-0.14292727,0.75548065,0.63939118,0
-0.26793623,-3.9258647,5.2346921,0.61497754,-0.43838823,0.65545321,0
-1.6052462,3.5083132,-3.6542091,-0.61497754,0.43838823,-0.65545321,0
5.3905268,-0.4011631,2.5342383,0.61497754,-0.43838823,0.65545321,0
-2.6434093,0.5816884,0.04566884,-0.14292727,0.75548065,0.63939118,0
3.0178821,-1.9564774,3.3106003,0.61497754,-0.43838823,0.65545321,0
-5.4156327,-0.42724106,0.243505,-0.77548343,-0.48689324,0.40194589,0
5.8181667,0.10402775,2.2673903,0.61497754,-0.43838823,0.65545321,0
0.18239778,-0.86752951,2.4766169,-0.14292727,0.75548065,0.63939118,0
-3.6086359,1.5630658,-1.004195,-0.14292727,0.75548065,0.63939118,0
-4.6537929,1.5126237,-2.2352123,-0.61497754,0.43838823,-0.65545321,0
2.0162084,3.9193416,-3.0268941,0.77548343,0.48689324,-0.40194589,0
-1.22484,1.209384,-3.5156171,0.14292727,-0.75548065,-0.63939118,0
-2.0323625,1.8770392,-1.010458,-0.14292727,0.75548065,0.63939118,0
-3.2789133,1.5590618,-0.70065618,-0.14292727,0.75548065,0.63939118,0
6.1621532,-0.19673181,1.7955132,0.61497754,-0.43838823,0.65545321,0
3.8086591,2.1291564,-1.5862966,0.77548343,0.48689324,-0.40194589,0
-4.5624022,-1.8118293,0.071747065,-0.77548343,-0.48689324,0.40194589,0
-3.8480632,2.3456399,-2.3976536,-0.61497754,0.43838823,-0.65545321,0
-5.1687341,-0.99505281,0.33971608,-0.77548343,-0.48689324,0.40194589,0
3.1495941,-2.1605618,2.9261746,0.61497754,-0.43838823,0.65545321,0
3.4654417,2.7828872,-1.3322979,0.77548343,0.48689324,-0.40194589,0
5.3191862,-1.3531022,1.9244018,0.61497754,-0.43838823,0.65545321,0
-0.75363618,0.95377785,0.38309461,-0.14292727,0.75548065,0.63939118,0
-0.14737344,0.82103181,-2.7811108,0.14292727,-0.75548065,-0.63939118,0
-5.0894699,1.3253446,-1.9493604,-0.61497754,0.43838823,-0.65545321,0
2.1493616,3.1920877,-2.8697326,0.77548343,0.48689324,-0.40194589,0
1.6709154,0.63940376,-1.7608662,0.14292727,-0.75548065,-0.63939118,0
-3.1858461,-1.9937696,2.4649153,-0.77548343,-0.48689324,0.40194589,0
4.1910005,1.2531617,-1.7156427,0.77548343,0.48689324,-0.40194589,0
1.42755,-3.3253787,4.0468454,0.61497754,-0.43838823,0.65545321,0
-1.7134222,2.5058198,-4.5082617,-0.61497754,0.43838823,-0.65545321,0
0.12263441,4.1270795,-5.1118436,-0.61497754,0.43838823,-0.65545321,0
-6.1731453,-0.9054265,-1.9123204,-0.77548343,-0.48689324,0.40194589,0
3.5158682,-1.4517092,3.354475,0.61497754,-0.43838823,0.65545321,0
-2.0051503,2.5164206,-4.1959696,-0.61497754,0.43838823,-0.65545321,0
2.4485924,1.2745515,0.47195625,-0.14292727,0.75548065,0.63939118,0
-1.7740104,-3.481092,3.9404666,-0.77548343,-0.48689324,0.40194589,0
6.1714396,0.06175071,0.49163866,0.77548343,0.48689324,-0.40194589,0
4.8027091,0.91363239,-0.76730788,0.77548343,0.48689324,-0.40194589,0
2.770545,-1.9515604,1.6371341,0.14292727,-0.75548065,-0.63939118,0
-1.4470477,-3.3839321,1.8385222,0.14292727,-0.75548065,-0.63939118,0
0.74722272,-0.93162662,-0.39375287,0.14292727,-0.75548065,-0.63939118,0
1.313338,3.8020177,-3.9988389,0.77548343,0.48689324,-0.40194589,0
-3.3016374,0.94348359,-3.6514726,0.14292727,-0.75548065,-0.63939118,0
6.3227916,-0.43504995,0.88721132,0.77548343,0.48689324,-0.40194589,0
5.3881416,-0.025661781,-0.35281658,0.77548343,0.48689324,-0.40194589,0
1.2026279,1.5070647,-2.8070869,0.14292727,-0.75548065,-0.63939118,0
-5.3647285,-0.87883604,-0.17927265,-0.77548343,-0.48689324,0.40194589,0
-3.6997447,-1.3797973,2.2001204,-0.77548343,-0.48689324,0.40194589,0
1.2108228,-0.57275689,2.4728389,-0.14292727,0.75548065,0.63939118,0
-4.880497,-0.7810086,0.78482294,-0.77548343,-0.48689324,0.40194589,0
4.7665186,1.3518858,-0.23416746,0.77548343,0.48689324,-0.40194589,0
-1.9110966,0.24694133,-2.546243,0.14292727,-0.75548065,-0.63939118,0
-4.8086925,-1.5080069,0.4374274,-0.77548343,-0.48689324,0.40194589,0
-4.6061316,-1.3339441,0.41233933,-0.77548343,-0.48689324,0.40194589,0
-0.019392967,-4.1059961,4.7332144,0.61497754,-0.43838823,0.65545321,0
-1.3762987,-3.7008705,4.532227,-0.77548343,-0.48689324,0.40194589,0
-3.8649993,1.6247864,-2.822659,-0.61497754,0.43838823,-0.65545321,0
-2.5079265,1.6095574,-4.0663567,-0.61497754,0.43838823,-0.65545321,0
-3.3078058,-0.45692253,-1.4750686,0.14292727,-0.75548065,-0.63939118,0
-0.094379604,1.2933843,-0.19729996,-0.14292727,0.75548065,0.63939118,0
-2.5829737,2.3302252,-3.4695578,-0.61497754,0.43838823,-0.65545321,0
2.9576378,2.0542188,-3.0374427,0.77548343,0.48689324,-0.40194589,0
6.0888629,-0.38239691,0.23607826,0.14292727,-0.75548065,-0.63939118,0
-4.3813734,1.9139855,-1.9814377,-0.61497754,0.43838823,-0.65545321,0
-4.6095247,-1.7075459,0.71332443,-0.77548343,-0.48689324,0.40194589,0
-0.71863651,-4.612464,3.9684391,-0.77548343,-0.48689324,0.40194589,0
-6.0051847,0.15778232,-2.0687079,-0.61497754,0.43838823,-0.65545321,0
3.1111374,-2.6510415,3.0622258,0.61497754,-0.43838823,0.65545321,0
-3.1784687,1.9595649,-3.2546659,-0.61497754,0.43838823,-0.65545321,0
5.6862535,-1.2854573,1.318418,0.61497754,-0.43838823,0.65545321,0
0.24452782,-4.1202855,4.6506829,0.61497754,-0.43838823,0.65545321,0
-3.6989403,-2.3655219,1.0444099,-0.77548343,-0.48689324,0.40194589,0
-1.0364387,-0.16410637,-1.7111698,0.14292727,-0.75548065,-0.63939118,0
3.8622193,-1.6730449,2.6023111,0.61497754,-0.43838823,0.65545321,0
-0.44926846,3.2169967,-2.3367491,-0.14292727,0.75548065,0.63939118,0
-5.1809149,-1.1767743,-0.295681,-0.77548343,-0.48689324,0.40194589,0
-3.3410916,-1.7588875,2.4935598,-0.77548343,-0.48689324,0.40194589,0
4.5539064,1.880461,-0.12945032,0.77548343,0.48689324,-0.40194589,0
-4.3987608,-2.1181328,0.55233407,-0.77548343,-0.48689324,0.40194589,0
6.3761034,0.22642922,1.014564,0.77548343,0.48689324,-0.40194589,0
-0.38937926,4.1872387,-4.3904014,-0.61497754,0.43838823,-0.65545321,0
3.2678738,-1.9922091,3.4152746,0.61497754,-0.43838823,0.65545321,0
4.1028528,0.789491,-1.5543557,0.14292727,-0.75548065,-0.63939118,0
-0.49115777,-4.5303345,4.946135,0.61497754,-0.43838823,0.65545321,0
0.62400031,-3.1584361,5.2324524,0.61497754,-0.43838823,0.65545321,0
-2.4827571,1.7081382,-4.0761781,-0.61497754,0.43838823,-0.65545321,0
-0.017069101,4.0042615,-3.031281,-0.14292727,0.75548065,0.63939118,0
-0.34521556,-4.2268887,5.0516539,-0.77548343,-0.48689324,0.40194589,0
3.6925297,1.5682774,-1.9776958,0.77548343,0.48689324,-0.40194589,0
-1.3043058,0.24160028,-1.8879734,0.14292727,-0.75548065,-0.63939118,0
-0.38246179,-3.0567584,1.8480072,0.14292727,-0.75548065,-0.63939118,0
3.0095086,-1.6111196,3.8416309,0.61497754,-0.43838823,0.65545321,0
1.4945297,-3.4939389,3.6052012,0.61497754,-0.43838823,0.65545321,0
0.83076036,1.3322562,-2.6880059,0.14292727,-0.75548065,-0.63939118,0
-1.2854564,-3.0933585,4.8958006,-0.77548343,-0.48689324,0.40194589,0
-3.834259,1.6759593,-2.6964784,-0.61497754,0.43838823,-0.65545321,0
1.502751,3.1906018,-1.6731036,-0.14292727,0.75548065,0.63939118,0
-0.92278379,0.55291748,-2.687891,0.14292727,-0.75548065,-0.63939118,0
0.64394426,2.7756488,-1.3002801,-0.14292727,0.75548065,0.63939118,0
1.0915146,3.8667107,-2.7646663,-0.14292727,0.75548065,0.63939118,0
3.9584303,1.3141743,-1.5171037,0.77548343,0.48689324,-0.40194589,0
-4.0013504,-0.019526482,0.44052649,-0.14292727,0.75548065,0.63939118,0
3.6536782,2.4240408,-0.7596395,-0.14292727,0.75548065,0.63939118,0
-0.64460945,4.2796946,-3.9692473,-0.61497754,0.43838823,-0.65545321,0
3.0953145,-0.14482117,2.7369704,-0.14292727,0.75548065,0.63939118,0
3.9446898,1.7454989,-1.5310186,0.77548343,0.48689324,-0.40194589,0
-6.1147728,-0.97081256,-1.3781285,-0.77548343,-0.48689324,0.40194589,0
1.3060968,4.4771934,-3.1741624,0.77548343,0.48689324,-0.40194589,0
2.9511466,3.363678,-1.8257638,0.77548343,0.48689324,-0.40194589,0
-4.7035856,-1.91102,0.099540353,-0.77548343,-0.48689324,0.40194589,0
-0.50629663,-2.9330204,1.6020195,0.14292727,-0.75548065,-0.63939118,0
-4.9502387,-0.50785774,0.5754348,-0.77548343,-0.48689324,0.40194589,0
3.8232112,2.2259989,-1.2069843,0.77548343,0.48689324,-0.40194589,0
3.1698472,-2.2311437,3.4003592,0.61497754,-0.43838823,0.65545321,0
2.850898,-2.964623,2.46842,0.14292727,-0.75548065,-0.63939118,0
1.1547885,-1.4595019,0.25916266,0.14292727,-0.75548065,-0.63939118,0
-1.1015205,3.6384523,-4.2520013,-0.61497754,0.43838823,-0.65545321,0
-6.256722,-0.28183734,-0.90859175,-0.77548343,-0.48689324,0.40194589,0
5.7926755,0.51437473,0.90338516,0.77548343,0.48689324,-0.40194589,0
0.54774213,4.5050931,-4.5381823,0.77548343,0.48689324,-0.40194589,0
2.4012384,-1.7182434,3.9908185,0.61497754,-0.43838823,0.65545321,0
-0.060048997,0.47891271,-2.4229307,0.14292727,-0.75548065,-0.63939118,0
4.8328562,-2.1508155,1.9105411,0.61497754,-0.43838823,0.65545321,0
0.44390067,-0.24165285,-1.3524158,0.14292727,-0.75548065,-0.63939118,0
-6.1169615,0.58131266,-1.4139686,-0.61497754,0.43838823,-0.65545321,0
6.137764,-0.71429038,1.1784363,0.61497754,-0.43838823,0.65545321,0
2.0598142,0.42999053,-1.3746232,0.14292727,-0.75548065,-0.63939118,0
-5.5853281,1.2340945,-1.2653413,-0.61497754,0.43838823,-0.65545321,0
-2.2217886,2.6030655,-3.7222161,-0.61497754,0.43838823,-0.65545321,0
-0.31409553,0.37284684,1.022264,-0.14292727,0.75548065,0.63939118,0
-3.4827261,1.3947242,-0.64938784,-0.14292727,0.75548065,0.63939118,0
3.6237831,1.8596358,0.26625836,-0.14292727,0.75548065,0.63939118,0
-2.2039921,-1.3000927,-0.26730624,0.14292727,-0.75548065,-0.63939118,0
-2.0327539,-2.3498018,3.885556,-0.14292727,0.75548065,0.63939118,0
-0.25465345,3.1159239,-5.3275709,-0.61497754,0.43838823,-0.65545321,0
4.3509326,-1.7856678,2.0558448,0.61497754,-0.43838823,0.65545321,0
-5.8904052,0.055235505,-0.39281297,-0.77548343,-0.48689324,0.40194589,0
3.7082157,1.4202039,-2.5589221,0.14292727,-0.75548065,-0.63939118,0
-4.0694308,-1.7338989,0.9852705,-0.77548343,-0.48689324,0.40194589,0
-0.64190578,-4.4058304,4.8237104,-0.77548343,-0.48689324,0.40194589,0
3.1386027,-0.4602769,-0.39857936,0.14292727,-0.75548065,-0.63939118,0
-0.6052177,-3.7738695,5.4142952,-0.77548343,-0.48689324,0.40194589,0
0.48810506,-3.9288118,4.7660117,0.61497754,-0.43838823,0.65545321,0
-4.2213926,-1.5473775,1.1610667,-0.77548343,-0.48689324,0.40194589,0
0.5716176,4.2083211,-5.1602602,0.77548343,0.48689324,-0.40194589,0
1.7934595,-0.32753283,-0.66314304,0.14292727,-0.75548065,-0.63939118,0
0.14409995,4.6562786,-4.3509693,-0.61497754,0.43838823,-0.65545321,0
1.0249697,-3.3587942,2.5705261,0.14292727,-0.75548065,-0.63939118,0
-3.9039874,-1.5529968,1.2947617,-0.77548343,-0.48689324,0.40194589,0
2.2345939,-0.83977526,0.043475389,0.14292727,-0.75548065,-0.63939118,0
-5.3996854,-0.88636827,-0.32615948,-0.77548343,-0.48689324,0.40194589,0
3.8144453,-0.87852383,3.3923593,0.61497754,-0.43838823,0.65545321,0
0.37558389,2.9638233,-4.7477961,0.14292727,-0.75548065,-0.63939118,0
-0.34114981,-4.4008002,5.1387076,-0.77548343,-0.48689324,0.40194589,0
1.7050846,3.5101051,-2.099483,-0.14292727,0.75548065,0.63939118,0
-0.90987241,-0.69804955,-1.2305348,0.14292727,-0.75548065,-0.63939118,0
-2.577168,2.6986446,-3.3882694,-0.61497754,0.43838823,-0.65545321,0
-2.1904225,-3.5252986,1.8472242,0.14292727,-0.75548065,-0.63939118,0
0.49534416,3.5860844,-5.4171281,0.77548343,0.48689324,-0.40194589,0
-0.62808943,3.9658794,-4.5254331,-0.61497754,0.43838823,-0.65545321,0
-1.3980343,-3.5875404,4.3705835,-0.77548343,-0.48689324,0.40194589,0
6.3977213,-0.39351499,1.0794811,0.61497754,-0.43838823,0.65545321,0
-3.3087549,3.1947169,-2.6465225,-0.61497754,0.43838823,-0.65545321,0
-5.6146498,0.21157128,0.31616139,-0.77548343,-0.48689324,0.40194589,0
-1.1714637,-2.5570428,4.1530037,-0.14292727,0.75548065,0.63939118,0
-1.3865352,-3.6782475,4.0127783,-0.77548343,-0.48689324,0.40194589,0
3.7450342,-0.31651092,-0.24535537,0.14292727,-0.75548065,-0.63939118,0
-4.4797993,0.94125772,-2.941987,-0.61497754,0.43838823,-0.65545321,0
-3.4772172,1.6858121,-3.4104352,-0.61497754,0.43838823,-0.65545321,0
1.3274901,3.7847044,-4.127028,0.77548343,0.48689324,-0.40194589,0
-0.99124575,-4.0257783,4.4224663,-0.77548343,-0.48689324,0.40194589,0
-1.0197601,3.5040822,-4.6169667,-0.61497754,0.43838823,-0.65545321,0
2.6133137,-2.0653057,3.5389342,0.61497754,-0.43838823,0.65545321,0
-0.37144899,-3.9701185,5.2299833,0.61497754,-0.43838823,0.65545321,0
2.8272641,-1.7146569,3.8883791,0.61497754,-0.43838823,0.65545321,0
2.302196,-2.0095246,4.2219849,-0.14292727,0.75548065,0.63939118,0
-6.4241138,-0.43311262,-1.5474749,-0.77548343,-0.48689324,0.40194589,0
-4.4562826,-0.71676564,1.6545117,-0.77548343,-0.48689324,0.40194589,0
4.0398974,1.5930398,-1.8473804,0.77548343,0.48689324,-0.40194589,0
4.0508671,-1.0087657,3.3986211,0.61497754,-0.43838823,0.65545321,0
3.5298457,1.9540823,-1.6496782,0.77548343,0.48689324,-0.40194589,0
-6.1904583,1.1742402,-1.1748233,-0.61497754,0.43838823,-0.65545321,0
4.4156723,-1.5965706,2.2421241,0.61497754,-0.43838823,0.65545321,0
-1.0279799,3.3976419,-4.653626,-0.61497754,0.43838823,-0.65545321,0
-3.9006777,-1.5943609,1.7307227,-0.77548343,-0.48689324,0.40194589,0
-6.3336258,-0.48484397,-1.9004111,-0.61497754,0.43838823,-0.65545321,0
-3.047967,-2.5312052,2.3023124,-0.77548343,-0.48689324,0.40194589,0
-2.2697878,-1.7499754,0.1416848,0.14292727,-0.75548065,-0.63939118,0
-1.1298752,3.0751565,-4.3726702,-0.61497754,0.43838823,-0.65545321,0
1.1067684,-3.4750819,4.3451591,0.61497754,-0.43838823,0.65545321,0
3.8856037,1.9924788,-0.83922356,0.77548343,0.48689324,-0.40194589,0
-0.40392423,-4.6621952,4.4856954,-0.77548343,-0.48689324,0.40194589,0
-3.1511092,2.4387527,-1.9487081,-0.14292727,0.75548065,0.63939118,0
-5.822854,-0.24500823,-2.4509287,-0.61497754,0.43838823,-0.65545321,0
-1.7639399,3.0947218,-2.4436121,-0.14292727,0.75548065,0.63939118,0
0.84839797,3.7728229,-4.5877705,0.77548343,0.48689324,-0.40194589,0
-1.1889951,-4.4846435,3.2910833,0.14292727,-0.75548065,-0.63939118,0
-3.3876154,2.0372825,-1.631556,-0.14292727,0.75548065,0.63939118,0
0.70171809,0.56650651,1.2867019,-0.14292727,0.75548065,0.63939118,0
3.8831444,1.0659729,-1.8405311,0.14292727,-0.75548065,-0.63939118,0
-6.3520708,0.24967289,-1.2270374,-0.61497754,0.43838823,-0.65545321,0
-1.5132155,4.0617852,-3.6963196,-0.61497754,0.43838823,-0.65545321,0
4.0494771,1.3562346,1.025835,-0.14292727,0.75548065,0.63939118,0
-0.94452,3.8647189,-4.1186247,-0.61497754,0.43838823,-0.65545321,0
-3.0644381,-2.7949998,1.9825499,-0.77548343,-0.48689324,0.40194589,0
1.8930004,3.3784184,-3.6321752,0.77548343,0.48689324,-0.40194589,0
-4.1924543,-1.252532,1.3082705,-0.77548343,-0.48689324,0.40194589,0
0.76602221,4.8233147,-4.2229633,0.77548343,0.48689324,-0.40194589,0
2.4712901,-1.6164749,3.9341502,-0.14292727,0.75548065,0.63939118,0
-0.69064069,-4.1366196,4.5467443,-0.77548343,-0.48689324,0.40194589,0
-4.4728994,1.675776,-2.4187155,-0.61497754,0.43838823,-0.65545321,0
4.9761229,-1.7935526,1.830514,0.61497754,-0.43838823,0.65545321,0
0.77021194,-3.8642509,4.5981274,0.61497754,-0.43838823,0.65545321,0
1.0725921,-0.51353842,-0.75629991,0.14292727,-0.75548065,-0.63939118,0
1.5040038,2.3574986,-4.1695585,0.14292727,-0.75548065,-0.63939118,0
1.0433027,-3.1852424,2.367794,0.14292727,-0.75548065,-0.63939118,0
-5.8463545,-0.92882109,-1.1137004,-0.77548343,-0.48689324,0.40194589,0
2.7033117,-2.4303522,3.443049,0.61497754,-0.43838823,0.65545321,0
0.79426354,-1.3782037,3.4414058,-0.14292727,0.75548065,0.63939118,0
5.6206484,-0.8489393,1.8412313,0.61497754,-0.43838823,0.65545321,0
4.7985096,-1.5295011,2.2165327,0.61497754,-0.43838823,0.65545321,0
-0.80856347,-4.6014042,3.8688178,-0.77548343,-0.48689324,0.40194589,0
-1.2143409,-3.2771151,4.7238541,-0.77548343,-0.48689324,0.40194589,0
-4.9220767,-1.4481568,0.089691639,-0.77548343,-0.48689324,0.40194589,0
0.60434437,4.4589539,-4.8616214,0.77548343,0.48689324,-0.40194589,0
-3.4335907,2.8551712,-2.5456209,-0.61497754,0.43838823,-0.65545321,0
5.6710358,-0.53469741,1.692677,0.61497754,-0.43838823,0.65545321,0
5.9675498,0.016408563,0.78780007,0.77548343,0.48689324,-0.40194589,0
5.5118551,0.45171273,0.26948166,0.77548343,0.48689324,-0.40194589,0
0.82470846,3.1512623,-5.2391167,0.14292727,-0.75548065,-0.63939118,0
3.4598401,1.6303123,0.27411461,-0.14292727,0.75548065,0.63939118,0
-0.41517019,4.400815,-4.5535383,-0.61497754,0.43838823,-0.65545321,0
0.086114407,-3.9848228,4.5912523,0.61497754,-0.43838823,0.65545321,0
0.28686863,1.1699231,0.058429539,-0.14292727,0.75548065,0.63939118,0
3.792088,2.2455735,-0.69269288,0.77548343,0.48689324,-0.40194589,0
0.39874029,-3.0443997,4.997016,-0.14292727,0.75548065,0.63939118,0
1.0061104,-3.46404,4.2086415,0.61497754,-0.43838823,0.65545321,0
-5.4742694,-1.3470237,-1.0753496,-0.77548343,-0.48689324,0.40194589,0
0.52478385,-3.9584887,4.5910282,0.61497754,-0.43838823,0.65545321,0
5.0655661,-0.86155796,2.0185709,0.61497754,-0.43838823,0.65545321,0
4.1150446,-1.7413738,1.1070986,0.14292727,-0.75548065,-0.63939118,0
4.3597755,-1.0910469,2.892539,0.61497754,-0.43838823,0.65545321,0
-1.9145925,3.2485337,-3.3848681,-0.61497754,0.43838823,-0.65545321,0
3.8750434,0.74397159,1.2992196,-0.14292727,0.75548065,0.63939118,0
2.5720472,2.890301,-2.5549679,0.77548343,0.48689324,-0.40194589,0
-3.2370739,2.4972596,-2.7176976,-0.61497754,0.43838823,-0.65545321,0
-2.6259027,0.35978794,-2.7950346,0.14292727,-0.75548065,-0.63939118,0
-1.9298106,-2.1539392,3.9402685,-0.14292727,0.75548065,0.63939118,0
4.4206457,2.1070886,-0.16202289,0.77548343,0.48689324,-0.40194589,0
-3.6700296,1.2978997,-3.0491972,-0.61497754,0.43838823,-0.65545321,0
-3.6591487,-1.1875334,2.2031746,-0.14292727,0.75548065,0.63939118,0
-3.5367219,-2.5167685,1.1294,-0.77548343,-0.48689324,0.40194589,0
0.88125384,-0.91864967,-0.50016046,0.14292727,-0.75548065,-0.63939118,0
-2.3256915,-1.8818859,-0.017056942,0.14292727,-0.75548065,-0.63939118,0
-5.470542,0.62609518,-1.9468961,-0.61497754,0.43838823,-0.65545321,0
-1.6974043,3.5086796,-3.8203692,-0.61497754,0.43838823,-0.65545321,0
3.2583146,2.6806829,-1.760401,0.77548343,0.48689324,-0.40194589,0
0.83951545,-3.8639784,4.2829652,0.61497754,-0.43838823,0.65545321,0
-4.3749528,-1.8453915,0.50176263,-0.77548343,-0.48689324,0.40194589,0
3.0076425,2.0471964,-2.6310043,0.77548343,0.48689324,-0.40194589,0
3.5447693,-1.7262273,2.9473491,0.61497754,-0.43838823,0.65545321,0
-3.0344398,3.2650545,-2.8600798,-0.61497754,0.43838823,-0.65545321,0
-1.1672158,-3.3055637,4.7029371,-0.77548343,-0.48689324,0.40194589,0
-0.42094779,0.041492343,-1.4138341,0.14292727,-0.75548065,-0.63939118,0
4.5113697,-1.5745239,2.1432199,0.61497754,-0.43838823,0.65545321,0
-0.053344727,-1.533532,0.41190445,0.14292727,-0.75548065,-0.63939118,0
-3.0312839,-2.7370086,1.613348,-0.77548343,-0.48689324,0.40194589,0
6.4199581,-0.65302593,1.268208,0.61497754,-0.43838823,0.65545321,0
-5.6467624,-1.2458375,-1.0963931,-0.77548343,-0.48689324,0.40194589,0
-3.6758404,-2.6368647,0.57078117,-0.77548343,-0.48689324,0.40194589,0
-2.9485104,0.46077824,-2.7507198,0.14292727,-0.75548065,-0.63939118,0
1.1825974,4.0361457,-3.9353595,0.77548343,0.48689324,-0.40194589,0
-2.9554734,-1.7541773,0.10499272,0.14292727,-0.75548065,-0.63939118,0
4.8619223,-0.40672091,0.15565348,0.14292727,-0.75548065,-0.63939118,0
-3.4185662,1.4832578,-3.5429077,-0.61497754,0.43838823,-0.65545321,0
6.1814184,0.62267733,2.2002943,0.61497754,-0.43838823,0.65545321,0
0.60197616,4.7573972,-3.8466616,-0.14292727,0.75548065,0.63939118,0
-0.018382668,-0.3219955,2.1298964,-0.14292727,0.75548065,0.63939118,0
1.7651596,-2.6008503,4.1932588,0.61497754,-0.43838823,0.65545321,0
0.44970083,-2.9964101,5.1496606,-0.14292727,0.75548065,0.63939118,0
-2.0667672,-3.3520052,3.6065607,-0.77548343,-0.48689324,0.40194589,0
-4.994195,1.6318687,-1.9209094,-0.61497754,0.43838823,-0.65545321,0
2.574558,-1.5983565,4.0101004,-0.14292727,0.75548065,0.63939118,0
2.1997492,2.7243176,-1.0801492,-0.14292727,0.75548065,0.63939118,0
-1.4958768,3.8858755,-3.6745157,-0.14292727,0.75548065,0.63939118,0
5.922606,-0.69391626,0.28120756,0.14292727,-0.75548065,-0.63939118,0
2.5491204,2.8360925,-2.8342738,0.77548343,0.48689324,-0.40194589,0
-0.56308246,4.5907884,-4.1353092,-0.61497754,0.43838823,-0.65545321,0
3.2628989,2.4417696,-2.3257711,0.77548343,0.48689324,-0.40194589,0
5.6183925,-0.7395736,1.7659612,0.61497754,-0.43838823,0.65545321,0
-4.1024189,-0.74974114,1.8348277,-0.14292727,0.75548065,0.63939118,0
5.5474367,0.9325695,0.67984605,0.77548343,0.48689324,-0.40194589,0
4.3233099,0.83297324,1.2338126,-0.14292727,0.75548065,0.63939118,0
-2.9378967,1.3465732,-0.51380181,-0.14292727,0.75548065,0.63939118,0
5.5890889,0.69780636,1.8749473,-0.14292727,0.75548065,0.63939118,0
4.2666678,0.93407619,-1.6430829,0.77548343,0.48689324,-0.40194589,0
1.0041559,-3.8727026,4.1284757,0.61497754,-0.43838823,0.65545321,0
4.720726,1.0564594,-0.85551322,0.77548343,0.48689324,-0.40194589,0
-0.33436084,-4.4790301,4.7082472,0.61497754,-0.43838823,0.65545321,0
0.66802287,3.9666171,-3.2605925,-0.14292727,0.75548065,0.63939118,0
-1.9144598,2.856946,-4.1817112,-0.61497754,0.43838823,-0.65545321,0
4.6287589,0.74214339,1.463695,-0.14292727,0.75548065,0.63939118,0
1.3796896,-3.4823296,3.896503,0.61497754,-0.43838823,0.65545321,0
-0.52558398,0.45155489,-1.9772593,0.14292727,-0.75548065,-0.63939118,0
-0.50080514,4.2635412,-4.0386739,-0.61497754,0.43838823,-0.65545321,0
2.0286925,2.5750828,-3.8701849,0.77548343,0.48689324,-0.40194589,0
-0.82580656,1.1128917,0.27757537,-0.14292727,0.75548065,0.63939118,0
-5.0549574,-0.76399249,0.32931662,-0.77548343,-0.48689324,0.40194589,0
1.893746,-1.2203529,3.1829464,-0.14292727,0.75548065,0.63939118,0
-1.4647188,-3.2669559,4.551095,-0.77548343,-0.48689324,0.40194589,0
-4.736877,-1.6613927,-0.5010668,0.14292727,-0.75548065,-0.63939118,0
2.198473,-3.0716519,3.2657518,0.61497754,-0.43838823,0.65545321,0
3.7025352,-0.9954173,0.48761439,0.14292727,-0.75548065,-0.63939118,0
2.9938846,-0.21150512,-0.86386579,0.14292727,-0.75548065,-0.63939118,0
-5.8095183,0.64520109,-1.9454093,-0.61497754,0.43838823,-0.65545321,0
-5.5971222,-1.1265051,-0.85641313,-0.77548343,-0.48689324,0.40194589,0
3.1280346,0.98306525,-1.9424545,0.14292727,-0.75548065,-0.63939118,0
-3.4929886,0.18915343,-2.262167,0.14292727,-0.75548065,-0.63939118,0
-4.8215051,1.8753694,-2.1205387,-0.61497754,0.43838823,-0.65545321,0
-0.82666397,-3.7314765,5.1042824,-0.77548343,-0.48689324,0.40194589,0
2.0121999,-0.18787062,-0.63859326,0.14292727,-0.75548065,-0.63939118,0
4.3585491,1.4712131,-1.2773172,0.77548343,0.48689324,-0.40194589,0
-0.51288795,-4.1790957,4.8468795,-0.77548343,-0.48689324,0.40194589,0
-2.6954331,-2.6915741,3.0393467,-0.77548343,-0.48689324,0.40194589,0
-2.4223123,-2.4234924,3.8962309,-0.77548343,-0.48689324,0.40194589,0
4.3958702,-0.13215756,2.4214897,-0.14292727,0.75548065,0.63939118,0
1.5444089,-3.83429,3.8968644,0.61497754,-0.43838823,0.65545321,0
0.0026535988,4.0747423,-4.8069577,-0.61497754,0.43838823,-0.65545321,0
-4.1297126,-2.190311,0.95158243,-0.77548343,-0.48689324,0.40194589,0
-5.3884301,0.50053537,-1.9724259,-0.61497754,0.43838823,-0.65545321,0
-6.071867,-0.066483259,-2.1558833,-0.61497754,0.43838823,-0.65545321,0
-0.24397945,-4.7060947,4.5881095,-0.77548343,-0.48689324,0.40194589,0
0.55493093,4.5008283,-4.6022325,0.77548343,0.48689324,-0.40194589,0
2.6288981,2.7041183,-0.7519052,-0.14292727,0.75548065,0.63939118,0
-3.5884199,-0.10843951,0.85957956,-0.14292727,0.75548065,0.63939118,0
6.0700874,0.64282107,1.3498669,0.77548343,0.48689324,-0.40194589,0
0.72305584,-2.6423719,5.0566325,0.61497754,-0.43838823,0.65545321,0
-1.0996518,-3.5091574,5.0659456,-0.77548343,-0.48689324,0.40194589,0
1.7496817,-2.5629039,4.4799891,0.61497754,-0.43838823,0.65545321,0
-2.352324,3.2086594,-3.4910316,-0.61497754,0.43838823,-0.65545321,0
-1.3409131,-3.8730993,3.6748178,-0.77548343,-0.48689324,0.40194589,0
-0.83370757,0.8064974,0.29827929,-0.14292727,0.75548065,0.63939118,0
-0.20811296,-4.7544832,4.7253151,0.61497754,-0.43838823,0.65545321,0
2.2218893,3.309818,-2.540029,0.77548343,0.48689324,-0.40194589,0
-1.9658041,1.8044395,-3.9762702,0.14292727,-0.75548065,-0.63939118,0
0.82276654,2.6341772,-4.5898447,0.14292727,-0.75548065,-0.63939118,0
-1.9269571,2.7420015,-3.814311,-0.61497754,0.43838823,-0.65545321,0
-4.3056879,2.0032446,-2.2334623,-0.61497754,0.43838823,-0.65545321,0
-4.7026901,-1.0018096,1.2906841,-0.77548343,-0.48689324,0.40194589,0
-5.898983,-0.55825698,-0.80894089,-0.77548343,-0.48689324,0.40194589,0
-2.1084993,3.6759591,-3.3249197,-0.61497754,0.43838823,-0.65545321,0
-0.78351784,-0.999277,2.355361,-0.14292727,0.75548065,0.63939118,0
-2.2494373,-1.4682214,3.007143,-0.14292727,0.75548065,0.63939118,0
3.9922299,-2.1884773,2.7199974,0.61497754,-0.43838823,0.65545321,0
0.95117569,-3.6542137,4.0950513,0.61497754,-0.43838823,0.65545321,0
0.84542203,-3.5351982,4.2920527,0.61497754,-0.43838823,0.65545321,0
-1.2540312,-3.4870751,4.904285,-0.77548343,-0.48689324,0.40194589,0
6.5094633,0.13423133,1.4850612,0.77548343,0.48689324,-0.40194589,0
1.9919879,2.6955271,-4.3575602,0.77548343,0.48689324,-0.40194589,0
-4.5844822,-1.5178916,0.62051451,-0.77548343,-0.48689324,0.40194589,0
-3.5981591,1.7331684,-2.9059801,-0.61497754,0.43838823,-0.65545321,0
-2.9742441,-2.1539788,2.7669063,-0.77548343,-0.48689324,0.40194589,0
2.1293659,-0.26832223,2.6122634,-0.14292727,0.75548065,0.63939118,0
-5.5603552,1.078788,-1.8981423,-0.61497754,0.43838823,-0.65545321,0
1.8787856,1.4947629,0.46482739,-0.14292727,0.75548065,0.63939118,0
0.23789847,-1.0843199,3.1976006,-0.14292727,0.75548065,0.63939118,0
-6.1830969,-0.3525033,-0.76970506,-0.77548343,-0.48689324,0.40194589,0
-1.5810666,3.0862138,-2.2102718,-0.14292727,0.75548065,0.63939118,0
5.5007381,-0.11561656,2.6636047,0.61497754,-0.43838823,0.65545321,0
-2.6835251,-0.051265478,-1.7985752,0.14292727,-0.75548065,-0.63939118,0
-1.5913255,-2.8173749,4.5233722,-0.77548343,-0.48689324,0.40194589,0
-3.6481972,0.60587907,0.13996863,-0.14292727,0.75548065,0.63939118,0
-2.3256581,-2.6576498,1.3284792,0.14292727,-0.75548065,-0.63939118,0
-1.179456,-2.1368997,0.5976522,0.14292727,-0.75548065,-0.63939118,0
-0.30972862,4.4347115,-4.1454282,-0.61497754,0.43838823,-0.65545321,0
-0.93902683,-4.504262,3.4123135,0.14292727,-0.75548065,-0.63939118,0
-5.2328906,0.52098298,-0.15079021,-0.14292727,0.75548065,0.63939118,0
4.9170108,0.50478524,-1.0340126,0.14292727,-0.75548065,-0.63939118,0
5.7902212,-0.72029924,1.8530097,0.61497754,-0.43838823,0.65545321,0
-1.4292805,-4.2473574,3.2827554,-0.77548343,-0.48689324,0.40194589,0
-2.5077958,1.9416401,-3.9640675,-0.61497754,0.43838823,-0.65545321,0
0.13656493,-0.17766523,-1.5935891,0.14292727,-0.75548065,-0.63939118,0
-6.2453713,0.34063768,-0.71082401,-0.77548343,-0.48689324,0.40194589,0
4.1127424,1.645745,0.52229428,-0.14292727,0.75548065,0.63939118,0
1.7873229,3.2016785,-1.7760177,-0.14292727,0.75548065,0.63939118,0
-5.9855771,0.16192937,-1.915134,-0.61497754,0.43838823,-0.65545321,0
6.0637951,0.76274741,1.1912053,0.77548343,0.48689324,-0.40194589,0
-1.0475709,-4.4419003,3.2700834,0.14292727,-0.75548065,-0.63939118,0
-5.032341,-1.7498355,-0.46143913,-0.77548343,-0.48689324,0.40194589,0
3.1250856,-1.2846221,0.42463398,0.14292727,-0.75548065,-0.63939118,0
0.72626901,1.4388428,-3.0882373,0.14292727,-0.75548065,-0.63939118,0
-1.8288985,2.4322946,-4.196981,-0.61497754,0.43838823,-0.65545321,0
4.1060014,2.0478792,-0.32000309,0.77548343,0.48689324,-0.40194589,0
4.6079636,-1.2274384,1.167223,0.14292727,-0.75548065,-0.63939118,0
0.2791872,-3.9636655,4.8538246,0.61497754,-0.43838823,0.65545321,0
2.5552866,-2.891849,2.3048115,0.14292727,-0.75548065,-0.63939118,0
2.6695635,-1.8245077,3.8600807,0.61497754,-0.43838823,0.65545321,0
2.5411122,3.4288256,-2.2796962,0.77548343,0.48689324,-0.40194589,0
-0.63345599,-2.6726341,4.427722,-0.14292727,0.75548065,0.63939118,0
4.3833923,-1.3613545,2.8303232,0.61497754,-0.43838823,0.65545321,0
4.4401121,-1.4686358,2.6139727,0.61497754,-0.43838823,0.65545321,0
2.0587137,3.3277335,-2.7828391,0.77548343,0.48689324,-0.40194589,0
1.8232191,-0.50401974,2.7828865,-0.14292727,0.75548065,0.63939118,0
6.4362164,-0.24337697,1.5989304,0.61497754,-0.43838823,0.65545321,0
2.7225688,-3.0121694,2.8832469,0.61497754,-0.43838823,0.65545321,0
4.7291532,-0.92369509,2.443284,0.61497754,-0.43838823,0.65545321,0
6.0737767,0.91904759,2.0021648,0.77548343,0.48689324,-0.40194589,0
-1.2810833,3.0991759,-4.63307,-0.61497754,0.43838823,-0.65545321,0
4.839426,-1.7283814,1.7808452,0.61497754,-0.43838823,0.65545321,0
3.8361738,-0.99021411,3.2669821,0.61497754,-0.43838823,0.65545321,0
-2.4488268,2.6494715,-3.5903745,-0.61497754,0.43838823,-0.65545321,0
0.40558672,-3.8539221,4.5549111,0.61497754,-0.43838823,0.65545321,0
2.3967621,-2.6184731,3.6039271,0.61497754,-0.43838823,0.65545321,0
-2.3946488,-3.0333395,3.0806093,-0.77548343,-0.48689324,0.40194589,0
-3.7932181,-1.4788487,2.3236523,-0.77548343,-0.48689324,0.40194589,0
-3.2489634,2.927516,-2.8468757,-0.61497754,0.43838823,-0.65545321,0
0.47402263,4.36198,-4.9782724,0.77548343,0.48689324,-0.40194589,0
2.5332239,2.9318223,-2.8863809,0.77548343,0.48689324,-0.40194589,0
1.6045523,-3.7564502,3.5999298,0.61497754,-0.43838823,0.65545321,0
0.49608517,1.854761,-0.78135324,-0.14292727,0.75548065,0.63939118,0
5.4773483,-0.53186178,2.072268,0.61497754,-0.43838823,0.65545321,0
6.2243133,0.7079947,1.7360437,0.77548343,0.48689324,-0.40194589,0
5.3193073,0.52346766,-0.15915203,0.77548343,0.48689324,-0.40194589,0
3.329865,-1.4952971,3.2210956,0.61497754,-0.43838823,0.65545321,0
-3.9277179,1.553881,-2.9336538,-0.61497754,0.43838823,-0.65545321,0
4.0317531,1.570365,-1.2116525,0.77548343,0.48689324,-0.40194589,0
0.039150119,0.91693163,-2.3755002,0.14292727,-0.75548065,-0.63939118,0
4.9540033,-0.1403842,2.9287629,0.61497754,-0.43838823,0.65545321,0
0.66878819,3.5935547,-5.3548961,0.77548343,0.48689324,-0.40194589,0
1.8901147,1.0890996,0.76325327,-0.14292727,0.75548065,0.63939118,0
-1.9033935,-2.6119354,4.0247526,-0.77548343,-0.48689324,0.40194589,0
0.12437582,-3.6058762,5.2991095,0.61497754,-0.43838823,0.65545321,0
3.5106044,-2.7693214,2.7386732,0.61497754,-0.43838823,0.65545321,0
1.9841799,-3.719058,3.2778111,0.61497754,-0.43838823,0.65545321,0
