0.57066798,2.6811638,-1.9930264,0.34691304,0.68660712,-0.63892257,0
2.4366336,2.8919582,-1.0011759,0.34691304,0.68660712,-0.63892257,0
2.5383923,2.6722574,-0.83536482,0.9305948,-0.16714311,0.32566369,0
0.4813295,-1.7183592,2.3021982,0.9305948,-0.16714311,0.32566369,0
-1.373606,-1.1033962,-1.2747471,-0.9305948,0.16714311,-0.32566369,0
0.26907945,0.52348876,1.5388403,-0.11681145,0.70755506,0.69693702,0
1.4540262,-1.014437,0.48547214,0.9305948,-0.16714311,0.32566369,0
-0.073015928,1.9654919,0.2895025,-0.11681145,0.70755506,0.69693702,0
-0.80143774,-2.9943414,1.5414177,-0.34691304,-0.68660712,0.63892257,0
0.078790605,1.6684529,-3.6473644,0.34691304,0.68660712,-0.63892257,0
-2.1312253,-1.4024293,2.5720887,-0.34691304,-0.68660712,0.63892257,0
0.60167098,-1.7503885,1.6065609,0.9305948,-0.16714311,0.32566369,0
0.9900468,0.93071306,-2.8292842,0.11681145,-0.70755506,-0.69693702,0
-1.9625912,-2.0006623,0.43915868,-0.9305948,0.16714311,-0.32566369,0
0.25726247,2.983891,-1.8815193,0.34691304,0.68660712,-0.63892257,0
-0.29240549,2.5663204,-2.6596234,0.34691304,0.68660712,-0.63892257,0
0.72059035,2.6017916,-2.2493291,0.34691304,0.68660712,-0.63892257,0
0.0019370317,-1.9529142,3.4829695,-0.34691304,-0.68660712,0.63892257,0
-1.3532674,-0.74563742,-1.5197058,0.11681145,-0.70755506,-0.69693702,0
-1.2215583,0.10509929,1.6060621,-0.11681145,0.70755506,0.69693702,0
0.98612738,3.0452788,-1.5910636,0.34691304,0.68660712,-0.63892257,0
-2.306046,-2.8409605,0.99458694,-0.34691304,-0.68660712,0.63892257,0
-1.7566918,-1.5383046,3.0816147,-0.34691304,-0.68660712,0.63892257,0
-1.9833362,-2.6889715,0.084859729,0.11681145,-0.70755506,-0.69693702,0
-0.34858277,0.11555982,-2.5212016,0.11681145,-0.70755506,-0.69693702,0
-2.2622499,-2.1723242,0.85543048,-0.9305948,0.16714311,-0.32566369,0
0.63682246,-1.067685,2.0101702,0.9305948,-0.16714311,0.32566369,0
1.5734751,-0.88946056,-0.93987536,0.11681145,-0.70755506,-0.69693702,0
-0.27408075,1.6783073,-2.8522151,-0.9305948,0.16714311,-0.32566369,0
-1.0354669,-2.9064789,1.780766,-0.34691304,-0.68660712,0.63892257,0
1.9505143,1.004048,-0.39102831,0.9305948,-0.16714311,0.32566369,0
-2.4659944,-1.8762319,2.0722237,-0.34691304,-0.68660712,0.63892257,0
-0.49534225,1.8162451,0.28028828,-0.11681145,0.70755506,0.69693702,0
-0.65696239,-3.3312588,1.4075605,-0.34691304,-0.68660712,0.63892257,0
-0.22269154,3.4359746,-1.3840466,-0.11681145,0.70755506,0.69693702,0
-0.22205186,2.7160933,-2.6408894,-0.9305948,0.16714311,-0.32566369,0
-0.0052329302,-1.9091492,3.1751494,-0.34691304,-0.68660712,0.63892257,0
-1.5527241,-2.8948474,1.2289979,-0.34691304,-0.68660712,0.63892257,0
0.12255168,-2.820565,2.3648908,0.9305948,-0.16714311,0.32566369,0
-0.11569428,3.1092062,-1.2396568,-0.11681145,0.70755506,0.69693702,0
-0.0061725378,2.2386172,-2.9429255,-0.9305948,0.16714311,-0.32566369,0
0.94696665,-2.4582903,0.25789738,0.9305948,-0.16714311,0.32566369,0
-1.5357448,-2.9500725,1.4678926,-0.34691304,-0.68660712,0.63892257,0
0.062021017,2.4594979,-2.9618077,0.34691304,0.68660712,-0.63892257,0
-1.067899,1.9814253,-0.065331697,-0.9305948,0.16714311,-0.32566369,0
-1.7773042,-0.33791125,0.789581,-0.9305948,0.16714311,-0.32566369,0
-1.3423059,-1.1566004,-0.8450796,-0.9305948,0.16714311,-0.32566369,0
-1.4565425,-1.0110953,-1.0675094,-0.9305948,0.16714311,-0.32566369,0
-2.4455826,-2.7364249,0.70653403,-0.9305948,0.16714311,-0.32566369,0
1.0903912,2.8492668,-0.42037547,-0.11681145,0.70755506,0.69693702,0
-1.5964285,-1.7310777,2.6441507,-0.34691304,-0.68660712,0.63892257,0
0.95885909,2.1544073,0.31993455,-0.11681145,0.70755506,0.69693702,0
1.1936868,0.28801641,-2.2568529,0.11681145,-0.70755506,-0.69693702,0
-1.2856845,-1.8805108,2.922719,-0.34691304,-0.68660712,0.63892257,0
0.63055146,1.2961826,1.1437438,-0.11681145,0.70755506,0.69693702,0
-2.3072391,-0.65279758,1.3147641,-0.9305948,0.16714311,-0.32566369,0
-0.60892653,-3.0511937,1.856245,-0.34691304,-0.68660712,0.63892257,0
2.5251529,0.86433446,-2.2618067,0.9305948,-0.16714311,0.32566369,0
0.26834494,-1.7102284,2.5232382,0.9305948,-0.16714311,0.32566369,0
1.5549179,1.0913841,0.45988697,0.9305948,-0.16714311,0.32566369,0
-1.7509365,0.019717336,-0.09481743,-0.9305948,0.16714311,-0.32566369,0
1.2182775,3.230166,-1.3156613,0.34691304,0.68660712,-0.63892257,0
0.44835043,1.1248043,1.1144211,-0.11681145,0.70755506,0.69693702,0
1.26908,0.6813128,-2.3617065,0.11681145,-0.70755506,-0.69693702,0
-1.176636,-3.1079206,1.6445245,-0.34691304,-0.68660712,0.63892257,0
0.58644283,0.34509981,-2.6660826,0.11681145,-0.70755506,-0.69693702,0
1.9269428,-0.49388349,-1.2285054,0.11681145,-0.70755506,-0.69693702,0
0.65287399,3.072525,-1.7070831,0.34691304,0.68660712,-0.63892257,0
0.87742162,1.7821128,-2.9862163,0.34691304,0.68660712,-0.63892257,0
1.4287959,-0.34946394,0.52446002,0.9305948,-0.16714311,0.32566369,0
-1.3398182,-1.5395368,-0.55580872,0.11681145,-0.70755506,-0.69693702,0
-0.90725076,0.81944561,-2.1241422,-0.9305948,0.16714311,-0.32566369,0
1.3903414,1.6464024,0.64955783,-0.11681145,0.70755506,0.69693702,0
-0.1516813,-2.5924208,2.7411854,-0.34691304,-0.68660712,0.63892257,0
0.57587147,2.3544545,-2.3690996,0.34691304,0.68660712,-0.63892257,0
-2.6103821,-2.0751472,1.774573,-0.9305948,0.16714311,-0.32566369,0
0.57115424,-2.2828364,0.30987442,0.11681145,-0.70755506,-0.69693702,0
-1.8945079,-1.6840252,-0.15754038,-0.9305948,0.16714311,-0.32566369,0
0.89975452,-0.86374819,-1.2884229,0.11681145,-0.70755506,-0.69693702,0
-1.9555168,-1.0165101,0.26701698,-0.9305948,0.16714311,-0.32566369,0
-1.0278571,-0.13526948,2.0218182,-0.11681145,0.70755506,0.69693702,0
-2.3441887,-1.8718688,2.2591496,-0.34691304,-0.68660712,0.63892257,0
0.76329386,2.6824827,-1.9751865,0.34691304,0.68660712,-0.63892257,0
-1.1525369,0.98317939,1.1029633,-0.11681145,0.70755506,0.69693702,0
-1.37333,0.8291297,-0.61994857,-0.9305948,0.16714311,-0.32566369,0
0.55376083,1.7648351,-3.3269429,0.34691304,0.68660712,-0.63892257,0
-0.53802186,-1.9657902,3.0946686,-0.34691304,-0.68660712,0.63892257,0
-0.14328074,-2.7317643,0.49597657,0.11681145,-0.70755506,-0.69693702,0
0.053598166,2.7613878,-0.3816421,-0.11681145,0.70755506,0.69693702,0
-1.3389035,-1.2267399,-1.02318,0.11681145,-0.70755506,-0.69693702,0
1.7573292,1.6988758,-2.8537452,0.34691304,0.68660712,-0.63892257,0
0.54972512,1.0320857,1.2127836,-0.11681145,0.70755506,0.69693702,0
-0.69209361,-2.8658152,1.8077496,-0.34691304,-0.68660712,0.63892257,0
-0.99565613,-0.1675843,-1.3444475,-0.9305948,0.16714311,-0.32566369,0
1.5278287,2.7682183,-0.60260463,-0.11681145,0.70755506,0.69693702,0
0.43603706,3.2544813,-1.7757659,0.34691304,0.68660712,-0.63892257,0
0.27986097,3.369338,-1.6291966,0.34691304,0.68660712,-0.63892257,0
-0.88984823,0.81105316,-1.6619623,-0.9305948,0.16714311,-0.32566369,0
-0.50129366,1.0626736,1.1021612,-0.11681145,0.70755506,0.69693702,0
2.2060235,0.41327047,-1.3033561,0.9305948,-0.16714311,0.32566369,0
-1.0856949,-1.7158132,2.733438,-0.34691304,-0.68660712,0.63892257,0
-0.10911915,0.60132158,-2.9345429,0.11681145,-0.70755506,-0.69693702,0
1.5490282,0.54841506,0.91502792,0.9305948,-0.16714311,0.32566369,0
1.694828,0.021593451,-0.83150059,0.9305948,-0.16714311,0.32566369,0
-0.46830797,-1.6534137,-0.58246756,0.11681145,-0.70755506,-0.69693702,0
1.5971889,2.1721573,-2.4869461,0.34691304,0.68660712,-0.63892257,0
-0.07152921,-0.11058736,-2.1192966,0.11681145,-0.70755506,-0.69693702,0
0.80386204,-1.1814799,1.283707,0.9305948,-0.16714311,0.32566369,0
1.9484611,1.0511714,-0.55396402,0.9305948,-0.16714311,0.32566369,0
1.1150522,-1.2174957,0.49885076,0.9305948,-0.16714311,0.32566369,0
2.4082158,2.6174567,-0.78394818,0.9305948,-0.16714311,0.32566369,0
-0.2358036,3.1860003,-1.3583741,-0.11681145,0.70755506,0.69693702,0
-1.765842,0.43119621,1.2043751,-0.9305948,0.16714311,-0.32566369,0
1.2808433,-0.44364193,-1.7290977,0.11681145,-0.70755506,-0.69693702,0
-1.4997696,-2.8808231,1.6734246,-0.34691304,-0.68660712,0.63892257,0
-2.3425548,-0.46067321,1.8979378,-0.9305948,0.16714311,-0.32566369,0
-1.7584571,1.0886981,0.4139924,-0.9305948,0.16714311,-0.32566369,0
0.16861331,1.8384947,0.06581378,-0.11681145,0.70755506,0.69693702,0
-0.19592929,-1.9312241,3.4481845,-0.34691304,-0.68660712,0.63892257,0
-1.4796526,1.0185701,-0.31242019,-0.9305948,0.16714311,-0.32566369,0
2.0529301,2.5944452,-1.6771879,0.34691304,0.68660712,-0.63892257,0
1.2506838,2.1262045,-2.5095363,0.34691304,0.68660712,-0.63892257,0
0.27555764,-1.3961461,3.6666017,0.9305948,-0.16714311,0.32566369,0
1.9166033,1.7972733,-2.2900751,0.34691304,0.68660712,-0.63892257,0
-2.0750885,-2.166455,1.8937558,-0.34691304,-0.68660712,0.63892257,0
-0.40794432,-1.4451874,-0.53288633,0.11681145,-0.70755506,-0.69693702,0
0.66978461,-1.3683097,2.4493985,0.9305948,-0.16714311,0.32566369,0
-0.7385639,-2.9871464,1.8926713,-0.34691304,-0.68660712,0.63892257,0
0.39668238,2.2044013,-0.079968333,-0.11681145,0.70755506,0.69693702,0
-1.401129,-1.412147,2.9240849,-0.34691304,-0.68660712,0.63892257,0
-1.7285206,1.1944876,0.50830257,-0.9305948,0.16714311,-0.32566369,0
-0.25311244,-2.857748,2.403357,-0.34691304,-0.68660712,0.63892257,0
-1.2013485,-3.3485374,1.1800975,-0.34691304,-0.68660712,0.63892257,0
-2.2968674,-0.98118234,1.8482432,-0.9305948,0.16714311,-0.32566369,0
-0.19507003,-2.2333128,3.0030019,-0.34691304,-0.68660712,0.63892257,0
0.37497264,0.50872076,1.7322816,-0.11681145,0.70755506,0.69693702,0
-0.84769487,1.9355323,-0.18248594,-0.11681145,0.70755506,0.69693702,0
-0.31811881,-2.9179709,1.9174006,-0.34691304,-0.68660712,0.63892257,0
-1.7097392,-2.6708674,1.4501418,-0.34691304,-0.68660712,0.63892257,0
-1.3564299,-2.7799966,1.6247296,-0.34691304,-0.68660712,0.63892257,0
-2.2216563,-2.0264177,2.0492482,-0.34691304,-0.68660712,0.63892257,0
-0.84032774,-3.2359965,1.3418511,-0.34691304,-0.68660712,0.63892257,0
0.10788739,-2.6415603,2.672081,-0.34691304,-0.68660712,0.63892257,0
-0.74086118,2.8399727,-0.64567709,-0.11681145,0.70755506,0.69693702,0
1.256583,0.79566509,-2.8494601,0.11681145,-0.70755506,-0.69693702,0
-0.7057941,3.5166845,-1.2831745,-0.11681145,0.70755506,0.69693702,0
0.10718679,-3.3177552,1.995187,0.9305948,-0.16714311,0.32566369,0
0.88795948,1.4937,-3.1546087,0.34691304,0.68660712,-0.63892257,0
-1.1015081,-1.0645509,2.8724124,-0.11681145,0.70755506,0.69693702,0
0.43879652,-3.0400629,1.1071664,0.11681145,-0.70755506,-0.69693702,0
0.29950964,1.7376766,0.69243568,-0.11681145,0.70755506,0.69693702,0
-0.72953874,0.028640628,-2.0468307,0.11681145,-0.70755506,-0.69693702,0
-1.7429188,-1.6488671,2.4558015,-0.34691304,-0.68660712,0.63892257,0
-1.1571949,-1.2280948,3.3231814,-0.34691304,-0.68660712,0.63892257,0
-0.60469627,3.1774049,-1.3668997,-0.9305948,0.16714311,-0.32566369,0
-2.1243832,-1.9211974,2.4745126,-0.34691304,-0.68660712,0.63892257,0
0.40299547,-2.3382213,2.3024702,0.9305948,-0.16714311,0.32566369,0
0.4255985,-0.35039467,-1.7445893,0.11681145,-0.70755506,-0.69693702,0
0.25541091,-2.6016939,0.77692902,0.11681145,-0.70755506,-0.69693702,0
-0.68073273,-1.6821748,3.06602,-0.34691304,-0.68660712,0.63892257,0
-1.1471622,-0.78666914,-1.3887818,0.11681145,-0.70755506,-0.69693702,0
0.83162439,2.270833,-2.3190966,0.34691304,0.68660712,-0.63892257,0
0.83672458,2.3291345,-2.8135123,0.34691304,0.68660712,-0.63892257,0
-1.9230886,-1.8702966,0.30371553,-0.9305948,0.16714311,-0.32566369,0
-1.7907166,-2.0675673,-0.26657116,0.11681145,-0.70755506,-0.69693702,0
0.33096379,-0.23634118,-2.1199608,0.11681145,-0.70755506,-0.69693702,0
1.4948202,3.3042381,-0.80624354,-0.11681145,0.70755506,0.69693702,0
2.299412,1.1047857,-1.8251045,0.9305948,-0.16714311,0.32566369,0
-0.26393986,2.9586136,-2.2276978,0.34691304,0.68660712,-0.63892257,0
0.048313983,-1.0212843,3.0497789,-0.11681145,0.70755506,0.69693702,0
-1.5304708,-0.83122766,-0.39707607,-0.9305948,0.16714311,-0.32566369,0
0.56219208,-2.4597902,2.1288779,0.9305948,-0.16714311,0.32566369,0
1.9625602,-0.46053314,-1.27349,0.11681145,-0.70755506,-0.69693702,0
0.55519623,-0.85317457,2.551985,0.9305948,-0.16714311,0.32566369,0
-0.40725195,2.609467,-2.4629455,-0.9305948,0.16714311,-0.32566369,0
-0.5475471,2.8642015,-1.5777675,-0.9305948,0.16714311,-0.32566369,0
-0.051092625,-0.24375713,-1.8957064,0.11681145,-0.70755506,-0.69693702,0
-0.72633564,2.3344615,-1.2344936,-0.9305948,0.16714311,-0.32566369,0
0.73704642,-1.2507707,2.400034,0.9305948,-0.16714311,0.32566369,0
-0.70465565,-0.34773237,2.1873043,-0.11681145,0.70755506,0.69693702,0
2.437336,1.237527,-1.1825144,0.9305948,-0.16714311,0.32566369,0
-0.071376562,-2.7098079,2.7476954,-0.34691304,-0.68660712,0.63892257,0
-0.17430878,3.4897871,-1.7253857,0.34691304,0.68660712,-0.63892257,0
-2.3131986,-1.2843882,1.922472,-0.9305948,0.16714311,-0.32566369,0
-1.5445406,-2.7843263,1.4815654,-0.34691304,-0.68660712,0.63892257,0
-0.39081541,-0.78250575,2.9018378,-0.11681145,0.70755506,0.69693702,0
-0.65243459,2.1784282,-0.43528438,-0.11681145,0.70755506,0.69693702,0
-1.7209034,-1.8214871,2.721034,-0.34691304,-0.68660712,0.63892257,0
-0.11306047,2.5093126,-2.5461473,0.34691304,0.68660712,-0.63892257,0
-1.846972,-0.86416852,0.64607751,-0.9305948,0.16714311,-0.32566369,0
-0.19074774,2.8968017,-0.92572773,-0.11681145,0.70755506,0.69693702,0
0.88018942,1.5301465,0.59681141,-0.11681145,0.70755506,0.69693702,0
-2.3914013,-2.0280037,1.7215769,-0.34691304,-0.68660712,0.63892257,0
-1.4269644,-0.8123188,-1.079244,-0.9305948,0.16714311,-0.32566369,0
2.1936717,1.737515,-2.2913687,0.34691304,0.68660712,-0.63892257,0
-0.22310388,-1.7245471,3.4993603,-0.34691304,-0.68660712,0.63892257,0
0.13344848,2.8640289,-2.0699162,0.34691304,0.68660712,-0.63892257,0
-1.667346,-1.5839901,3.0710168,-0.34691304,-0.68660712,0.63892257,0
-0.46045303,-2.2587881,2.5868187,-0.34691304,-0.68660712,0.63892257,0
-0.68025529,-2.5751638,0.24758232,0.11681145,-0.70755506,-0.69693702,0
0.63064671,0.5307653,-2.4403431,0.11681145,-0.70755506,-0.69693702,0
0.7253406,3.1234946,-1.8459537,0.34691304,0.68660712,-0.63892257,0
0.74269772,1.5816381,0.79002094,-0.11681145,0.70755506,0.69693702,0
2.2535229,1.401443,-0.7521863,0.9305948,-0.16714311,0.32566369,0
-2.238728,-2.5052996,1.5031284,-0.34691304,-0.68660712,0.63892257,0
-0.24998736,-2.8041353,2.2872791,-0.34691304,-0.68660712,0.63892257,0
0.392169,-1.6127715,-0.45063275,0.11681145,-0.70755506,-0.69693702,0
-1.7041256,-2.2900147,2.3032923,-0.34691304,-0.68660712,0.63892257,0
2.0866518,0.32308137,-1.9019206,0.11681145,-0.70755506,-0.69693702,0
-1.5486724,-1.2029883,-0.5801515,-0.9305948,0.16714311,-0.32566369,0
1.4208201,-0.75385904,0.59403902,0.9305948,-0.16714311,0.32566369,0
-0.032884836,3.5575657,-1.5324295,0.34691304,0.68660712,-0.63892257,0
0.5580644,0.13876027,-2.4734013,0.11681145,-0.70755506,-0.69693702,0
2.2319336,2.3183162,-1.690565,0.34691304,0.68660712,-0.63892257,0
-0.50867414,1.4969112,0.45155007,-0.11681145,0.70755506,0.69693702,0
-0.48476827,-2.3137686,0.33032143,0.11681145,-0.70755506,-0.69693702,0
-1.6920745,-1.7645042,-0.76399249,0.11681145,-0.70755506,-0.69693702,0
0.35992768,0.15595675,1.9751152,-0.11681145,0.70755506,0.69693702,0
1.9324353,2.178113,-2.1998286,0.34691304,0.68660712,-0.63892257,0
-0.81514692,-2.9318135,2.1316242,-0.34691304,-0.68660712,0.63892257,0
0.9058069,1.2613649,1.0506058,-0.11681145,0.70755506,0.69693702,0
-0.73909307,-3.4797149,1.0953863,0.11681145,-0.70755506,-0.69693702,0
0.45574927,-2.8021641,1.7260619,0.9305948,-0.16714311,0.32566369,0
1.8214797,1.9327832,0.37876588,0.9305948,-0.16714311,0.32566369,0
1.0911932,2.0635834,-2.4653301,0.34691304,0.68660712,-0.63892257,0
1.8450418,1.3829619,-2.8472188,0.34691304,0.68660712,-0.63892257,0
1.6238189,0.65572095,-0.1141502,0.9305948,-0.16714311,0.32566369,0
-0.23391759,-0.67290413,-1.7560841,0.11681145,-0.70755506,-0.69693702,0
2.2281325,1.4095689,-2.8912435,0.34691304,0.68660712,-0.63892257,0
-0.68932092,-2.7114329,0.67368245,0.11681145,-0.70755506,-0.69693702,0
-0.28313091,-0.98853594,2.9892309,-0.11681145,0.70755506,0.69693702,0
-0.94861734,-2.8676879,2.0321188,-0.34691304,-0.68660712,0.63892257,0
-2.5169992,-2.3076458,1.4105498,-0.9305948,0.16714311,-0.32566369,0
0.7671808,-0.67211545,2.5922375,0.9305948,-0.16714311,0.32566369,0
0.036949039,-2.7235844,2.3128095,-0.34691304,-0.68660712,0.63892257,0
0.040085793,-2.8994672,0.78304362,0.11681145,-0.70755506,-0.69693702,0
2.0644295,0.15855348,-1.8562449,0.11681145,-0.70755506,-0.69693702,0
0.65821433,3.3607531,-1.3054349,0.34691304,0.68660712,-0.63892257,0
-0.97012562,-1.1716021,3.0808058,-0.11681145,0.70755506,0.69693702,0
0.25205314,1.2412463,0.71676731,-0.11681145,0.70755506,0.69693702,0
0.31276727,-3.3020189,1.832402,0.9305948,-0.16714311,0.32566369,0
-1.7417549,-1.3174784,2.8244112,-0.34691304,-0.68660712,0.63892257,0
2.2991307,1.7319863,-1.1545873,0.9305948,-0.16714311,0.32566369,0
-0.73873734,-1.4199955,-0.7734127,0.11681145,-0.70755506,-0.69693702,0
2.1850529,2.3278203,0.027585745,0.9305948,-0.16714311,0.32566369,0
1.6174784,2.223599,-0.055408716,-0.11681145,0.70755506,0.69693702,0
1.5170105,3.372097,-1.3426106,0.34691304,0.68660712,-0.63892257,0
-1.2399359,-3.5531528,1.2159524,-0.34691304,-0.68660712,0.63892257,0
-0.60577846,2.7995715,-0.80586851,-0.11681145,0.70755506,0.69693702,0
-1.9511799,-2.511636,1.4626364,-0.34691304,-0.68660712,0.63892257,0
-1.5385851,-3.1740341,0.63444674,0.11681145,-0.70755506,-0.69693702,0
-0.82171214,-2.6008694,2.1048651,-0.34691304,-0.68660712,0.63892257,0
0.72684717,1.4982799,-3.252743,0.34691304,0.68660712,-0.63892257,0
-0.65916657,-1.0406845,3.1149821,-0.11681145,0.70755506,0.69693702,0
-0.45197642,2.4268274,-1.9881716,-0.9305948,0.16714311,-0.32566369,0
-0.17953944,-1.8976916,3.0335257,-0.34691304,-0.68660712,0.63892257,0
-1.6621869,0.43298841,0.14094287,-0.9305948,0.16714311,-0.32566369,0
-0.81444061,-1.9944756,-0.38350189,0.11681145,-0.70755506,-0.69693702,0
2.1219001,0.023476481,-1.8122908,0.11681145,-0.70755506,-0.69693702,0
2.139493,2.943213,-1.2377026,0.34691304,0.68660712,-0.63892257,0
1.4756907,-1.4957998,-0.2709285,0.11681145,-0.70755506,-0.69693702,0
2.3200188,2.4346445,-1.7904489,0.34691304,0.68660712,-0.63892257,0
-1.0315022,-0.64199233,-1.5608703,0.11681145,-0.70755506,-0.69693702,0
0.13177371,2.9196639,-0.52329421,-0.11681145,0.70755506,0.69693702,0
0.95982164,-1.5663829,1.2178289,0.9305948,-0.16714311,0.32566369,0
1.4776642,3.2164426,-1.199196,0.34691304,0.68660712,-0.63892257,0
2.4929965,1.686965,-2.327482,0.34691304,0.68660712,-0.63892257,0
-1.0548865,1.3980138,0.65132058,-0.11681145,0.70755506,0.69693702,0
-0.8188951,1.1929791,0.70405054,-0.11681145,0.70755506,0.69693702,0
2.3868713,1.3675246,-2.6813087,0.34691304,0.68660712,-0.63892257,0
-0.76086378,-2.9771554,1.6004947,-0.34691304,-0.68660712,0.63892257,0
0.80039871,-2.3818707,1.0451164,0.9305948,-0.16714311,0.32566369,0
1.3794279,0.068816543,0.86792099,0.9305948,-0.16714311,0.32566369,0
-0.88896835,1.9676912,-0.64936435,-0.9305948,0.16714311,-0.32566369,0
-1.2957976,1.5516766,0.27017468,-0.11681145,0.70755506,0.69693702,0
-1.5438459,-2.9297156,1.4590234,-0.34691304,-0.68660712,0.63892257,0
1.6930754,1.8465722,0.42165697,-0.11681145,0.70755506,0.69693702,0
2.3841586,3.0210552,-0.59494364,-0.11681145,0.70755506,0.69693702,0
-0.20196605,-2.8136048,0.42333651,0.11681145,-0.70755506,-0.69693702,0
2.0274794,1.2399849,-2.846499,0.34691304,0.68660712,-0.63892257,0
-0.91686845,-3.1277297,1.7027416,-0.34691304,-0.68660712,0.63892257,0
-0.2104404,0.70863694,1.3116,-0.11681145,0.70755506,0.69693702,0
1.6843224,0.96489668,-0.2617411,0.9305948,-0.16714311,0.32566369,0
-0.04569608,-0.10748863,2.0433638,-0.11681145,0.70755506,0.69693702,0
0.63320583,-0.40892351,2.1252427,0.9305948,-0.16714311,0.32566369,0
-2.5065074,-2.5855041,1.4157404,-0.34691304,-0.68660712,0.63892257,0
2.4007847,0.10078406,-2.0250945,0.9305948,-0.16714311,0.32566369,0
-2.6578472,-0.76407695,2.4796584,-0.9305948,0.16714311,-0.32566369,0
-1.8458302,-0.21104789,0.34104064,-0.9305948,0.16714311,-0.32566369,0
-1.2927618,-0.21007514,-1.5181264,-0.9305948,0.16714311,-0.32566369,0
-0.012016416,0.1692059,-2.5495296,0.11681145,-0.70755506,-0.69693702,0
-1.6606615,-2.5231152,0.01655972,0.11681145,-0.70755506,-0.69693702,0
0.93704438,3.3785024,-1.0910363,0.34691304,0.68660712,-0.63892257,0
-1.3661256,-3.2011416,1.4037738,-0.34691304,-0.68660712,0.63892257,0
0.70450604,0.85221529,1.4399822,-0.11681145,0.70755506,0.69693702,0
-0.63665009,-2.1298964,2.8903027,-0.34691304,-0.68660712,0.63892257,0
0.48582673,-2.0181041,-0.25637996,0.11681145,-0.70755506,-0.69693702,0
0.10968113,0.4817512,1.4656616,-0.11681145,0.70755506,0.69693702,0
-0.39755002,-1.0086213,3.3266602,-0.11681145,0.70755506,0.69693702,0
-0.55391216,-2.3617465,2.4006972,-0.34691304,-0.68660712,0.63892257,0
1.0420747,0.94743621,1.2657137,-0.11681145,0.70755506,0.69693702,0
-0.83058882,1.3068662,0.45957512,-0.11681145,0.70755506,0.69693702,0
1.3797758,-0.22510469,0.46574852,0.9305948,-0.16714311,0.32566369,0
-0.27141643,3.3957906,-1.9475822,0.34691304,0.68660712,-0.63892257,0
-2.7011609,-1.5049903,2.7029662,-0.34691304,-0.68660712,0.63892257,0
0.1777401,-2.0662882,3.1226268,-0.34691304,-0.68660712,0.63892257,0
-0.43624067,-0.3350625,-1.7209147,0.11681145,-0.70755506,-0.69693702,0
0.24805212,2.3377719,-2.7961972,0.34691304,0.68660712,-0.63892257,0
0.14120337,-0.34269094,2.30357,-0.11681145,0.70755506,0.69693702,0
0.79089189,2.3880479,-0.1276871,-0.11681145,0.70755506,0.69693702,0
0.22180891,-3.3591557,2.2696526,-0.34691304,-0.68660712,0.63892257,0
2.3751836,0.78972387,-1.3230664,0.9305948,-0.16714311,0.32566369,0
0.15649819,-3.6529722,1.6896734,-0.34691304,-0.68660712,0.63892257,0
1.6988735,0.62376559,-0.18927601,0.9305948,-0.16714311,0.32566369,0
1.9301866,1.7640311,-2.2514951,0.34691304,0.68660712,-0.63892257,0
-2.0661113,-1.3381177,0.10121614,-0.9305948,0.16714311,-0.32566369,0
2.1083295,0.55999315,-1.0442004,0.9305948,-0.16714311,0.32566369,0
-0.5140748,3.1304646,-1.2803161,-0.9305948,0.16714311,-0.32566369,0
0.23678666,1.9215159,-3.3829143,0.34691304,0.68660712,-0.63892257,0
-2.4498584,-2.7456536,1.0445278,-0.34691304,-0.68660712,0.63892257,0
2.7532666,1.2296165,-2.968482,0.34691304,0.68660712,-0.63892257,0
-0.30946314,0.38433373,1.6079866,-0.11681145,0.70755506,0.69693702,0
1.7986927,-0.11250651,-1.1620976,0.9305948,-0.16714311,0.32566369,0
-0.34543401,-0.9831208,3.0280738,-0.11681145,0.70755506,0.69693702,0
1.0941141,-0.1123637,1.3416311,0.9305948,-0.16714311,0.32566369,0
-0.58595324,0.52991092,1.6905298,-0.11681145,0.70755506,0.69693702,0
-0.41607642,-3.5490928,1.1820877,0.11681145,-0.70755506,-0.69693702,0
1.6307526,1.4235747,0.19589579,0.9305948,-0.16714311,0.32566369,0
-0.62384003,1.5974817,-2.2762771,-0.9305948,0.16714311,-0.32566369,0
0.99883127,2.8598654,-1.5824542,0.34691304,0.68660712,-0.63892257,0
0.41796625,-0.97740424,-1.2612896,0.11681145,-0.70755506,-0.69693702,0
-1.1485534,-3.302166,1.5230892,-0.34691304,-0.68660712,0.63892257,0
0.020574033,1.9115672,-3.6263819,0.34691304,0.68660712,-0.63892257,0
-0.44386768,-2.53684,0.33488894,0.11681145,-0.70755506,-0.69693702,0
0.48653138,1.8584477,0.50381583,-0.11681145,0.70755506,0.69693702,0
2.1112225,1.9839855,-0.89428639,0.9305948,-0.16714311,0.32566369,0
-0.59259152,-2.2447436,2.7462702,-0.34691304,-0.68660712,0.63892257,0
-1.8865286,-1.7556273,2.5682638,-0.34691304,-0.68660712,0.63892257,0
0.97667909,3.2861655,-1.1366047,-0.11681145,0.70755506,0.69693702,0
0.80108666,1.9664441,-2.9107468,0.34691304,0.68660712,-0.63892257,0
-1.4302695,-2.7578628,0.22236907,0.11681145,-0.70755506,-0.69693702,0
1.6186399,1.54471,0.16060507,0.9305948,-0.16714311,0.32566369,0
1.8430698,1.404413,-3.1019757,0.11681145,-0.70755506,-0.69693702,0
-0.40394539,-2.2397585,3.0688062,-0.34691304,-0.68660712,0.63892257,0
-0.58095074,-3.2305477,1.7891363,-0.34691304,-0.68660712,0.63892257,0
-0.33484101,-2.7714772,0.76929808,0.11681145,-0.70755506,-0.69693702,0
-1.822948,-2.5646238,0.19078863,0.11681145,-0.70755506,-0.69693702,0
1.1519066,2.6693809,-1.7313557,0.34691304,0.68660712,-0.63892257,0
0.44371343,3.1932709,-2.0270996,0.34691304,0.68660712,-0.63892257,0
0.24199998,-2.3288026,2.47979,0.9305948,-0.16714311,0.32566369,0
-1.13555,-2.8418181,2.0840063,-0.34691304,-0.68660712,0.63892257,0
-0.31786036,3.4238849,-1.4886894,-0.11681145,0.70755506,0.69693702,0
0.68673921,-2.3279941,1.9405519,0.9305948,-0.16714311,0.32566369,0
-0.84737229,-1.9594878,-0.08929944,0.11681145,-0.70755506,-0.69693702,0
2.1307421,1.2751142,-1.1129935,0.9305948,-0.16714311,0.32566369,0
-0.34828907,1.7600789,-2.3333788,-0.9305948,0.16714311,-0.32566369,0
0.10617173,2.2506144,-2.951077,0.34691304,0.68660712,-0.63892257,0
-0.46480986,0.49965906,-2.4851038,-0.9305948,0.16714311,-0.32566369,0
1.208463,1.8710716,-3.1039038,0.34691304,0.68660712,-0.63892257,0
-1.7912998,-0.057971001,0.45284981,-0.9305948,0.16714311,-0.32566369,0
-1.3754108,-2.3486404,2.0809536,-0.34691304,-0.68660712,0.63892257,0
0.49032903,-2.4430094,2.534616,0.9305948,-0.16714311,0.32566369,0
2.4929004,0.20029163,-1.942487,0.9305948,-0.16714311,0.32566369,0
0.49957365,1.5871074,-3.5253077,0.11681145,-0.70755506,-0.69693702,0
0.67891836,3.3014576,-1.3777739,0.34691304,0.68660712,-0.63892257,0
-1.65772,-1.881179,2.446913,-0.34691304,-0.68660712,0.63892257,0
-1.0139271,-0.46009827,2.4444647,-0.11681145,0.70755506,0.69693702,0
-2.2361341,-0.99034274,0.77820706,-0.9305948,0.16714311,-0.32566369,0
0.060507536,-2.7845197,0.86775601,0.11681145,-0.70755506,-0.69693702,0
0.11699605,3.0815065,-2.3581641,0.34691304,0.68660712,-0.63892257,0
1.6323749,-0.88637125,-0.86964101,0.9305948,-0.16714311,0.32566369,0
-0.1627481,-3.0754554,1.8215957,-0.34691304,-0.68660712,0.63892257,0
-1.7691983,0.76482838,1.1898863,-0.11681145,0.70755506,0.69693702,0
-0.56903565,-1.2119567,-1.2079613,0.11681145,-0.70755506,-0.69693702,0
-0.43518162,-2.8796952,0.92074096,0.11681145,-0.70755506,-0.69693702,0
1.2234428,1.0567476,-3.1009164,0.11681145,-0.70755506,-0.69693702,0
-2.4590561,-1.4234245,2.4921403,-0.34691304,-0.68660712,0.63892257,0
1.6991972,0.40835631,0.23162416,0.9305948,-0.16714311,0.32566369,0
-0.33115697,-2.9246395,1.9807339,-0.34691304,-0.68660712,0.63892257,0
-1.0928224,-0.60881341,2.7290719,-0.11681145,0.70755506,0.69693702,0
0.30438393,0.30218768,1.9385674,-0.11681145,0.70755506,0.69693702,0
2.1632731,2.2607946,-1.7040601,0.34691304,0.68660712,-0.63892257,0
-2.2138867,-1.6063715,2.8039377,-0.34691304,-0.68660712,0.63892257,0
-0.71255636,-3.2319231,1.3703783,-0.34691304,-0.68660712,0.63892257,0
1.2790262,-1.6907123,-0.41066086,0.11681145,-0.70755506,-0.69693702,0
0.12111092,-2.6722004,2.3019009,0.9305948,-0.16714311,0.32566369,0
0.049532413,-2.5246029,0.58852291,0.11681145,-0.70755506,-0.69693702,0
2.1916587,1.0612572,-0.55697829,0.9305948,-0.16714311,0.32566369,0
2.1652238,1.3922288,-2.8649611,0.34691304,0.68660712,-0.63892257,0
0.21721685,1.5845594,0.66918749,-0.11681145,0.70755506,0.69693702,0
-1.9024866,-1.8125979,2.3347793,-0.34691304,-0.68660712,0.63892257,0
-0.067082107,-1.9402379,3.3122106,-0.34691304,-0.68660712,0.63892257,0
-1.4250993,-3.0554423,0.99557769,0.11681145,-0.70755506,-0.69693702,0
-2.165622,-1.2883682,0.57894462,-0.9305948,0.16714311,-0.32566369,0
-0.042816103,-1.4246283,3.62308,-0.11681145,0.70755506,0.69693702,0
0.61312664,-2.0728431,0.17799246,0.11681145,-0.70755506,-0.69693702,0
1.0799022,-0.50382698,1.8275841,0.9305948,-0.16714311,0.32566369,0
0.85891449,1.2618692,0.80863118,-0.11681145,0.70755506,0.69693702,0
1.4700208,-0.33898783,-0.027922779,0.9305948,-0.16714311,0.32566369,0
-1.7569969,-0.42714167,0.55255163,-0.9305948,0.16714311,-0.32566369,0
2.1862717,1.4550985,-2.9379444,0.34691304,0.68660712,-0.63892257,0
0.77040672,-0.52966559,-1.3243595,0.11681145,-0.70755506,-0.69693702,0
-0.47814322,2.8296518,-1.244113,-0.9305948,0.16714311,-0.32566369,0
-1.2527409,-3.0145311,1.7414657,-0.34691304,-0.68660712,0.63892257,0
-0.83375442,2.6056578,-1.3445134,-0.9305948,0.16714311,-0.32566369,0
-0.79809761,-2.4148438,0.38844037,0.11681145,-0.70755506,-0.69693702,0
1.1699371,-1.8262663,-0.059960723,0.9305948,-0.16714311,0.32566369,0
1.9587653,2.3733535,-1.6842371,0.34691304,0.68660712,-0.63892257,0
-1.1992049,-2.7754624,1.9788284,-0.34691304,-0.68660712,0.63892257,0
-1.3112054,-2.7692997,0.46827841,0.11681145,-0.70755506,-0.69693702,0
-1.0809822,-0.46230185,-1.151601,-0.9305948,0.16714311,-0.32566369,0
2.408808,2.7486286,-1.492186,0.34691304,0.68660712,-0.63892257,0
0.96468949,0.80077624,1.6130465,-0.11681145,0.70755506,0.69693702,0
-0.59929001,2.2138731,-0.23697126,-0.11681145,0.70755506,0.69693702,0
2.179646,0.2301662,-1.844313,0.11681145,-0.70755506,-0.69693702,0
-1.5085533,-1.2730631,-0.37340033,-0.9305948,0.16714311,-0.32566369,0
0.28670835,-1.4244913,3.378839,0.9305948,-0.16714311,0.32566369,0
-2.380348,-0.7712698,1.8344131,-0.9305948,0.16714311,-0.32566369,0
0.026109219,2.1686814,-2.9651055,0.34691304,0.68660712,-0.63892257,0
-0.38499784,-1.9979699,0.084817886,0.11681145,-0.70755506,-0.69693702,0
0.20130491,-3.5938745,1.9978011,-0.34691304,-0.68660712,0.63892257,0
-0.28104329,3.3508711,-1.8643174,0.34691304,0.68660712,-0.63892257,0
2.3885918,2.7335267,-1.2340286,0.34691304,0.68660712,-0.63892257,0
-1.9098245,-3.1837418,0.91097915,-0.34691304,-0.68660712,0.63892257,0
0.80729854,-2.1018796,1.5027523,0.9305948,-0.16714311,0.32566369,0
-0.96060294,0.65623063,-0.92085701,-0.9305948,0.16714311,-0.32566369,0
-0.9091258,2.7047076,-1.0880978,-0.9305948,0.16714311,-0.32566369,0
2.760253,1.0540389,-2.5361512,0.11681145,-0.70755506,-0.69693702,0
-2.0862949,-1.9461663,1.9975387,-0.34691304,-0.68660712,0.63892257,0
0.23542476,-2.7429936,0.44721031,0.11681145,-0.70755506,-0.69693702,0
-0.12601912,2.499316,-2.4997835,-0.9305948,0.16714311,-0.32566369,0
0.22394848,3.0946167,-2.1766758,0.34691304,0.68660712,-0.63892257,0
-1.7341371,-2.964664,1.6429313,-0.34691304,-0.68660712,0.63892257,0
-0.048115015,1.909529,0.34352952,-0.11681145,0.70755506,0.69693702,0
-0.12393832,2.738843,-0.44650161,-0.11681145,0.70755506,0.69693702,0
-0.47955793,0.16797462,1.7680221,-0.11681145,0.70755506,0.69693702,0
-2.055351,-0.14401424,1.7070022,-0.11681145,0.70755506,0.69693702,0
0.89056122,2.8951921,-0.61430693,-0.11681145,0.70755506,0.69693702,0
0.10093439,-0.49041462,-1.7938259,0.11681145,-0.70755506,-0.69693702,0
0.52014852,-2.958143,1.1180487,0.9305948,-0.16714311,0.32566369,0
0.54529572,-1.9781132,0.022592068,0.11681145,-0.70755506,-0.69693702,0
-1.9797014,-1.1235883,2.8513365,-0.11681145,0.70755506,0.69693702,0
0.30714369,-0.51006287,-1.3860744,0.11681145,-0.70755506,-0.69693702,0
2.2177482,2.2727821,-1.0804495,0.9305948,-0.16714311,0.32566369,0
1.1542877,-0.77077174,1.3404527,0.9305948,-0.16714311,0.32566369,0
-1.1822019,0.13124073,-0.64390939,-0.9305948,0.16714311,-0.32566369,0
-0.83991265,0.37465358,-1.9838067,-0.9305948,0.16714311,-0.32566369,0
2.6094508,1.7889955,-1.9194638,0.34691304,0.68660712,-0.63892257,0
2.2946806,0.78269029,-1.8256911,0.9305948,-0.16714311,0.32566369,0
-0.64440548,-1.4926772,-0.93717325,0.11681145,-0.70755506,-0.69693702,0
0.16548938,-2.1665239,3.5006435,-0.34691304,-0.68660712,0.63892257,0
1.7866191,2.3481147,-2.1259508,0.34691304,0.68660712,-0.63892257,0
-0.959728,-2.9185658,0.39431155,0.11681145,-0.70755506,-0.69693702,0
1.5209352,-0.51821631,-0.32896185,0.9305948,-0.16714311,0.32566369,0
1.140522,1.2506952,-3.3957076,0.11681145,-0.70755506,-0.69693702,0
-0.8535068,-3.0959499,1.654395,-0.34691304,-0.68660712,0.63892257,0
-2.1650834,-3.0534668,0.35798597,0.11681145,-0.70755506,-0.69693702,0
-1.4593012,0.53105259,-0.29386684,-0.9305948,0.16714311,-0.32566369,0
-1.4240712,1.5167773,-0.19743133,-0.9305948,0.16714311,-0.32566369,0
0.27774811,3.1492074,-1.1756673,-0.11681145,0.70755506,0.69693702,0
0.56177092,0.4843691,-2.6122317,0.11681145,-0.70755506,-0.69693702,0
1.2372963,2.572412,0.022578955,-0.11681145,0.70755506,0.69693702,0
-0.1989435,1.5237572,-2.857265,-0.9305948,0.16714311,-0.32566369,0
-0.73775423,-2.5553191,2.5350285,-0.34691304,-0.68660712,0.63892257,0
0.41236147,0.79213679,-2.7993488,0.11681145,-0.70755506,-0.69693702,0
-1.1100917,0.50651628,1.2157729,-0.11681145,0.70755506,0.69693702,0
-2.2041698,-2.6423314,0.83032751,-0.9305948,0.16714311,-0.32566369,0
1.8830247,-0.63749528,-1.465745,0.11681145,-0.70755506,-0.69693702,0
0.47314537,-1.6877773,-0.16323411,0.11681145,-0.70755506,-0.69693702,0
1.4552426,2.1165106,-2.3170507,0.34691304,0.68660712,-0.63892257,0
2.3069906,1.869598,-2.0943322,0.34691304,0.68660712,-0.63892257,0
1.4015784,-0.88166654,0.62309456,0.9305948,-0.16714311,0.32566369,0
-1.1364479,-0.049986482,-1.0780286,-0.9305948,0.16714311,-0.32566369,0
1.65448,2.9023011,-1.7404597,0.34691304,0.68660712,-0.63892257,0
-1.9361367,-0.5050298,0.67743552,-0.9305948,0.16714311,-0.32566369,0
1.4114751,1.3398343,1.2137351,-0.11681145,0.70755506,0.69693702,0
0.93842816,-0.41304994,1.6670005,0.9305948,-0.16714311,0.32566369,0
0.56384635,3.2391267,-1.973917,0.34691304,0.68660712,-0.63892257,0
-0.74273026,0.81001401,-1.9290812,-0.9305948,0.16714311,-0.32566369,0
-0.17365009,1.9569124,-3.2236533,-0.9305948,0.16714311,-0.32566369,0
0.67983156,1.0566052,1.0228729,-0.11681145,0.70755506,0.69693702,0
0.94166338,-1.6231962,0.72354937,0.9305948,-0.16714311,0.32566369,0
-0.64580482,-0.3788799,-1.7376628,0.11681145,-0.70755506,-0.69693702,0
-1.1606052,-2.9049864,1.4341434,-0.34691304,-0.68660712,0.63892257,0
2.1601081,1.7601492,-2.6091843,0.34691304,0.68660712,-0.63892257,0
-2.1646259,-2.649792,0.52646649,-0.9305948,0.16714311,-0.32566369,0
1.4230194,-0.62633693,0.78895164,0.9305948,-0.16714311,0.32566369,0
-2.2727518,-2.5946088,0.16913044,-0.9305948,0.16714311,-0.32566369,0
0.686764,0.48918653,-2.3156545,0.11681145,-0.70755506,-0.69693702,0
-0.93637908,-2.3043103,-0.22093213,0.11681145,-0.70755506,-0.69693702,0
0.42316145,0.46856254,-2.2838264,0.11681145,-0.70755506,-0.69693702,0
-0.83766699,1.0188406,1.0580394,-0.11681145,0.70755506,0.69693702,0
1.300795,0.84639001,0.89536762,0.9305948,-0.16714311,0.32566369,0
-0.087201238,1.4487243,-3.0352564,-0.9305948,0.16714311,-0.32566369,0
-0.93633115,-0.56589556,-1.6140627,0.11681145,-0.70755506,-0.69693702,0
0.63214946,2.9154892,-1.7035623,0.34691304,0.68660712,-0.63892257,0
-1.0152218,2.4158227,-0.4040451,-0.11681145,0.70755506,0.69693702,0
0.75627589,2.983053,-0.64312029,-0.11681145,0.70755506,0.69693702,0
1.8499069,2.9062994,-0.21885788,-0.11681145,0.70755506,0.69693702,0
0.56396258,1.5256196,-3.668117,0.34691304,0.68660712,-0.63892257,0
0.96540558,1.0651063,1.4534115,-0.11681145,0.70755506,0.69693702,0
0.061557412,-1.939653,-0.083470941,0.11681145,-0.70755506,-0.69693702,0
0.46328664,0.66488194,1.621757,-0.11681145,0.70755506,0.69693702,0
2.2770586,3.0330901,-1.0177197,0.34691304,0.68660712,-0.63892257,0
-1.3335412,-1.9406512,2.8010654,-0.34691304,-0.68660712,0.63892257,0
-1.3445106,-0.67996085,-0.69771016,-0.9305948,0.16714311,-0.32566369,0
0.55144811,-2.8536105,1.2882922,0.9305948,-0.16714311,0.32566369,0
1.2373171,-1.14858,0.99329495,0.9305948,-0.16714311,0.32566369,0
-0.88568312,-0.87316674,2.6169176,-0.11681145,0.70755506,0.69693702,0
0.055412352,0.2330631,-2.5817018,0.11681145,-0.70755506,-0.69693702,0
0.3111093,-2.9976766,2.2901578,0.9305948,-0.16714311,0.32566369,0
-1.780885,0.30554461,1.6624799,-0.11681145,0.70755506,0.69693702,0
-0.96351898,-2.8987265,1.8166317,-0.34691304,-0.68660712,0.63892257,0
2.584389,1.8175297,-1.7507678,0.9305948,-0.16714311,0.32566369,0
0.92211866,-0.054669619,2.3460026,-0.11681145,0.70755506,0.69693702,0
-0.91180134,-0.013619661,1.8721071,-0.11681145,0.70755506,0.69693702,0
-1.2242806,-0.5672214,-1.6551405,-0.9305948,0.16714311,-0.32566369,0
-0.61822712,1.0979778,0.73309022,-0.11681145,0.70755506,0.69693702,0
2.027411,2.1871958,-2.1546197,0.34691304,0.68660712,-0.63892257,0
1.9154329,1.5179416,0.17819822,0.9305948,-0.16714311,0.32566369,0
-1.1230503,-2.1852405,2.2783589,-0.34691304,-0.68660712,0.63892257,0
-0.47548947,1.435467,-3.0202,-0.9305948,0.16714311,-0.32566369,0
-2.288264,-0.88657403,1.1573836,-0.9305948,0.16714311,-0.32566369,0
1.6487374,-0.053258061,0.36441028,0.9305948,-0.16714311,0.32566369,0
1.3252379,2.0837305,-2.6552041,0.34691304,0.68660712,-0.63892257,0
-0.54484451,-2.1866231,0.070634961,0.11681145,-0.70755506,-0.69693702,0
-1.8408573,-2.4466715,-0.012766838,0.11681145,-0.70755506,-0.69693702,0
-0.70488894,0.98866814,-1.6974649,-0.9305948,0.16714311,-0.32566369,0
-0.29994583,3.3717055,-1.7183239,0.34691304,0.68660712,-0.63892257,0
-0.9871515,-2.4592006,2.421021,-0.34691304,-0.68660712,0.63892257,0
2.1920881,0.48101681,-2.0413768,0.11681145,-0.70755506,-0.69693702,0
0.2349925,-2.4194295,0.10333967,0.11681145,-0.70755506,-0.69693702,0
-0.94145346,2.3233404,-1.3078382,-0.9305948,0.16714311,-0.32566369,0
-0.4630565,1.3887067,-2.2628388,-0.9305948,0.16714311,-0.32566369,0
0.22693104,-1.5140587,2.8854287,0.9305948,-0.16714311,0.32566369,0
2.5587068,1.8179328,-1.5560653,0.9305948,-0.16714311,0.32566369,0
2.560111,1.0482165,-1.9196024,0.9305948,-0.16714311,0.32566369,0
-0.56077313,0.13724929,1.9550568,-0.11681145,0.70755506,0.69693702,0
1.8518894,1.0422723,0.35196954,0.9305948,-0.16714311,0.32566369,0
1.9772367,0.2127763,-0.47385812,0.9305948,-0.16714311,0.32566369,0
-2.2452869,-2.9859874,1.2684498,-0.34691304,-0.68660712,0.63892257,0
-1.5859787,-1.1669155,-0.72651666,-0.9305948,0.16714311,-0.32566369,0
-0.7081247,-0.75409162,2.6967194,-0.11681145,0.70755506,0.69693702,0
-1.9212365,-0.90995622,0.10641265,-0.9305948,0.16714311,-0.32566369,0
-2.2408781,-1.5735843,2.2869191,-0.34691304,-0.68660712,0.63892257,0
-0.15221071,-2.5123844,2.9649873,-0.34691304,-0.68660712,0.63892257,0
-0.163275,-3.450963,1.5287714,-0.34691304,-0.68660712,0.63892257,0
-1.1028452,-0.89601058,2.7995656,-0.11681145,0.70755506,0.69693702,0
1.4759598,1.9416111,-2.3649981,0.34691304,0.68660712,-0.63892257,0
-0.17185473,2.8835573,-0.83836365,-0.11681145,0.70755506,0.69693702,0
0.56051636,-0.70093632,2.1873088,0.9305948,-0.16714311,0.32566369,0
-2.0286102,-3.144999,1.1464304,-0.34691304,-0.68660712,0.63892257,0
-0.20385307,0.1349026,-2.2885237,0.11681145,-0.70755506,-0.69693702,0
2.4880893,0.86228538,-1.8530889,0.9305948,-0.16714311,0.32566369,0
0.86789942,0.0095863342,2.2745664,0.9305948,-0.16714311,0.32566369,0
-1.8854562,-1.6175349,2.6451025,-0.34691304,-0.68660712,0.63892257,0
-1.0810724,1.6603394,-0.70941198,-0.9305948,0.16714311,-0.32566369,0
0.68465567,-2.9457004,0.83164287,0.11681145,-0.70755506,-0.69693702,0
-0.90971935,-3.1078291,1.4270232,-0.34691304,-0.68660712,0.63892257,0
0.31854245,1.6205651,-3.3586612,0.34691304,0.68660712,-0.63892257,0
1.0409374,3.0053198,-0.92992592,-0.11681145,0.70755506,0.69693702,0
2.6956511,2.5340109,-1.2212269,0.9305948,-0.16714311,0.32566369,0
0.81682563,2.7048492,-1.8983263,0.34691304,0.68660712,-0.63892257,0
1.8795477,2.6637316,-1.4571511,0.34691304,0.68660712,-0.63892257,0
0.89165574,-0.89258766,1.0140375,0.9305948,-0.16714311,0.32566369,0
-0.57031065,1.5957296,-2.1815524,-0.9305948,0.16714311,-0.32566369,0
-1.9759641,-2.5549748,1.4622056,-0.34691304,-0.68660712,0.63892257,0
0.05654633,-1.3986492,-0.50852776,0.11681145,-0.70755506,-0.69693702,0
2.4552777,2.4801693,-1.2363323,0.9305948,-0.16714311,0.32566369,0
2.1333451,0.92966843,-1.327767,0.9305948,-0.16714311,0.32566369,0
-0.53940493,-0.72062421,2.5791976,-0.11681145,0.70755506,0.69693702,0
2.3399761,2.7827337,-0.79045212,0.9305948,-0.16714311,0.32566369,0
-0.45196924,-1.70919,3.3685026,-0.34691304,-0.68660712,0.63892257,0
0.95641297,-0.56965721,2.1088233,0.9305948,-0.16714311,0.32566369,0
2.2465472,2.5854833,-1.7233689,0.34691304,0.68660712,-0.63892257,0
-2.1609089,-0.10505772,1.0096135,-0.9305948,0.16714311,-0.32566369,0
2.5772171,1.3341619,-2.7996202,0.34691304,0.68660712,-0.63892257,0
0.75122035,3.1122637,-1.7198859,0.34691304,0.68660712,-0.63892257,0
-0.51965058,-1.8990941,-0.12596846,0.11681145,-0.70755506,-0.69693702,0
-0.34543228,3.7311206,-1.6503687,0.34691304,0.68660712,-0.63892257,0
0.94409513,-2.6039758,0.36564529,0.11681145,-0.70755506,-0.69693702,0
-0.5844785,-1.8960978,3.2030199,-0.34691304,-0.68660712,0.63892257,0
0.45393047,-0.57571089,2.5394483,0.9305948,-0.16714311,0.32566369,0
0.016962051,2.4006732,-2.6289129,0.34691304,0.68660712,-0.63892257,0
-2.5281246,-0.94121116,2.4205906,-0.11681145,0.70755506,0.69693702,0
0.31516993,1.8445756,0.50910574,-0.11681145,0.70755506,0.69693702,0
-2.4876485,-1.4054382,2.1021006,-0.9305948,0.16714311,-0.32566369,0
1.2404881,3.5303876,-0.99268985,-0.11681145,0.70755506,0.69693702,0
1.7805693,2.6510026,-1.6918294,0.34691304,0.68660712,-0.63892257,0
1.346885,-0.56722951,0.47813234,0.9305948,-0.16714311,0.32566369,0
1.8431507,-0.39559799,-1.2692641,0.9305948,-0.16714311,0.32566369,0
0.39141536,1.1831999,-3.0300229,0.11681145,-0.70755506,-0.69693702,0
-1.1996032,1.3617086,-0.69287151,-0.9305948,0.16714311,-0.32566369,0
-0.8492204,1.7221565,0.076018572,-0.11681145,0.70755506,0.69693702,0
-1.101615,-2.6717401,1.7112144,-0.34691304,-0.68660712,0.63892257,0
-2.5016561,-1.896686,1.8764791,-0.34691304,-0.68660712,0.63892257,0
1.1114321,1.697232,-3.2161834,0.34691304,0.68660712,-0.63892257,0
0.97952944,1.0873262,1.4937484,-0.11681145,0.70755506,0.69693702,0
0.57917452,-3.2162492,1.2543149,0.11681145,-0.70755506,-0.69693702,0
-1.4013205,-1.6522737,3.1188288,-0.34691304,-0.68660712,0.63892257,0
-2.3427324,-2.2470782,2.0277753,-0.34691304,-0.68660712,0.63892257,0
-2.0245607,0.16665119,1.6725299,-0.11681145,0.70755506,0.69693702,0
1.3696399,0.1144222,0.66361773,0.9305948,-0.16714311,0.32566369,0
0.91379726,-0.049157858,-2.1355579,0.11681145,-0.70755506,-0.69693702,0
0.001532793,2.9596181,-0.60683322,-0.11681145,0.70755506,0.69693702,0
-1.1221057,1.9055369,0.31463206,-0.11681145,0.70755506,0.69693702,0
-1.1165764,-1.7650199,-0.61095119,0.11681145,-0.70755506,-0.69693702,0
-0.17501879,-2.1976397,2.907815,-0.34691304,-0.68660712,0.63892257,0
-1.3811644,-0.41486898,2.426055,-0.11681145,0.70755506,0.69693702,0
-2.1693897,-2.8798361,1.0531163,-0.34691304,-0.68660712,0.63892257,0
1.1420021,1.7538906,-2.9970019,0.34691304,0.68660712,-0.63892257,0
-0.12133622,0.50255865,1.7597371,-0.11681145,0.70755506,0.69693702,0
-0.31023109,0.90499496,1.1124368,-0.11681145,0.70755506,0.69693702,0
-0.086340427,-0.63146526,-1.6726174,0.11681145,-0.70755506,-0.69693702,0
-1.4013755,1.2931702,0.22565645,-0.9305948,0.16714311,-0.32566369,0
-0.093514681,3.2915711,-1.7208383,0.34691304,0.68660712,-0.63892257,0
1.3341969,-1.0857166,0.75349152,0.9305948,-0.16714311,0.32566369,0
0.45877993,1.7385302,0.6980027,-0.11681145,0.70755506,0.69693702,0
-1.4658276,-2.9466929,0.58797765,0.11681145,-0.70755506,-0.69693702,0
0.85977662,-0.84186816,1.1050116,0.9305948,-0.16714311,0.32566369,0
0.95161319,1.2261432,1.2684761,-0.11681145,0.70755506,0.69693702,0
0.60830307,2.2849898,-2.9387293,0.34691304,0.68660712,-0.63892257,0
0.86369604,-1.4040177,1.4899911,0.9305948,-0.16714311,0.32566369,0
0.82273436,2.3541055,-0.046585202,-0.11681145,0.70755506,0.69693702,0
-0.63247907,-1.8894734,-0.41507226,0.11681145,-0.70755506,-0.69693702,0
-1.3467796,-0.38768697,-1.5028797,-0.9305948,0.16714311,-0.32566369,0
-0.07425046,3.3670075,-1.033031,-0.11681145,0.70755506,0.69693702,0
1.3092899,0.10937476,0.57997555,0.9305948,-0.16714311,0.32566369,0
0.72000551,-1.7929461,1.168692,0.9305948,-0.16714311,0.32566369,0
0.37330103,3.5989919,-1.6455224,0.34691304,0.68660712,-0.63892257,0
-0.32814884,2.4315865,-3.0159564,-0.9305948,0.16714311,-0.32566369,0
1.8894175,2.2319303,0.036151171,-0.11681145,0.70755506,0.69693702,0
-1.3410046,1.7300289,-0.39027238,-0.9305948,0.16714311,-0.32566369,0
-1.1561159,2.3126605,-0.40730953,-0.9305948,0.16714311,-0.32566369,0
-0.96009016,-2.6639178,1.9444305,-0.34691304,-0.68660712,0.63892257,0
-2.3685594,-1.8575535,1.5027388,-0.9305948,0.16714311,-0.32566369,0
-0.46086431,-2.5184472,2.7119439,-0.34691304,-0.68660712,0.63892257,0
0.11709274,-1.2153202,3.488585,0.9305948,-0.16714311,0.32566369,0
2.0465026,0.60997701,-2.6698525,0.11681145,-0.70755506,-0.69693702,0
-0.10093704,1.6499953,-3.5701427,0.34691304,0.68660712,-0.63892257,0
0.25437331,2.1977477,0.22521067,-0.11681145,0.70755506,0.69693702,0
-1.2987001,0.70810157,-0.026556671,-0.9305948,0.16714311,-0.32566369,0
-0.40547872,-2.6506233,2.1642289,-0.34691304,-0.68660712,0.63892257,0
-1.5203514,-2.8252697,0.33863747,0.11681145,-0.70755506,-0.69693702,0
1.5045577,2.3250954,-2.0150614,0.34691304,0.68660712,-0.63892257,0
2.1439438,1.1766328,-0.82313013,0.9305948,-0.16714311,0.32566369,0
0.97632468,0.25292587,-2.4057264,0.11681145,-0.70755506,-0.69693702,0
-1.8017083,-1.7414182,-0.32841253,-0.9305948,0.16714311,-0.32566369,0
1.5522771,3.0920255,-1.1067679,0.34691304,0.68660712,-0.63892257,0
0.76070154,1.5203129,-3.2702727,0.34691304,0.68660712,-0.63892257,0
1.9116136,-0.29868305,-1.3697484,0.9305948,-0.16714311,0.32566369,0
-0.056486964,1.3693558,0.6454668,-0.11681145,0.70755506,0.69693702,0
-0.3023181,-3.0402894,1.8809029,-0.34691304,-0.68660712,0.63892257,0
-1.0993475,1.3918962,-0.76614857,-0.9305948,0.16714311,-0.32566369,0
-0.28175068,2.1751766,-2.0808065,-0.9305948,0.16714311,-0.32566369,0
2.342319,1.8605433,-0.79539102,0.9305948,-0.16714311,0.32566369,0
0.64129657,-1.1773018,2.6848297,0.9305948,-0.16714311,0.32566369,0
-0.21558785,-3.1862504,1.0053147,0.11681145,-0.70755506,-0.69693702,0
0.031613111,2.8354383,-0.53256166,-0.11681145,0.70755506,0.69693702,0
2.2244692,2.4846139,-1.0674756,0.9305948,-0.16714311,0.32566369,0
0.30536783,1.7311522,0.26324451,-0.11681145,0.70755506,0.69693702,0
1.4284034,1.578414,0.88681674,0.9305948,-0.16714311,0.32566369,0
2.3528881,3.2311893,-0.47010696,-0.11681145,0.70755506,0.69693702,0
1.4253793,2.7755747,-1.7686642,0.34691304,0.68660712,-0.63892257,0
0.89085233,-2.2283616,0.090119362,0.11681145,-0.70755506,-0.69693702,0
-1.9582968,-1.4163812,2.9529927,-0.34691304,-0.68660712,0.63892257,0
-1.4807863,-1.6345398,-0.86822909,0.11681145,-0.70755506,-0.69693702,0
-0.63778818,-1.813291,3.0747564,-0.34691304,-0.68660712,0.63892257,0
0.78725535,-0.59809721,1.7664411,0.9305948,-0.16714311,0.32566369,0
2.4772279,0.43898451,-1.8963715,0.9305948,-0.16714311,0.32566369,0
-0.47948122,-3.0069623,2.0622411,-0.34691304,-0.68660712,0.63892257,0
-0.61329067,-1.9533236,3.2429676,-0.34691304,-0.68660712,0.63892257,0
0.035206556,1.3195672,-3.425333,-0.9305948,0.16714311,-0.32566369,0
-0.74436486,0.70867908,1.1411388,-0.11681145,0.70755506,0.69693702,0
2.2625685,1.7713242,-2.2836144,0.34691304,0.68660712,-0.63892257,0
-1.825228,-2.3101375,1.7606862,-0.34691304,-0.68660712,0.63892257,0
-0.38099915,-0.084854007,-2.2995009,0.11681145,-0.70755506,-0.69693702,0
0.31535745,2.840996,-2.4330354,0.34691304,0.68660712,-0.63892257,0
-0.97258472,-1.4667997,-0.87347478,0.11681145,-0.70755506,-0.69693702,0
-1.5743947,-1.5939606,-0.63657856,0.11681145,-0.70755506,-0.69693702,0
-2.6618717,-1.0639737,2.9652433,-0.34691304,-0.68660712,0.63892257,0
1.9963005,2.2361584,-2.2067785,0.34691304,0.68660712,-0.63892257,0
-1.2780885,-1.1354198,-1.3614779,-0.9305948,0.16714311,-0.32566369,0
-2.543637,-2.4200802,1.118784,-0.9305948,0.16714311,-0.32566369,0
2.7326503,1.6751728,-1.8780314,0.9305948,-0.16714311,0.32566369,0
0.82005113,1.8574746,-2.8584218,0.34691304,0.68660712,-0.63892257,0
1.8623686,-0.44930524,-1.0201199,0.9305948,-0.16714311,0.32566369,0
-1.1370573,-1.5504276,-0.50895876,0.11681145,-0.70755506,-0.69693702,0
2.4901977,2.3539443,-1.7581789,0.34691304,0.68660712,-0.63892257,0
0.055278957,-1.218866,3.2876289,-0.11681145,0.70755506,0.69693702,0
-1.4370285,-1.7491367,2.6534066,-0.34691304,-0.68660712,0.63892257,0
-2.1702731,-2.8686399,1.287077,-0.34691304,-0.68660712,0.63892257,0
-0.083497047,-2.8886523,2.0425177,-0.34691304,-0.68660712,0.63892257,0
-1.5253153,0.5858345,-0.40487057,-0.9305948,0.16714311,-0.32566369,0
1.7902527,1.9359195,-2.7229595,0.34691304,0.68660712,-0.63892257,0
0.64731175,-0.066926658,-1.9746637,0.11681145,-0.70755506,-0.69693702,0
1.4263246,-0.45889488,-1.6810254,0.11681145,-0.70755506,-0.69693702,0
2.0370886,1.7225635,-0.74371719,0.9305948,-0.16714311,0.32566369,0
1.7770069,1.0951585,-0.061080396,0.9305948,-0.16714311,0.32566369,0
2.3090355,0.68031156,-1.0776169,0.9305948,-0.16714311,0.32566369,0
