-1.1910952,0.46194661,-1.4965073,-0.23968768,0.86385334,-0.44306576,0
0.94792902,-1.0453776,1.1368561,0.23968768,-0.86385334,0.44306576,0
1.8539622,-1.1961458,-0.38587552,0.27615952,-0.37685108,-0.88414884,0
-1.5564272,0.095363736,1.378814,-0.27615952,0.37685108,0.88414884,0
-2.4584765,-1.2780613,-0.68031526,-0.93074477,-0.33427641,-0.14823484,0
2.7161331,1.2113389,-0.70670652,0.93074477,0.33427641,0.14823484,0
-0.062932551,-1.5996693,-0.0074770451,0.23968768,-0.86385334,0.44306576,0
-0.8205657,-2.2791035,-0.87752628,0.27615952,-0.37685108,-0.88414884,0
1.6291534,-0.38636267,1.3998373,0.23968768,-0.86385334,0.44306576,0
-1.3184998,-1.6232941,0.97858858,0.23968768,-0.86385334,0.44306576,0
-1.8372583,-0.68003953,-1.8455456,0.27615952,-0.37685108,-0.88414884,0
1.2562768,-0.73392487,1.1283689,0.23968768,-0.86385334,0.44306576,0
0.34641409,-1.1545399,1.3548899,0.23968768,-0.86385334,0.44306576,0
-2.0882127,-1.0391994,-1.9536004,0.27615952,-0.37685108,-0.88414884,0
2.1160867,-0.52693474,-0.960024,0.27615952,-0.37685108,-0.88414884,0
2.6338377,0.7475152,1.6674396,0.93074477,0.33427641,0.14823484,0
1.859136,-0.98136127,0.59741706,0.23968768,-0.86385334,0.44306576,0
-0.12485294,-1.8472023,-0.79545903,0.27615952,-0.37685108,-0.88414884,0
2.6874223,1.2017679,1.4181523,0.93074477,0.33427641,0.14823484,0
-1.48941,-1.7118897,0.86175823,0.23968768,-0.86385334,0.44306576,0
-1.2707677,-0.24554098,-2.0028491,0.27615952,-0.37685108,-0.88414884,0
2.8902569,0.38726699,1.4537456,0.93074477,0.33427641,0.14823484,0
1.7575258,-0.33715338,-1.1289289,0.27615952,-0.37685108,-0.88414884,0
-0.88802624,0.49196851,-1.7130847,-0.23968768,0.86385334,-0.44306576,0
-3.2653396,0.14776263,0.12271261,-0.93074477,-0.33427641,-0.14823484,0
-0.28712499,-0.20524061,1.7971703,-0.27615952,0.37685108,0.88414884,0
-2.1314082,0.39059705,0.67459142,-0.27615952,0.37685108,0.88414884,0
-1.6054492,-1.5256653,1.1739712,0.23968768,-0.86385334,0.44306576,0
-2.637357,-0.31313968,-1.6987398,-0.93074477,-0.33427641,-0.14823484,0
3.1332784,-0.28990227,0.18476415,0.93074477,0.33427641,0.14823484,0
-0.477305,-0.93191445,-1.6174279,0.27615952,-0.37685108,-0.88414884,0
-1.8814025,1.0977672,0.75526643,-0.27615952,0.37685108,0.88414884,0
-0.68420362,-1.0793738,1.265146,0.23968768,-0.86385334,0.44306576,0
3.0597045,-0.13122109,-0.48864579,0.27615952,-0.37685108,-0.88414884,0
-1.6768692,-0.73877907,-1.9104106,0.27615952,-0.37685108,-0.88414884,0
-2.6502209,-0.29733205,-2.1758099,-0.93074477,-0.33427641,-0.14823484,0
3.0642796,1.0621775,-0.19412279,0.93074477,0.33427641,0.14823484,0
-1.8583935,-1.7990719,0.92012835,0.23968768,-0.86385334,0.44306576,0
-2.7242856,0.96942472,-0.11003959,-0.23968768,0.86385334,-0.44306576,0
1.7872548,1.660858,1.760088,-0.27615952,0.37685108,0.88414884,0
-0.67009819,-2.0115302,0.13611114,0.23968768,-0.86385334,0.44306576,0
3.0409732,-0.15342307,0.51899481,0.93074477,0.33427641,0.14823484,0
0.56972039,-1.7626854,-0.76450086,0.27615952,-0.37685108,-0.88414884,0
3.3974833,-0.30776107,0.021340609,0.93074477,0.33427641,0.14823484,0
-2.380012,0.96703362,-0.53310931,-0.23968768,0.86385334,-0.44306576,0
3.1214294,0.41203201,-0.4557271,0.93074477,0.33427641,0.14823484,0
-0.034148693,1.3550653,-0.47879696,-0.23968768,0.86385334,-0.44306576,0
0.3524617,0.20079505,-1.6337659,0.27615952,-0.37685108,-0.88414884,0
-1.6845577,-0.019581795,-2.3112001,0.27615952,-0.37685108,-0.88414884,0
2.4433799,1.5875496,1.027854,0.93074477,0.33427641,0.14823484,0
1.6167531,1.524201,-1.0812254,-0.23968768,0.86385334,-0.44306576,0
3.2979903,-0.76930702,0.073685646,0.93074477,0.33427641,0.14823484,0
1.2440178,1.6349986,-0.72843552,-0.23968768,0.86385334,-0.44306576,0
-1.5241455,0.16580009,-2.1658368,0.27615952,-0.37685108,-0.88414884,0
-2.7955637,-1.5224431,-0.42953324,-0.93074477,-0.33427641,-0.14823484,0
-2.9709828,-0.14891934,-1.932196,-0.93074477,-0.33427641,-0.14823484,0
-1.0874634,0.0020778179,-1.8924618,0.27615952,-0.37685108,-0.88414884,0
-2.5902679,1.3377097,0.40345502,-0.27615952,0.37685108,0.88414884,0
0.21350113,1.3682616,1.2933195,-0.27615952,0.37685108,0.88414884,0
-0.7305429,-1.7426201,0.06929636,0.23968768,-0.86385334,0.44306576,0
0.86587179,2.1668324,0.13136148,-0.23968768,0.86385334,-0.44306576,0
-2.5765374,-1.8196095,-1.2285209,-0.93074477,-0.33427641,-0.14823484,0
2.1824143,1.9556667,1.4398911,-0.27615952,0.37685108,0.88414884,0
-3.5931716,0.56242692,0.39786601,-0.93074477,-0.33427641,-0.14823484,0
1.9311489,1.9766215,-0.54473472,-0.23968768,0.86385334,-0.44306576,0
-2.6944783,-1.1498023,-0.25173497,-0.93074477,-0.33427641,-0.14823484,0
-3.076967,0.9613086,-0.092274427,-0.23968768,0.86385334,-0.44306576,0
2.6227779,0.64612436,1.1707864,0.93074477,0.33427641,0.14823484,0
3.4254334,-0.87458658,0.17966914,0.23968768,-0.86385334,0.44306576,0
1.7861319,2.1179314,-0.025642395,-0.23968768,0.86385334,-0.44306576,0
1.980999,-1.2849869,-0.33838022,0.27615952,-0.37685108,-0.88414884,0
2.77739,1.8091394,-1.5871587,0.93074477,0.33427641,0.14823484,0
-2.595139,-0.83797312,-0.90444231,-0.93074477,-0.33427641,-0.14823484,0
2.8962789,0.56231344,-0.53380656,0.93074477,0.33427641,0.14823484,0
-3.4072821,0.47133243,-0.71430206,-0.93074477,-0.33427641,-0.14823484,0
2.4777217,1.5991187,0.70850325,0.93074477,0.33427641,0.14823484,0
-1.3157793,0.18479443,1.3578181,-0.27615952,0.37685108,0.88414884,0
2.7259068,0.93836129,-0.13153744,0.93074477,0.33427641,0.14823484,0
3.0727015,-0.38724887,0.82633638,0.93074477,0.33427641,0.14823484,0
-1.6649256,-2.7957265,-0.7328341,0.23968768,-0.86385334,0.44306576,0
-3.1745801,0.77298445,-0.17055249,-0.23968768,0.86385334,-0.44306576,0
-1.7867099,-1.6964431,1.2802911,0.23968768,-0.86385334,0.44306576,0
1.6712538,0.28155708,2.3111463,-0.27615952,0.37685108,0.88414884,0
2.3290772,2.4387999,1.1073489,0.93074477,0.33427641,0.14823484,0
0.57720482,2.4222405,0.64142835,-0.23968768,0.86385334,-0.44306576,0
3.0212612,0.099602014,-0.23419881,0.93074477,0.33427641,0.14823484,0
-3.3364456,-0.2099092,0.057509661,-0.93074477,-0.33427641,-0.14823484,0
-2.9783216,-1.1557101,0.45946288,-0.93074477,-0.33427641,-0.14823484,0
-1.9011499,-1.0618345,-1.7511979,0.27615952,-0.37685108,-0.88414884,0
-2.3056555,-2.1059065,-0.20422173,-0.93074477,-0.33427641,-0.14823484,0
2.4636853,0.8485949,1.5508434,0.93074477,0.33427641,0.14823484,0
3.0310509,1.0309809,-0.4908123,0.93074477,0.33427641,0.14823484,0
2.6514142,0.8212589,1.791778,0.93074477,0.33427641,0.14823484,0
-2.7530088,0.80156952,-0.24696672,-0.23968768,0.86385334,-0.44306576,0
0.55346143,-0.68053442,1.6393329,0.23968768,-0.86385334,0.44306576,0
-2.0859218,-2.5767422,-1.2036586,-0.93074477,-0.33427641,-0.14823484,0
2.9395041,0.56459653,1.6942935,0.93074477,0.33427641,0.14823484,0
-0.8179788,-0.63694453,-1.7799137,0.27615952,-0.37685108,-0.88414884,0
-2.6188107,-1.6766115,1.0823622,-0.93074477,-0.33427641,-0.14823484,0
-2.8983855,0.7451306,-0.64758754,-0.23968768,0.86385334,-0.44306576,0
-0.50611967,0.47798157,1.5411351,-0.27615952,0.37685108,0.88414884,0
-0.71567923,-0.6019094,-1.4382738,0.27615952,-0.37685108,-0.88414884,0
2.3080816,0.35982156,2.3703411,-0.27615952,0.37685108,0.88414884,0
0.86409712,1.0164971,-1.8417075,-0.23968768,0.86385334,-0.44306576,0
3.1918783,-0.33700264,1.0143011,0.93074477,0.33427641,0.14823484,0
2.7220078,-0.22907674,1.5707601,0.23968768,-0.86385334,0.44306576,0
2.8484564,1.4512415,-0.45733547,0.93074477,0.33427641,0.14823484,0
1.4254664,0.84298736,-1.4957514,0.27615952,-0.37685108,-0.88414884,0
2.3213465,1.7333218,1.8994722,-0.27615952,0.37685108,0.88414884,0
3.1077528,0.54747528,-0.30181003,0.93074477,0.33427641,0.14823484,0
1.4491682,1.9267757,1.5050145,-0.27615952,0.37685108,0.88414884,0
-1.7410777,0.33234823,1.0128506,-0.27615952,0.37685108,0.88414884,0
2.282665,1.7398019,1.4364064,0.93074477,0.33427641,0.14823484,0
2.6671333,-0.3235907,-0.79133534,0.27615952,-0.37685108,-0.88414884,0
-1.5759256,-1.0758185,1.8731626,-0.27615952,0.37685108,0.88414884,0
3.2888823,0.62084174,-0.59709311,0.93074477,0.33427641,0.14823484,0
0.60993063,-1.1143415,0.94977194,0.23968768,-0.86385334,0.44306576,0
0.64150077,0.49340725,1.4942508,-0.27615952,0.37685108,0.88414884,0
-2.8882277,-0.93949962,-0.66828632,-0.93074477,-0.33427641,-0.14823484,0
-0.52522951,-0.90386856,-1.4973998,0.27615952,-0.37685108,-0.88414884,0
2.8092947,-0.39904562,-0.76936364,0.27615952,-0.37685108,-0.88414884,0
-2.1368518,1.0664595,0.65581858,-0.27615952,0.37685108,0.88414884,0
-2.2554584,-0.066248894,-1.9839052,-0.23968768,0.86385334,-0.44306576,0
-2.5929537,-1.3868487,-0.33230901,-0.93074477,-0.33427641,-0.14823484,0
-3.2468531,0.27917114,0.0099050999,-0.93074477,-0.33427641,-0.14823484,0
-2.5927665,-0.68147278,-1.9529932,-0.93074477,-0.33427641,-0.14823484,0
0.098814964,1.669642,-0.57690334,-0.23968768,0.86385334,-0.44306576,0
1.1353937,0.69747138,1.7721752,-0.27615952,0.37685108,0.88414884,0
0.5466854,1.9958926,0.80085731,-0.27615952,0.37685108,0.88414884,0
-2.4411724,-1.9329319,-0.7804749,-0.93074477,-0.33427641,-0.14823484,0
-1.691723,0.032534599,-2.3936396,0.27615952,-0.37685108,-0.88414884,0
2.3644736,1.2817135,1.217844,0.93074477,0.33427641,0.14823484,0
-0.29924735,-1.4946611,-0.94087738,0.27615952,-0.37685108,-0.88414884,0
-2.8921351,-0.022782683,-1.5365868,-0.93074477,-0.33427641,-0.14823484,0
-2.2301962,-1.5086819,-1.7721704,-0.93074477,-0.33427641,-0.14823484,0
2.171361,0.97134638,-1.499295,0.27615952,-0.37685108,-0.88414884,0
-0.81307429,-1.7093046,-1.1342591,0.27615952,-0.37685108,-0.88414884,0
2.6898265,-0.21661103,1.7726294,0.23968768,-0.86385334,0.44306576,0
-2.2928977,-2.3891261,-1.1214907,-0.93074477,-0.33427641,-0.14823484,0
3.1182895,0.5710572,-0.36666822,0.93074477,0.33427641,0.14823484,0
-1.200758,0.83281195,-0.73383605,-0.23968768,0.86385334,-0.44306576,0
-1.5032237,-1.5927582,1.5441976,0.23968768,-0.86385334,0.44306576,0
2.6278288,-0.92941415,0.022959113,0.23968768,-0.86385334,0.44306576,0
2.2477574,2.7940581,0.96481824,0.93074477,0.33427641,0.14823484,0
-1.3228564,1.5820585,0.41560122,-0.23968768,0.86385334,-0.44306576,0
0.89700294,1.4712561,-0.97518742,-0.23968768,0.86385334,-0.44306576,0
-1.595768,-1.2098305,-1.6793631,0.27615952,-0.37685108,-0.88414884,0
1.6657591,2.17923,0.36249018,-0.23968768,0.86385334,-0.44306576,0
1.6491618,0.92672443,1.6257712,-0.27615952,0.37685108,0.88414884,0
-3.0134645,-0.82348979,-0.76766562,-0.93074477,-0.33427641,-0.14823484,0
1.5598015,-1.0391595,-0.85785747,0.27615952,-0.37685108,-0.88414884,0
-2.2362647,-2.3005772,-1.2687855,-0.93074477,-0.33427641,-0.14823484,0
-2.4577637,-2.0578823,-0.18114901,-0.93074477,-0.33427641,-0.14823484,0
-2.0372572,-2.409169,-0.99987578,-0.93074477,-0.33427641,-0.14823484,0
-0.54882967,1.7388265,0.43486348,-0.23968768,0.86385334,-0.44306576,0
2.1100278,-0.039096594,2.4631248,-0.27615952,0.37685108,0.88414884,0
1.8708941,0.5111286,-1.226716,0.27615952,-0.37685108,-0.88414884,0
1.1772556,2.3054059,1.1096165,-0.27615952,0.37685108,0.88414884,0
2.1221399,2.3701634,1.0692444,0.93074477,0.33427641,0.14823484,0
-2.9293129,-0.17701823,-0.41374254,-0.93074477,-0.33427641,-0.14823484,0
1.6912248,1.413438,1.6043162,-0.27615952,0.37685108,0.88414884,0
2.1958518,1.3267596,-1.497376,0.27615952,-0.37685108,-0.88414884,0
2.759835,0.39986038,2.093225,0.93074477,0.33427641,0.14823484,0
-2.9002137,-1.1773105,0.28772259,-0.93074477,-0.33427641,-0.14823484,0
2.1374876,2.3092897,1.0477753,0.93074477,0.33427641,0.14823484,0
-2.8683619,-0.38679767,-1.8028181,-0.93074477,-0.33427641,-0.14823484,0
-1.7713689,1.475803,0.70213842,-0.27615952,0.37685108,0.88414884,0
-3.0147405,-0.30712712,-1.5176485,-0.93074477,-0.33427641,-0.14823484,0
-0.75170231,1.7860568,0.52143323,-0.23968768,0.86385334,-0.44306576,0
-0.70878828,1.1077144,1.1240884,-0.27615952,0.37685108,0.88414884,0
-2.9537899,-0.99980962,-0.48025417,-0.93074477,-0.33427641,-0.14823484,0
-2.6171243,-0.84923327,1.1980684,-0.27615952,0.37685108,0.88414884,0
-1.787348,-2.6679451,-1.2133782,0.27615952,-0.37685108,-0.88414884,0
-0.73542196,1.5726955,0.8741793,-0.27615952,0.37685108,0.88414884,0
-2.9878938,-1.0656074,1.3558836,-0.27615952,0.37685108,0.88414884,0
-2.4847236,-1.2574904,-1.4087186,-0.93074477,-0.33427641,-0.14823484,0
3.5340903,-0.86787522,-0.007860899,0.93074477,0.33427641,0.14823484,0
0.32088876,-0.166278,1.9731493,-0.27615952,0.37685108,0.88414884,0
-2.2260675,0.53408724,-0.95490789,-0.23968768,0.86385334,-0.44306576,0
0.89114356,1.5019827,-1.0056882,-0.23968768,0.86385334,-0.44306576,0
-0.55733955,0.5853672,-2.091258,-0.23968768,0.86385334,-0.44306576,0
3.091095,1.0007019,-1.3109572,0.27615952,-0.37685108,-0.88414884,0
1.5469639,2.5203764,0.86590481,-0.23968768,0.86385334,-0.44306576,0
1.1327505,-0.42100036,1.6974719,0.23968768,-0.86385334,0.44306576,0
1.7797632,-1.3327403,-0.60801977,0.27615952,-0.37685108,-0.88414884,0
-1.3755308,-1.5041467,-1.2930981,0.27615952,-0.37685108,-0.88414884,0
1.337628,0.70573652,1.7701955,-0.27615952,0.37685108,0.88414884,0
2.937135,0.28467095,0.040819645,0.93074477,0.33427641,0.14823484,0
-1.9790924,1.2777511,-0.01942718,-0.23968768,0.86385334,-0.44306576,0
0.5413785,1.9604505,0.19781482,-0.23968768,0.86385334,-0.44306576,0
3.3253579,-0.20712817,0.57363987,0.93074477,0.33427641,0.14823484,0
-2.1118019,-0.40627328,1.2260561,-0.27615952,0.37685108,0.88414884,0
-2.69104,-0.81359947,1.3633683,-0.27615952,0.37685108,0.88414884,0
-1.9980223,-2.4434977,-1.0863092,-0.93074477,-0.33427641,-0.14823484,0
-1.5023217,-0.80405796,-1.6104751,0.27615952,-0.37685108,-0.88414884,0
-0.79879308,1.141763,0.90609157,-0.27615952,0.37685108,0.88414884,0
-2.4091444,-1.3728527,-1.7345135,0.27615952,-0.37685108,-0.88414884,0
-2.3723013,-1.2357125,-1.3090827,-0.93074477,-0.33427641,-0.14823484,0
-2.3308611,0.3166815,-1.1358118,-0.23968768,0.86385334,-0.44306576,0
3.2329714,-0.32285416,0.85699344,0.93074477,0.33427641,0.14823484,0
-3.0374846,0.15096068,-0.39022827,-0.93074477,-0.33427641,-0.14823484,0
-0.4636789,-0.26380455,1.473955,-0.27615952,0.37685108,0.88414884,0
-1.1315073,-1.7107941,-1.5063684,0.27615952,-0.37685108,-0.88414884,0
-0.92040014,-0.85273153,1.9120924,-0.27615952,0.37685108,0.88414884,0
-1.1041229,1.5244707,0.12804341,-0.23968768,0.86385334,-0.44306576,0
-1.7050458,0.21006727,-1.9869611,-0.23968768,0.86385334,-0.44306576,0
-2.0626175,-0.69181681,-2.0220718,0.27615952,-0.37685108,-0.88414884,0
-3.0824845,-0.49983627,-0.36189771,-0.93074477,-0.33427641,-0.14823484,0
-0.186674,-1.6336538,0.1250695,0.23968768,-0.86385334,0.44306576,0
1.5268443,0.49489284,-1.3309783,0.27615952,-0.37685108,-0.88414884,0
-1.9466509,-1.559744,-1.7929641,0.27615952,-0.37685108,-0.88414884,0
-2.3469596,-2.1932211,-1.1429937,-0.93074477,-0.33427641,-0.14823484,0
2.6375976,-0.34468138,1.5650053,0.23968768,-0.86385334,0.44306576,0
-2.1093166,1.1298947,-0.35356247,-0.23968768,0.86385334,-0.44306576,0
0.84564602,-0.6753875,1.9071935,0.23968768,-0.86385334,0.44306576,0
-2.9895577,-1.2254949,0.33907771,-0.93074477,-0.33427641,-0.14823484,0
-1.7110747,1.2690649,0.16370404,-0.23968768,0.86385334,-0.44306576,0
1.3119248,0.40267771,-1.6584866,0.27615952,-0.37685108,-0.88414884,0
-2.6558077,-2.2725048,0.55679321,0.23968768,-0.86385334,0.44306576,0
-1.7354841,-0.79092765,-2.0567198,0.27615952,-0.37685108,-0.88414884,0
-3.1389494,0.62452197,-0.044319153,-0.23968768,0.86385334,-0.44306576,0
-2.5863926,-2.1334119,0.41062284,-0.93074477,-0.33427641,-0.14823484,0
-3.6326554,0.62051034,-0.058996439,-0.93074477,-0.33427641,-0.14823484,0
2.8157041,1.2533618,0.2957716,0.93074477,0.33427641,0.14823484,0
-2.6834507,-1.9034933,0.15535617,-0.93074477,-0.33427641,-0.14823484,0
0.0025467873,-1.9578369,-0.029384613,0.23968768,-0.86385334,0.44306576,0
2.988342,-0.81799978,-0.12202859,0.23968768,-0.86385334,0.44306576,0
-1.281898,-0.70875609,1.5281161,-0.27615952,0.37685108,0.88414884,0
-0.11438739,0.078235984,-1.9546263,0.27615952,-0.37685108,-0.88414884,0
-0.31111991,2.0689778,0.48554677,-0.23968768,0.86385334,-0.44306576,0
-0.81138158,-1.377491,-1.3281491,0.27615952,-0.37685108,-0.88414884,0
2.5278323,1.75632,-1.1292307,-0.23968768,0.86385334,-0.44306576,0
-3.1238136,-0.10219777,-1.0730791,-0.93074477,-0.33427641,-0.14823484,0
-2.8541594,0.3927176,-0.71661973,-0.23968768,0.86385334,-0.44306576,0
-3.3095427,-0.11965957,0.56594896,-0.93074477,-0.33427641,-0.14823484,0
1.8550797,-0.74206108,0.53131151,0.23968768,-0.86385334,0.44306576,0
-2.9786782,-0.33104053,0.79761243,-0.27615952,0.37685108,0.88414884,0
2.9000032,0.73575962,0.70344138,0.93074477,0.33427641,0.14823484,0
2.1828747,2.1593885,1.0580885,0.93074477,0.33427641,0.14823484,0
2.305445,2.2332528,-0.016336679,-0.23968768,0.86385334,-0.44306576,0
2.6894202,0.46771812,1.8103338,0.93074477,0.33427641,0.14823484,0
1.3988096,0.22390556,2.2336748,-0.27615952,0.37685108,0.88414884,0
1.9775,-0.45495069,1.141027,0.23968768,-0.86385334,0.44306576,0
2.4010251,0.26993397,-1.1917703,0.27615952,-0.37685108,-0.88414884,0
-1.6054475,0.34725356,-2.0720081,-0.23968768,0.86385334,-0.44306576,0
2.8964107,-0.73666286,0.37177396,0.23968768,-0.86385334,0.44306576,0
-2.9797137,0.52817279,0.57813144,-0.27615952,0.37685108,0.88414884,0
-2.7486463,-0.3026036,-1.0599978,-0.93074477,-0.33427641,-0.14823484,0
-0.75588083,1.9554962,0.63231087,-0.27615952,0.37685108,0.88414884,0
-0.8022126,-1.4589005,-1.1098483,0.27615952,-0.37685108,-0.88414884,0
-1.7575567,-0.50402278,1.2084323,-0.27615952,0.37685108,0.88414884,0
-1.7978287,0.57938433,-1.2943144,-0.23968768,0.86385334,-0.44306576,0
-0.35299861,-1.5135096,0.82888341,0.23968768,-0.86385334,0.44306576,0
2.3202188,-0.30449378,1.3078035,0.23968768,-0.86385334,0.44306576,0
1.037569,0.53524256,-1.6678531,0.27615952,-0.37685108,-0.88414884,0
-1.9719279,-2.5373006,-1.2403352,-0.93074477,-0.33427641,-0.14823484,0
-0.65773594,1.9436411,0.65917492,-0.27615952,0.37685108,0.88414884,0
-1.4590455,-1.4514865,1.2272997,0.23968768,-0.86385334,0.44306576,0
-3.4158969,-0.0042271614,0.57135916,-0.93074477,-0.33427641,-0.14823484,0
-2.5206282,-0.24723619,0.85827923,-0.27615952,0.37685108,0.88414884,0
1.925992,1.5639338,1.5727429,-0.27615952,0.37685108,0.88414884,0
-0.11760294,-0.91546595,1.744138,0.23968768,-0.86385334,0.44306576,0
2.2844524,2.56495,0.57049322,0.93074477,0.33427641,0.14823484,0
-0.49804616,-1.2686728,1.5766584,0.23968768,-0.86385334,0.44306576,0
-1.493205,1.0403841,-0.47875223,-0.23968768,0.86385334,-0.44306576,0
1.0830243,1.8560119,1.0522474,-0.27615952,0.37685108,0.88414884,0
-0.78635263,1.2775974,1.0226688,-0.27615952,0.37685108,0.88414884,0
-1.9977438,0.65484512,-0.87476331,-0.23968768,0.86385334,-0.44306576,0
2.4877784,1.6138035,-1.4677982,-0.23968768,0.86385334,-0.44306576,0
3.2786913,0.053399622,-0.21741104,0.93074477,0.33427641,0.14823484,0
-0.38671827,0.66689348,-1.8863144,-0.23968768,0.86385334,-0.44306576,0
-3.0952492,-0.52420986,0.20967221,-0.93074477,-0.33427641,-0.14823484,0
2.0449054,1.9076401,-1.0655308,-0.23968768,0.86385334,-0.44306576,0
1.475163,-1.1840351,-0.73649824,0.27615952,-0.37685108,-0.88414884,0
2.3517716,0.9114219,-1.2293811,0.27615952,-0.37685108,-0.88414884,0
-0.21431291,0.63719511,-2.0138984,0.27615952,-0.37685108,-0.88414884,0
3.3867912,0.13563697,-0.84762478,0.27615952,-0.37685108,-0.88414884,0
2.8071952,1.0912247,0.51875424,0.93074477,0.33427641,0.14823484,0
1.6130111,0.946051,-1.5888789,0.27615952,-0.37685108,-0.88414884,0
3.0271873,-0.32473183,0.97578454,0.23968768,-0.86385334,0.44306576,0
-1.0895624,-2.3942981,-0.86904764,0.23968768,-0.86385334,0.44306576,0
-1.8269117,-2.6203873,-1.194417,0.27615952,-0.37685108,-0.88414884,0
-0.56000173,-1.6860704,0.5812279,0.23968768,-0.86385334,0.44306576,0
0.16587913,0.51434505,-1.649647,0.27615952,-0.37685108,-0.88414884,0
2.3959095,1.8139837,-0.24355459,0.93074477,0.33427641,0.14823484,0
3.0858898,1.0457785,-0.83082914,0.93074477,0.33427641,0.14823484,0
2.4922376,-0.001419574,-0.9751215,0.27615952,-0.37685108,-0.88414884,0
2.2704523,1.1817163,1.7966394,-0.27615952,0.37685108,0.88414884,0
-1.8542836,-0.92165709,-1.8303252,0.27615952,-0.37685108,-0.88414884,0
2.0556276,2.5263939,-0.0019004345,-0.23968768,0.86385334,-0.44306576,0
2.2979524,1.9355631,1.437994,0.93074477,0.33427641,0.14823484,0
-2.810987,-1.6543477,1.6796045,0.23968768,-0.86385334,0.44306576,0
-1.6905475,-2.4068391,-0.79002643,0.23968768,-0.86385334,0.44306576,0
-0.80962521,1.7345452,0.77491367,-0.27615952,0.37685108,0.88414884,0
-1.9837003,0.66916692,0.68933856,-0.27615952,0.37685108,0.88414884,0
-1.2651011,-0.78653765,-1.7985709,0.27615952,-0.37685108,-0.88414884,0
-0.84511906,-1.8219993,-1.2882137,0.27615952,-0.37685108,-0.88414884,0
-1.2843158,-0.75218832,-1.8378863,0.27615952,-0.37685108,-0.88414884,0
-0.27514505,-1.9946679,-0.34444726,0.23968768,-0.86385334,0.44306576,0
-0.38433421,-0.033916593,-1.6919603,0.27615952,-0.37685108,-0.88414884,0
1.7276357,0.43197632,2.1885314,-0.27615952,0.37685108,0.88414884,0
2.6714394,1.5530427,-0.29962015,0.93074477,0.33427641,0.14823484,0
-1.8571856,-2.0146646,0.51985312,0.23968768,-0.86385334,0.44306576,0
2.8749838,1.2695662,0.19714427,0.93074477,0.33427641,0.14823484,0
-2.6056836,-1.1244808,-0.42245746,-0.93074477,-0.33427641,-0.14823484,0
-2.1963115,-2.3234072,-1.4822044,0.27615952,-0.37685108,-0.88414884,0
-2.4630406,-1.9053901,-1.3299611,-0.93074477,-0.33427641,-0.14823484,0
0.80366778,-1.0958514,0.52185076,0.23968768,-0.86385334,0.44306576,0
-2.7387314,-1.0791283,-1.8684895,-0.93074477,-0.33427641,-0.14823484,0
0.47708857,-0.17926121,-1.6319528,0.27615952,-0.37685108,-0.88414884,0
3.3005104,-0.14228457,-0.04513669,0.93074477,0.33427641,0.14823484,0
2.1797881,0.0069978237,2.1707835,0.23968768,-0.86385334,0.44306576,0
1.9083722,-1.2486727,-0.77088767,0.27615952,-0.37685108,-0.88414884,0
2.5945599,1.0852288,0.73664737,0.93074477,0.33427641,0.14823484,0
1.8524731,1.7813153,-0.46419287,-0.23968768,0.86385334,-0.44306576,0
2.7642183,0.38912237,-1.2215202,0.27615952,-0.37685108,-0.88414884,0
-0.86138874,0.93654841,1.1786647,-0.27615952,0.37685108,0.88414884,0
2.7141013,1.5737594,-1.4012361,0.27615952,-0.37685108,-0.88414884,0
-3.3140304,-0.03388536,-0.56418896,-0.93074477,-0.33427641,-0.14823484,0
1.361154,0.53172177,-1.6041723,0.27615952,-0.37685108,-0.88414884,0
-2.7071903,-1.4555258,-0.13754392,-0.93074477,-0.33427641,-0.14823484,0
2.1866028,1.947634,1.3458147,0.93074477,0.33427641,0.14823484,0
-3.2526026,-0.26627034,0.40289807,-0.93074477,-0.33427641,-0.14823484,0
-1.7624885,-0.35241628,-2.1694562,0.27615952,-0.37685108,-0.88414884,0
-3.0182128,-0.28777561,0.38201451,-0.93074477,-0.33427641,-0.14823484,0
3.0191913,0.2910347,1.8105326,0.93074477,0.33427641,0.14823484,0
0.38953346,0.8122474,1.3649794,-0.27615952,0.37685108,0.88414884,0
2.9463913,1.2177398,-1.268564,0.93074477,0.33427641,0.14823484,0
-1.7634361,1.2110693,0.76657897,-0.27615952,0.37685108,0.88414884,0
-0.014780223,0.86351705,1.2448587,-0.27615952,0.37685108,0.88414884,0
-1.1026256,-0.94518757,-1.8604479,0.27615952,-0.37685108,-0.88414884,0
-0.57165182,-1.9311123,-0.46134734,0.23968768,-0.86385334,0.44306576,0
1.4818714,1.6981264,1.2408507,-0.27615952,0.37685108,0.88414884,0
-2.6675029,-0.95222384,-0.57917237,-0.93074477,-0.33427641,-0.14823484,0
-2.90237,-1.4657555,0.089051008,-0.93074477,-0.33427641,-0.14823484,0
0.75018775,1.5310137,-0.97700775,-0.23968768,0.86385334,-0.44306576,0
-0.17178869,-1.1159164,1.0730555,0.23968768,-0.86385334,0.44306576,0
2.4641085,-0.46662748,1.0618347,0.23968768,-0.86385334,0.44306576,0
-1.395354,-0.79545105,1.4029701,-0.27615952,0.37685108,0.88414884,0
-2.7539394,-0.9211874,-1.232965,-0.93074477,-0.33427641,-0.14823484,0
2.2377644,1.6517634,1.517154,0.93074477,0.33427641,0.14823484,0
-0.19215178,1.2096052,-1.3004726,-0.23968768,0.86385334,-0.44306576,0
-1.6650205,-0.58084881,1.2830967,-0.27615952,0.37685108,0.88414884,0
3.1127481,-0.35990295,-0.36774802,0.27615952,-0.37685108,-0.88414884,0
0.66365969,0.062365055,-1.6612128,0.27615952,-0.37685108,-0.88414884,0
-1.9315169,-0.099024057,-2.3698442,0.27615952,-0.37685108,-0.88414884,0
-2.2084398,-1.7897748,1.2510698,0.23968768,-0.86385334,0.44306576,0
2.2163274,-0.86574394,-0.44167173,0.27615952,-0.37685108,-0.88414884,0
1.3189378,1.2880448,-1.173449,-0.23968768,0.86385334,-0.44306576,0
-2.6127424,-1.8457381,-0.08330512,-0.93074477,-0.33427641,-0.14823484,0
-2.7346284,-2.2028551,0.67564321,-0.93074477,-0.33427641,-0.14823484,0
-1.7483938,0.73584086,-1.1610452,-0.23968768,0.86385334,-0.44306576,0
0.27036631,0.7479443,-1.6294239,-0.23968768,0.86385334,-0.44306576,0
-0.55708146,-1.4704592,0.97599745,0.23968768,-0.86385334,0.44306576,0
-1.1509802,-0.25358826,1.3232918,-0.27615952,0.37685108,0.88414884,0
1.6415554,0.85645247,-1.3522137,0.27615952,-0.37685108,-0.88414884,0
-3.1873732,0.043108299,0.70290947,-0.93074477,-0.33427641,-0.14823484,0
2.0374146,0.15720433,-1.1560605,0.27615952,-0.37685108,-0.88414884,0
3.1032534,0.24074352,1.1048675,0.93074477,0.33427641,0.14823484,0
-2.427906,0.32802445,0.921134,-0.27615952,0.37685108,0.88414884,0
2.149569,-0.79239446,-0.68134594,0.27615952,-0.37685108,-0.88414884,0
0.079152584,0.3884927,-1.7855523,0.27615952,-0.37685108,-0.88414884,0
2.967272,0.78811741,0.95198298,0.93074477,0.33427641,0.14823484,0
2.1990712,2.4253259,1.1430185,0.93074477,0.33427641,0.14823484,0
-3.368953,0.38919371,-0.25380516,-0.93074477,-0.33427641,-0.14823484,0
2.5952632,1.1680142,0.19505095,0.93074477,0.33427641,0.14823484,0
-2.7657008,-0.58939195,-2.1272304,-0.93074477,-0.33427641,-0.14823484,0
0.077850521,1.1662856,1.3068615,-0.27615952,0.37685108,0.88414884,0
-0.14374727,-2.1601062,-0.67267156,0.27615952,-0.37685108,-0.88414884,0
1.5677662,-0.94505048,-0.69574201,0.27615952,-0.37685108,-0.88414884,0
-1.7425104,-1.7211076,-1.3037939,0.27615952,-0.37685108,-0.88414884,0
-1.8658774,-2.1734347,-0.21146512,0.23968768,-0.86385334,0.44306576,0
2.9848948,1.1461751,0.014931202,0.93074477,0.33427641,0.14823484,0
2.9172931,-0.80970091,0.17439842,0.23968768,-0.86385334,0.44306576,0
-1.4293225,0.53423357,-1.9571968,-0.23968768,0.86385334,-0.44306576,0
-2.1875501,-2.2320044,-0.52743888,-0.93074477,-0.33427641,-0.14823484,0
3.0214128,-0.20962584,0.88080931,0.93074477,0.33427641,0.14823484,0
1.3966765,-0.54577875,1.733783,0.23968768,-0.86385334,0.44306576,0
-0.66599524,-1.3611987,1.3983504,0.23968768,-0.86385334,0.44306576,0
-0.61012912,-2.406204,-1.0023265,0.23968768,-0.86385334,0.44306576,0
-2.5508175,-0.25092277,1.223532,-0.27615952,0.37685108,0.88414884,0
-1.6225837,-0.66421604,-1.9537089,0.27615952,-0.37685108,-0.88414884,0
-2.9159739,-1.4513272,0.49887037,-0.93074477,-0.33427641,-0.14823484,0
-0.32295164,-1.9422965,-0.62284672,0.23968768,-0.86385334,0.44306576,0
-2.4604917,-0.84224486,1.1545255,-0.27615952,0.37685108,0.88414884,0
-0.03679806,-1.8312489,-0.47383177,0.23968768,-0.86385334,0.44306576,0
2.737886,0.9856689,1.5012274,0.93074477,0.33427641,0.14823484,0
-1.8176492,-2.5795264,-0.7211113,0.23968768,-0.86385334,0.44306576,0
0.41362929,-1.5853112,0.42451358,0.23968768,-0.86385334,0.44306576,0
1.5192778,0.91887403,-1.6446947,0.27615952,-0.37685108,-0.88414884,0
2.6414382,0.58290362,1.1677692,0.93074477,0.33427641,0.14823484,0
-2.7275305,-2.0867975,0.29379606,-0.93074477,-0.33427641,-0.14823484,0
2.2080691,1.7155254,1.7976079,-0.27615952,0.37685108,0.88414884,0
0.41232145,0.63824254,-1.6348975,0.27615952,-0.37685108,-0.88414884,0
-1.8706393,-2.1822824,-1.348141,0.27615952,-0.37685108,-0.88414884,0
3.1297328,1.190297,-0.76723266,0.93074477,0.33427641,0.14823484,0
-3.0955918,-0.7520237,0.64612246,-0.93074477,-0.33427641,-0.14823484,0
-2.4084156,-1.2982755,-1.929113,0.27615952,-0.37685108,-0.88414884,0
2.5807562,0.63902855,1.7738924,0.93074477,0.33427641,0.14823484,0
-0.26458216,-0.80861986,1.940428,0.23968768,-0.86385334,0.44306576,0
-2.6390569,-1.9359119,-0.59126258,-0.93074477,-0.33427641,-0.14823484,0
2.2872219,2.0271626,0.016259193,0.93074477,0.33427641,0.14823484,0
-0.1214146,0.94632941,1.3201057,-0.27615952,0.37685108,0.88414884,0
-1.1728522,1.7245286,0.24708395,-0.23968768,0.86385334,-0.44306576,0
2.6295938,1.7052336,-0.91930676,0.93074477,0.33427641,0.14823484,0
0.32100952,-0.60121119,-1.3697991,0.27615952,-0.37685108,-0.88414884,0
-1.9940451,-1.2397155,-1.8726387,0.27615952,-0.37685108,-0.88414884,0
-0.33787823,-1.2857499,1.3565466,0.23968768,-0.86385334,0.44306576,0
2.9865704,0.65754098,-0.52082276,0.93074477,0.33427641,0.14823484,0
-1.9168832,0.76385462,-0.71075058,-0.23968768,0.86385334,-0.44306576,0
-1.9472768,-0.19758427,1.1198612,-0.27615952,0.37685108,0.88414884,0
-1.7043312,0.76932657,0.91609752,-0.27615952,0.37685108,0.88414884,0
-2.1822264,1.1381251,0.71944177,-0.27615952,0.37685108,0.88414884,0
0.15158343,-1.3695232,1.0675304,0.23968768,-0.86385334,0.44306576,0
-1.1532811,0.85959256,-1.1244217,-0.23968768,0.86385334,-0.44306576,0
2.4898791,0.27515566,-1.0828454,0.27615952,-0.37685108,-0.88414884,0
-1.064533,-0.46591842,-2.0389199,0.27615952,-0.37685108,-0.88414884,0
2.428153,2.3561528,-0.14381409,0.93074477,0.33427641,0.14823484,0
3.0073285,-0.57461393,0.98982251,0.23968768,-0.86385334,0.44306576,0
-2.6730521,-0.35870564,-1.7369492,-0.93074477,-0.33427641,-0.14823484,0
-0.97830337,0.8281492,1.2621142,-0.27615952,0.37685108,0.88414884,0
1.346969,0.10613191,2.0130427,-0.27615952,0.37685108,0.88414884,0
1.6343578,-1.3093885,-0.77729607,0.27615952,-0.37685108,-0.88414884,0
0.1946758,1.6497462,-0.65553904,-0.23968768,0.86385334,-0.44306576,0
-1.9299827,-1.1586863,-1.9732333,0.27615952,-0.37685108,-0.88414884,0
-1.762044,-1.2482908,-1.5467424,0.27615952,-0.37685108,-0.88414884,0
-0.90403479,-1.1669062,1.2786571,0.23968768,-0.86385334,0.44306576,0
-2.7590954,0.45277911,-0.7899071,-0.23968768,0.86385334,-0.44306576,0
-0.039909244,-1.5730709,-0.075643182,0.23968768,-0.86385334,0.44306576,0
0.70331675,-1.5435364,0.23025715,0.23968768,-0.86385334,0.44306576,0
2.9838867,-0.098155238,-0.67193937,0.27615952,-0.37685108,-0.88414884,0
-1.4757727,0.87684393,-0.74067819,-0.23968768,0.86385334,-0.44306576,0
-1.0085588,-2.3813479,-0.55728555,0.23968768,-0.86385334,0.44306576,0
-2.7930696,-1.1357458,-0.81065989,-0.93074477,-0.33427641,-0.14823484,0
2.000052,1.5489892,1.4984827,-0.27615952,0.37685108,0.88414884,0
1.1554786,1.6505461,-0.76195538,-0.23968768,0.86385334,-0.44306576,0
-2.8886063,-0.99604785,-1.1957285,-0.93074477,-0.33427641,-0.14823484,0
3.1757498,-0.20538253,-0.35018063,0.93074477,0.33427641,0.14823484,0
-3.0575705,-0.57043576,-0.94674182,-0.93074477,-0.33427641,-0.14823484,0
1.7264094,-1.4241621,-0.35993713,0.23968768,-0.86385334,0.44306576,0
-1.4942278,-1.8871789,0.23497152,0.23968768,-0.86385334,0.44306576,0
-1.1556745,-1.7626761,0.45899415,0.23968768,-0.86385334,0.44306576,0
-0.43172336,0.44356692,-2.1412766,0.27615952,-0.37685108,-0.88414884,0
0.64306146,0.7514931,1.4211984,-0.27615952,0.37685108,0.88414884,0
2.3988502,-0.40750694,0.87438107,0.23968768,-0.86385334,0.44306576,0
-0.46642372,-2.2460294,-1.0350657,0.27615952,-0.37685108,-0.88414884,0
0.49580061,1.8070953,1.1122053,-0.27615952,0.37685108,0.88414884,0
2.8991823,0.28000903,2.2607989,0.93074477,0.33427641,0.14823484,0
-0.62028003,-1.5794805,-1.2057416,0.27615952,-0.37685108,-0.88414884,0
1.2082374,-1.4005839,-0.016109809,0.23968768,-0.86385334,0.44306576,0
1.2519326,-1.0657908,-1.0246989,0.27615952,-0.37685108,-0.88414884,0
-1.8992355,1.1197565,-0.26756901,-0.23968768,0.86385334,-0.44306576,0
0.82604688,1.2999405,1.293895,-0.27615952,0.37685108,0.88414884,0
-0.26875117,1.5848259,0.94076663,-0.27615952,0.37685108,0.88414884,0
1.9817924,-0.22017789,1.7796783,0.23968768,-0.86385334,0.44306576,0
3.4237299,-0.44967985,0.21503425,0.93074477,0.33427641,0.14823484,0
-2.4534948,-1.2830226,-1.3823702,-0.93074477,-0.33427641,-0.14823484,0
-1.1801978,-0.088603139,-2.0478392,0.27615952,-0.37685108,-0.88414884,0
3.2908158,-0.36742482,-0.10490441,0.93074477,0.33427641,0.14823484,0
-0.22135389,0.63370383,-2.0731645,0.27615952,-0.37685108,-0.88414884,0
-3.0973997,0.017757058,0.074988365,-0.93074477,-0.33427641,-0.14823484,0
-1.4742004,1.3481929,0.71250725,-0.27615952,0.37685108,0.88414884,0
-1.2451246,0.93587369,-1.072445,-0.23968768,0.86385334,-0.44306576,0
2.5699368,1.8924026,-1.1340001,-0.23968768,0.86385334,-0.44306576,0
2.5484874,-0.78331554,0.62653983,0.23968768,-0.86385334,0.44306576,0
-1.9116659,0.87991458,0.52060378,-0.27615952,0.37685108,0.88414884,0
2.6044292,1.5139529,-0.57817149,0.93074477,0.33427641,0.14823484,0
1.6372399,-1.334734,-0.25715888,0.23968768,-0.86385334,0.44306576,0
-2.0269096,-2.0324466,-1.6326711,0.27615952,-0.37685108,-0.88414884,0
-0.40338099,-0.19379389,-1.5480543,0.27615952,-0.37685108,-0.88414884,0
1.067246,-0.91750592,0.61928767,0.23968768,-0.86385334,0.44306576,0
2.614923,1.8264755,0.53646922,0.93074477,0.33427641,0.14823484,0
-3.0166514,-0.12866747,-1.6009231,-0.93074477,-0.33427641,-0.14823484,0
-2.4635754,-2.0027051,-0.32006454,-0.93074477,-0.33427641,-0.14823484,0
-1.7784022,-1.2176495,1.7680779,-0.27615952,0.37685108,0.88414884,0
1.946822,1.2239056,-1.6657727,-0.23968768,0.86385334,-0.44306576,0
1.5158274,1.9238629,-0.89375734,-0.23968768,0.86385334,-0.44306576,0
-1.4818296,1.2251058,0.86237764,-0.27615952,0.37685108,0.88414884,0
-1.3687246,-0.64159954,-1.7367262,0.27615952,-0.37685108,-0.88414884,0
2.0962534,-0.78590745,1.1175418,0.23968768,-0.86385334,0.44306576,0
-2.7178125,-0.15736912,0.84307289,-0.27615952,0.37685108,0.88414884,0
3.2231748,0.26383638,0.43229127,0.93074477,0.33427641,0.14823484,0
-2.1962938,-2.1334882,-0.57778931,-0.93074477,-0.33427641,-0.14823484,0
0.20336491,1.5465348,-0.16626012,-0.23968768,0.86385334,-0.44306576,0
-0.4517827,-1.5758344,0.27681947,0.23968768,-0.86385334,0.44306576,0
-3.1114621,1.1659642,0.37639225,-0.27615952,0.37685108,0.88414884,0
-3.0230663,-0.44819969,0.90451932,-0.27615952,0.37685108,0.88414884,0
-0.94748247,1.5781347,0.47236288,-0.23968768,0.86385334,-0.44306576,0
-0.35773546,-2.0365171,-0.79891551,0.27615952,-0.37685108,-0.88414884,0
3.0461876,0.021592855,0.34013224,0.93074477,0.33427641,0.14823484,0
-1.011945,-2.4221697,-0.73583388,0.23968768,-0.86385334,0.44306576,0
2.4537456,-1.0304782,0.30673802,0.23968768,-0.86385334,0.44306576,0
0.19085503,1.2486601,-1.4744413,-0.23968768,0.86385334,-0.44306576,0
3.3609781,-0.15242708,0.41762185,0.93074477,0.33427641,0.14823484,0
2.5906622,1.4706415,1.9613318,0.93074477,0.33427641,0.14823484,0
1.590708,1.6301789,1.7049012,-0.27615952,0.37685108,0.88414884,0
-2.4725413,-1.629265,-0.032623291,-0.93074477,-0.33427641,-0.14823484,0
0.65805715,2.2633605,0.73625183,-0.27615952,0.37685108,0.88414884,0
2.5955677,1.5716968,-1.4239156,0.27615952,-0.37685108,-0.88414884,0
-2.3838267,0.55355048,-1.2231941,-0.23968768,0.86385334,-0.44306576,0
2.3069785,2.0039945,-0.79685855,-0.23968768,0.86385334,-0.44306576,0
-2.1027446,1.2553109,0.49244249,-0.27615952,0.37685108,0.88414884,0
0.57021189,1.5729074,-0.52664506,-0.23968768,0.86385334,-0.44306576,0
0.36388218,-1.1796253,1.2410828,0.23968768,-0.86385334,0.44306576,0
-0.93670261,-0.005720377,-2.063715,0.27615952,-0.37685108,-0.88414884,0
0.99142897,-0.82355285,-1.2444977,0.27615952,-0.37685108,-0.88414884,0
-2.703764,-1.7093318,-0.33997512,-0.93074477,-0.33427641,-0.14823484,0
1.7518604,-0.82292444,0.39428848,0.23968768,-0.86385334,0.44306576,0
-1.469269,-1.7464843,1.1415324,0.23968768,-0.86385334,0.44306576,0
-0.28095061,-1.6155721,-0.99738926,0.27615952,-0.37685108,-0.88414884,0
-0.22173154,-0.19499671,-1.4870868,0.27615952,-0.37685108,-0.88414884,0
2.9225864,0.97046232,0.19071722,0.93074477,0.33427641,0.14823484,0
2.6947181,1.092786,0.79076529,0.93074477,0.33427641,0.14823484,0
0.39136875,2.3956425,0.8567735,-0.23968768,0.86385334,-0.44306576,0
-0.69866276,0.65694702,-1.765709,-0.23968768,0.86385334,-0.44306576,0
-0.15796661,-2.2807403,-0.53465867,0.23968768,-0.86385334,0.44306576,0
2.4476306,-0.84838778,0.82397294,0.23968768,-0.86385334,0.44306576,0
0.49541318,-0.94881374,-0.93647712,0.27615952,-0.37685108,-0.88414884,0
-2.6420126,-1.3747038,-1.6904445,-0.93074477,-0.33427641,-0.14823484,0
-3.3815179,-0.29573089,0.97321677,-0.27615952,0.37685108,0.88414884,0
2.3898497,2.1909208,-0.68708348,-0.23968768,0.86385334,-0.44306576,0
-2.0877852,-2.849546,-0.94113064,-0.93074477,-0.33427641,-0.14823484,0
1.1561416,1.9338715,1.0512375,-0.27615952,0.37685108,0.88414884,0
-0.63402009,0.36925256,1.2018312,-0.27615952,0.37685108,0.88414884,0
-2.9324493,-1.3340065,0.6576643,-0.93074477,-0.33427641,-0.14823484,0
2.0904424,2.1951668,-0.30463004,-0.23968768,0.86385334,-0.44306576,0
0.35688746,1.6191965,-0.84954453,-0.23968768,0.86385334,-0.44306576,0
0.48691827,-1.7512589,0.00020337105,0.23968768,-0.86385334,0.44306576,0
1.4462823,2.3390341,1.2219846,-0.27615952,0.37685108,0.88414884,0
3.0467606,1.5773859,-1.1387413,0.93074477,0.33427641,0.14823484,0
0.95229131,-1.6593158,-0.7375744,0.27615952,-0.37685108,-0.88414884,0
-0.27150786,-1.4847736,0.26954043,0.23968768,-0.86385334,0.44306576,0
1.8782097,1.3925745,-1.3085606,-0.23968768,0.86385334,-0.44306576,0
-1.4832944,-2.3690619,-1.1905217,0.27615952,-0.37685108,-0.88414884,0
-0.6858567,0.1299963,-1.8714035,0.27615952,-0.37685108,-0.88414884,0
0.93562794,2.2873921,0.61406755,-0.23968768,0.86385334,-0.44306576,0
2.5880547,0.25816512,2.2977953,0.23968768,-0.86385334,0.44306576,0
-0.49094963,1.1265928,-1.0492077,-0.23968768,0.86385334,-0.44306576,0
-2.4988284,-1.9995682,-0.6055944,-0.93074477,-0.33427641,-0.14823484,0
-3.2063751,-0.42683029,0.55789709,-0.93074477,-0.33427641,-0.14823484,0
-0.65812701,1.2018076,-0.53718996,-0.23968768,0.86385334,-0.44306576,0
-2.6856949,-1.754859,0.21524477,-0.93074477,-0.33427641,-0.14823484,0
3.0763104,-0.42097545,0.73910952,0.23968768,-0.86385334,0.44306576,0
1.3009588,0.4341135,2.0840433,-0.27615952,0.37685108,0.88414884,0
1.9420519,0.14283744,-1.0775269,0.27615952,-0.37685108,-0.88414884,0
2.6580698,1.7367935,-0.33413601,0.93074477,0.33427641,0.14823484,0
1.6326783,-1.3779444,-0.47359559,0.23968768,-0.86385334,0.44306576,0
-3.3051987,0.1871016,-0.020258427,-0.93074477,-0.33427641,-0.14823484,0
1.3363311,-1.3784078,-0.098323196,0.23968768,-0.86385334,0.44306576,0
-3.2723725,0.55201954,-0.53311944,-0.93074477,-0.33427641,-0.14823484,0
0.18196547,-0.61514246,2.0067635,0.23968768,-0.86385334,0.44306576,0
2.7204652,1.3538258,-0.35636711,0.93074477,0.33427641,0.14823484,0
-1.7555285,0.43733251,-1.5493002,-0.23968768,0.86385334,-0.44306576,0
0.41124779,-0.12632132,-1.3840266,0.27615952,-0.37685108,-0.88414884,0
-2.0349882,1.2857667,0.14253396,-0.23968768,0.86385334,-0.44306576,0
-2.750447,-0.51764071,-0.89036679,-0.93074477,-0.33427641,-0.14823484,0
0.210814,-1.1937262,1.2241561,0.23968768,-0.86385334,0.44306576,0
0.9907096,0.83698976,1.4786241,-0.27615952,0.37685108,0.88414884,0
-1.8620331,0.55260468,-1.7506455,-0.23968768,0.86385334,-0.44306576,0
2.5742168,1.308594,0.40613818,0.93074477,0.33427641,0.14823484,0
2.3614862,-0.34554839,1.2485204,0.23968768,-0.86385334,0.44306576,0
0.75442719,-1.6833229,0.083053768,0.23968768,-0.86385334,0.44306576,0
-2.831856,0.73206592,-0.73311365,-0.23968768,0.86385334,-0.44306576,0
1.4654074,0.097669423,-1.3206006,0.27615952,-0.37685108,-0.88414884,0
0.3752439,1.9182456,1.0434506,-0.27615952,0.37685108,0.88414884,0
-3.0090985,-0.6852057,0.18290806,-0.93074477,-0.33427641,-0.14823484,0
2.2645876,1.8171892,0.81763005,0.93074477,0.33427641,0.14823484,0
-2.9689524,-0.097350717,-1.0173359,-0.93074477,-0.33427641,-0.14823484,0
-1.32212,-1.4192491,1.1609091,0.23968768,-0.86385334,0.44306576,0
0.7325505,1.21741,-1.3338648,-0.23968768,0.86385334,-0.44306576,0
0.35845935,-0.27602422,1.8002769,-0.27615952,0.37685108,0.88414884,0
2.7358229,1.0744009,0.16452813,0.93074477,0.33427641,0.14823484,0
-1.462554,-0.021278858,-2.3427877,0.27615952,-0.37685108,-0.88414884,0
-2.2988913,1.0949768,0.47024953,-0.27615952,0.37685108,0.88414884,0
1.3274095,0.58173144,1.7453769,-0.27615952,0.37685108,0.88414884,0
2.749351,0.10839021,1.5247662,0.93074477,0.33427641,0.14823484,0
-2.6823151,-0.88436699,-1.1754987,-0.93074477,-0.33427641,-0.14823484,0
2.8446503,0.61631238,0.80193877,0.93074477,0.33427641,0.14823484,0
-1.0590185,0.98716605,-1.2386215,-0.23968768,0.86385334,-0.44306576,0
-0.84239739,-2.1709418,-0.54485118,0.23968768,-0.86385334,0.44306576,0
2.587358,1.1424314,1.9079212,0.93074477,0.33427641,0.14823484,0
-3.2030907,0.073019028,-0.79124975,-0.93074477,-0.33427641,-0.14823484,0
0.33940428,0.84143734,1.6154203,-0.27615952,0.37685108,0.88414884,0
0.45965171,-1.7091035,-0.32800418,0.23968768,-0.86385334,0.44306576,0
0.88683689,1.4344207,1.4756272,-0.27615952,0.37685108,0.88414884,0
-2.7901661,-1.6072164,0.8456018,-0.93074477,-0.33427641,-0.14823484,0
-1.5961499,1.3333734,-0.35455903,-0.23968768,0.86385334,-0.44306576,0
1.0542258,1.9253252,-0.57551265,-0.23968768,0.86385334,-0.44306576,0
0.81534714,1.2716775,-1.0281671,-0.23968768,0.86385334,-0.44306576,0
2.6345432,1.5406038,-1.6608622,0.27615952,-0.37685108,-0.88414884,0
-0.66203648,-1.7881027,0.00033128262,0.23968768,-0.86385334,0.44306576,0
2.5332434,-0.57154924,-0.51483059,0.27615952,-0.37685108,-0.88414884,0
-0.27512676,0.59957874,1.4081824,-0.27615952,0.37685108,0.88414884,0
-0.033342898,1.9336345,0.70334321,-0.23968768,0.86385334,-0.44306576,0
3.4741292,-0.38602343,-0.62839127,0.27615952,-0.37685108,-0.88414884,0
-0.27387691,-1.5676138,0.88179064,0.23968768,-0.86385334,0.44306576,0
-2.1347218,-0.046114564,1.235751,-0.27615952,0.37685108,0.88414884,0
1.8785738,1.4953622,-1.7656522,-0.23968768,0.86385334,-0.44306576,0
2.9218633,0.20091856,1.5574464,0.93074477,0.33427641,0.14823484,0
1.5824494,0.79963541,-1.4837587,0.27615952,-0.37685108,-0.88414884,0
-2.9678905,-1.4653668,1.2281268,-0.93074477,-0.33427641,-0.14823484,0
1.6685476,1.9304271,-0.79835582,-0.23968768,0.86385334,-0.44306576,0
1.9131165,0.90643668,2.0540524,-0.27615952,0.37685108,0.88414884,0
1.541591,-1.3751918,-0.2006835,0.23968768,-0.86385334,0.44306576,0
1.4213345,0.55722779,-1.3018093,0.27615952,-0.37685108,-0.88414884,0
-2.8372939,-1.3806379,0.44538856,-0.93074477,-0.33427641,-0.14823484,0
-3.242167,-0.64588672,0.68571138,-0.93074477,-0.33427641,-0.14823484,0
-2.6378951,-1.1841869,-0.42734051,-0.93074477,-0.33427641,-0.14823484,0
0.18593287,1.5305601,1.1920511,-0.27615952,0.37685108,0.88414884,0
-2.6099968,-1.2947881,-0.46700144,-0.93074477,-0.33427641,-0.14823484,0
-2.5926077,-0.57842469,-1.9498156,-0.93074477,-0.33427641,-0.14823484,0
-2.9623163,-1.1348608,0.76556253,-0.93074477,-0.33427641,-0.14823484,0
1.7633682,1.9274904,-0.97550607,-0.23968768,0.86385334,-0.44306576,0
-2.08005,-1.8658702,-1.3526618,0.27615952,-0.37685108,-0.88414884,0
-2.9258671,-0.76843119,-1.3065975,-0.93074477,-0.33427641,-0.14823484,0
1.5819149,1.9977362,-0.20759821,-0.23968768,0.86385334,-0.44306576,0
0.1627025,1.6672056,-0.049574256,-0.23968768,0.86385334,-0.44306576,0
0.39417562,-1.9422593,-0.72179747,0.23968768,-0.86385334,0.44306576,0
-2.1672056,-1.2763753,-1.9638888,0.27615952,-0.37685108,-0.88414884,0
2.8925893,1.7406734,-0.96150899,0.93074477,0.33427641,0.14823484,0
-2.6284442,-1.884125,0.58235931,-0.93074477,-0.33427641,-0.14823484,0
1.3736813,1.5652623,1.2761115,-0.27615952,0.37685108,0.88414884,0
-0.57945246,-1.9845876,0.2474339,0.23968768,-0.86385334,0.44306576,0
1.0449208,0.45967627,1.9566119,-0.27615952,0.37685108,0.88414884,0
0.22348398,-0.40204644,-1.5380945,0.27615952,-0.37685108,-0.88414884,0
-1.3830159,1.3454338,0.49865198,-0.27615952,0.37685108,0.88414884,0
0.14222312,-1.3989878,-0.91216826,0.27615952,-0.37685108,-0.88414884,0
2.8330107,1.2704579,-1.5050128,0.27615952,-0.37685108,-0.88414884,0
-0.56949997,0.91958344,1.1732846,-0.27615952,0.37685108,0.88414884,0
-0.77684313,-1.1969175,-1.2438037,0.27615952,-0.37685108,-0.88414884,0
3.0200341,1.1099813,-0.60131598,0.93074477,0.33427641,0.14823484,0
2.5820308,1.7737734,-1.5386777,0.27615952,-0.37685108,-0.88414884,0
2.0770538,2.4055548,1.1449826,-0.27615952,0.37685108,0.88414884,0
-1.2528495,1.6297811,0.1697862,-0.23968768,0.86385334,-0.44306576,0
-2.6839213,0.70222628,-0.81536305,-0.23968768,0.86385334,-0.44306576,0
1.6252376,1.4246458,1.8202482,-0.27615952,0.37685108,0.88414884,0
-0.54799616,0.039723873,1.6852663,-0.27615952,0.37685108,0.88414884,0
0.063515961,1.8449367,0.29775918,-0.23968768,0.86385334,-0.44306576,0
-2.8323581,-0.6501745,-0.84884882,-0.93074477,-0.33427641,-0.14823484,0
-2.0737317,-2.8795893,-1.1649885,-0.93074477,-0.33427641,-0.14823484,0
2.3688285,-0.47833645,1.133641,0.23968768,-0.86385334,0.44306576,0
-1.2055926,-1.8019919,-1.3121662,0.27615952,-0.37685108,-0.88414884,0
0.26697493,0.71333539,-1.8196005,0.27615952,-0.37685108,-0.88414884,0
-0.32956886,1.4114147,-0.7638694,-0.23968768,0.86385334,-0.44306576,0
3.462707,-0.041127235,-0.66530728,0.93074477,0.33427641,0.14823484,0
-0.77372652,-1.238613,-1.6277478,0.27615952,-0.37685108,-0.88414884,0
0.37104475,0.93875098,-1.8420832,-0.23968768,0.86385334,-0.44306576,0
-3.0588675,0.25632846,-1.1522758,-0.23968768,0.86385334,-0.44306576,0
-2.5692034,-0.96250093,-1.237741,-0.93074477,-0.33427641,-0.14823484,0
-3.2787256,0.44053447,0.3344841,-0.93074477,-0.33427641,-0.14823484,0
-1.0824286,0.10716033,-2.0538838,0.27615952,-0.37685108,-0.88414884,0
-1.4070408,0.48662436,-1.785466,-0.23968768,0.86385334,-0.44306576,0
-1.0642769,-1.5124346,-1.4973762,0.27615952,-0.37685108,-0.88414884,0
-2.115922,-0.014782667,-2.4380183,0.27615952,-0.37685108,-0.88414884,0
-0.63335025,-1.3141848,1.0172324,0.23968768,-0.86385334,0.44306576,0
-2.7558475,-0.79674965,-0.13836646,-0.93074477,-0.33427641,-0.14823484,0
0.90488076,0.1218257,1.7731913,-0.27615952,0.37685108,0.88414884,0
-0.44873166,1.1007169,-0.7611109,-0.23968768,0.86385334,-0.44306576,0
-0.96543837,-1.2002902,-1.3512571,0.27615952,-0.37685108,-0.88414884,0
-0.71508873,-1.9725521,-0.30603456,0.23968768,-0.86385334,0.44306576,0
1.8338224,1.316739,-1.8212438,0.27615952,-0.37685108,-0.88414884,0
-3.5293307,0.32442582,-0.081880331,-0.93074477,-0.33427641,-0.14823484,0
0.3849678,0.46267068,1.5991621,-0.27615952,0.37685108,0.88414884,0
-2.8484449,-1.2506162,0.46790957,-0.93074477,-0.33427641,-0.14823484,0
-1.6516953,0.44720507,1.0593671,-0.27615952,0.37685108,0.88414884,0
0.54188001,1.4175043,1.3224069,-0.27615952,0.37685108,0.88414884,0
-0.4087745,0.63281655,-1.9891036,0.27615952,-0.37685108,-0.88414884,0
3.3504548,-0.58763826,0.43513441,0.23968768,-0.86385334,0.44306576,0
1.6871204,1.617128,-1.3334692,-0.23968768,0.86385334,-0.44306576,0
1.1587269,0.081039131,-1.24656,0.27615952,-0.37685108,-0.88414884,0
-2.2746687,-1.8697209,-0.45411825,-0.93074477,-0.33427641,-0.14823484,0
2.6697836,0.50223821,-1.0349495,0.27615952,-0.37685108,-0.88414884,0
3.3700609,-0.030483961,-0.54058075,0.93074477,0.33427641,0.14823484,0
-0.14869344,-0.11768198,1.5144184,-0.27615952,0.37685108,0.88414884,0
-0.68279231,-0.61862272,1.6979359,-0.27615952,0.37685108,0.88414884,0
2.2943866,-1.2458911,0.053667545,0.23968768,-0.86385334,0.44306576,0
-1.7842941,-1.226282,1.4575248,-0.27615952,0.37685108,0.88414884,0
1.9695542,1.0881566,1.6412928,-0.27615952,0.37685108,0.88414884,0
2.4033971,1.4216952,-1.7166483,-0.23968768,0.86385334,-0.44306576,0
2.5356836,1.0903249,-1.3039868,0.27615952,-0.37685108,-0.88414884,0
-1.0287442,0.56680095,-2.0423985,-0.23968768,0.86385334,-0.44306576,0
-2.4647987,1.2541101,0.23031509,-0.23968768,0.86385334,-0.44306576,0
1.2627616,-0.74963939,-1.0064895,0.27615952,-0.37685108,-0.88414884,0
0.93624902,-0.75071901,-1.1414816,0.27615952,-0.37685108,-0.88414884,0
-1.4498744,0.69472808,-1.2142544,-0.23968768,0.86385334,-0.44306576,0
-2.6189797,-1.7395064,0.11754417,-0.93074477,-0.33427641,-0.14823484,0
2.8678463,1.1716571,0.20037389,0.93074477,0.33427641,0.14823484,0
-1.7628887,-2.1387215,0.23423266,0.23968768,-0.86385334,0.44306576,0
-2.3857231,-2.2558298,0.20004892,0.23968768,-0.86385334,0.44306576,0
-1.7162449,0.99072331,0.8348276,-0.27615952,0.37685108,0.88414884,0
0.75428748,0.31576061,1.7428375,-0.27615952,0.37685108,0.88414884,0
2.9713504,0.049852133,1.5457431,0.93074477,0.33427641,0.14823484,0
-2.0730217,-2.2720687,0.1898241,0.23968768,-0.86385334,0.44306576,0
2.3465226,2.2096,0.6149478,0.93074477,0.33427641,0.14823484,0
