-0.33944821,-0.23935424,2.8222482,0.14442194,-0.71342057,0.68569177,0
-0.061950922,-0.94190025,-4.1067085,-0.14442194,0.71342057,-0.68569177,0
-1.3046956,1.229104,-1.2845991,-0.14442194,0.71342057,-0.68569177,0
1.1927058,3.7062526,1.2524812,0.18083054,0.70031577,0.69054902,0
-0.048395284,3.0394065,1.7406847,0.18083054,0.70031577,0.69054902,0
-0.9620316,3.2466152,0.86811876,-0.14442194,0.71342057,-0.68569177,0
-1.5106058,0.096998692,0.3561278,-0.97285277,0.024263501,0.23014921,0
-1.3716534,-1.14118,0.55438787,-0.97285277,0.024263501,0.23014921,0
0.72279412,3.0037673,1.9091635,0.18083054,0.70031577,0.69054902,0
-1.5963323,-2.631813,-2.1977205,-0.18083054,-0.70031577,-0.69054902,0
2.0289512,3.1823652,1.3487775,0.18083054,0.70031577,0.69054902,0
-0.2472291,-0.47980359,-3.5340557,-0.14442194,0.71342057,-0.68569177,0
0.78477263,3.9158673,1.0400589,0.18083054,0.70031577,0.69054902,0
0.73995364,-2.7158928,-2.6847444,-0.18083054,-0.70031577,-0.69054902,0
-0.24940792,3.2596469,2.0441556,0.18083054,0.70031577,0.69054902,0
0.1947372,-3.4670057,-0.61938977,0.14442194,-0.71342057,0.68569177,0
-1.576746,0.020867109,0.19096607,-0.97285277,0.024263501,0.23014921,0
0.82669574,-1.9780092,-2.7408605,0.97285277,-0.024263501,-0.23014921,0
-1.3359629,2.1311736,-0.0041128397,-0.97285277,0.024263501,0.23014921,0
-0.17940743,-3.2953033,-1.86886,-0.18083054,-0.70031577,-0.69054902,0
1.634531,-1.4421848,0.87234491,0.97285277,-0.024263501,-0.23014921,0
-0.7585566,-0.052015603,2.9559064,-0.97285277,0.024263501,0.23014921,0
-1.9892853,-1.8896363,-2.6765523,-0.18083054,-0.70031577,-0.69054902,0
1.6200439,-1.4339868,1.2617046,0.14442194,-0.71342057,0.68569177,0
1.2165363,1.6134008,3.265574,0.18083054,0.70031577,0.69054902,0
1.2428069,2.7834649,-0.55056858,-0.14442194,0.71342057,-0.68569177,0
1.3926378,-0.90441704,-0.38376093,0.97285277,-0.024263501,-0.23014921,0
-2.0104485,-2.1195161,-1.7136226,-0.97285277,0.024263501,0.23014921,0
-0.79270834,1.9149172,2.8567755,-0.97285277,0.024263501,0.23014921,0
1.4682374,2.6456902,1.8148618,0.18083054,0.70031577,0.69054902,0
1.2454307,2.85743,1.8890769,0.18083054,0.70031577,0.69054902,0
0.097513668,-2.954458,-1.8943708,-0.18083054,-0.70031577,-0.69054902,0
0.57975209,-1.9803684,0.76012123,0.14442194,-0.71342057,0.68569177,0
-0.8074882,-2.5997169,-1.9512861,-0.18083054,-0.70031577,-0.69054902,0
0.071722746,-4.0761089,-1.1669965,-0.18083054,-0.70031577,-0.69054902,0
-0.22950721,-1.5561868,1.2427609,0.14442194,-0.71342057,0.68569177,0
1.4835439,-1.5742923,0.77027309,0.14442194,-0.71342057,0.68569177,0
0.11172521,1.6793301,-1.2605741,-0.14442194,0.71342057,-0.68569177,0
-0.74389768,3.0699193,2.3842421,0.18083054,0.70031577,0.69054902,0
-0.52515554,2.8006983,2.270108,0.18083054,0.70031577,0.69054902,0
-0.90567172,3.0023084,2.3104649,0.18083054,0.70031577,0.69054902,0
0.28617787,2.2210093,2.7051675,0.18083054,0.70031577,0.69054902,0
0.1539247,1.8329099,3.252543,0.18083054,0.70031577,0.69054902,0
-1.9055654,-1.8754402,-2.5845413,-0.18083054,-0.70031577,-0.69054902,0
-1.6016729,-3.5884848,-0.60287976,-0.97285277,0.024263501,0.23014921,0
0.31193194,2.9368119,1.8667338,0.18083054,0.70031577,0.69054902,0
-0.12596989,2.8789802,-0.0029804707,-0.14442194,0.71342057,-0.68569177,0
0.39699793,-3.2558613,-1.9966979,-0.18083054,-0.70031577,-0.69054902,0
-1.2451978,0.69457626,1.3758433,-0.97285277,0.024263501,0.23014921,0
-0.98289573,1.3526759,1.9289062,-0.97285277,0.024263501,0.23014921,0
-1.886562,-1.4768312,-1.1298221,-0.97285277,0.024263501,0.23014921,0
-1.7149537,-1.9982402,-2.6769357,-0.18083054,-0.70031577,-0.69054902,0
0.74007344,-1.5590509,-2.5382967,0.97285277,-0.024263501,-0.23014921,0
-1.9045424,0.10837269,-2.1136951,-0.97285277,0.024263501,0.23014921,0
1.1577163,1.4191264,3.4426928,0.18083054,0.70031577,0.69054902,0
0.46733573,-3.2980471,-1.6858461,-0.18083054,-0.70031577,-0.69054902,0
-1.1167386,-0.45229793,-3.3556764,-0.14442194,0.71342057,-0.68569177,0
-1.7093681,-2.4350219,-1.0864758,-0.97285277,0.024263501,0.23014921,0
-1.3337917,-3.7654238,-0.73613262,0.14442194,-0.71342057,0.68569177,0
1.7364802,2.4774642,2.3143916,0.18083054,0.70031577,0.69054902,0
1.6859047,1.3719143,0.37113309,0.97285277,-0.024263501,-0.23014921,0
-0.71696496,3.6332612,0.97130919,-0.14442194,0.71342057,-0.68569177,0
0.96102011,-2.1785045,-3.0121453,0.97285277,-0.024263501,-0.23014921,0
0.62223542,-1.6527977,-3.2633309,0.97285277,-0.024263501,-0.23014921,0
-1.8952205,-1.2849934,-3.3756456,-0.18083054,-0.70031577,-0.69054902,0
1.3659006,1.884057,-0.56345809,0.97285277,-0.024263501,-0.23014921,0
-0.80432636,3.8497789,1.5744524,0.18083054,0.70031577,0.69054902,0
1.1285137,-1.5815445,-1.0143399,0.97285277,-0.024263501,-0.23014921,0
1.3658566,2.0513463,-1.3507779,-0.14442194,0.71342057,-0.68569177,0
0.93777847,2.0628538,2.5649238,0.18083054,0.70031577,0.69054902,0
-0.37714922,-2.0908625,0.61373389,0.14442194,-0.71342057,0.68569177,0
0.18112743,-1.6367731,-3.3798418,-0.18083054,-0.70031577,-0.69054902,0
-1.7525674,-1.1784574,-1.1395063,-0.97285277,0.024263501,0.23014921,0
0.5023042,-3.4844475,-0.95269465,0.14442194,-0.71342057,0.68569177,0
0.37121129,0.78192961,3.4107001,0.14442194,-0.71342057,0.68569177,0
1.6849258,2.0099602,0.14096868,0.97285277,-0.024263501,-0.23014921,0
-1.4588747,-2.9396849,-1.7311404,-0.18083054,-0.70031577,-0.69054902,0
-0.13884783,0.51966321,3.6459904,0.14442194,-0.71342057,0.68569177,0
-1.1116368,1.2734709,-1.1072834,-0.14442194,0.71342057,-0.68569177,0
1.2629821,-1.3523439,-0.47287869,0.97285277,-0.024263501,-0.23014921,0
-2.0073748,0.48350263,-1.5164214,-0.97285277,0.024263501,0.23014921,0
1.2562819,-1.0531492,-1.2167013,0.97285277,-0.024263501,-0.23014921,0
-2.309623,-1.0047446,-3.3300185,-0.14442194,0.71342057,-0.68569177,0
-2.0068688,-2.4285817,-1.7012107,-0.97285277,0.024263501,0.23014921,0
-1.7952834,-3.0518904,-1.3753192,-0.18083054,-0.70031577,-0.69054902,0
-1.120155,2.6618171,1.1658821,-0.97285277,0.024263501,0.23014921,0
-1.572793,-2.5714717,-0.25232005,-0.97285277,0.024263501,0.23014921,0
0.068102181,3.6196885,1.2551956,0.18083054,0.70031577,0.69054902,0
2.1845798,0.80993378,2.1846097,0.97285277,-0.024263501,-0.23014921,0
1.0821813,-1.957054,-2.6051197,0.97285277,-0.024263501,-0.23014921,0
1.3726206,2.012264,2.7006657,0.18083054,0.70031577,0.69054902,0
0.76176083,2.574316,2.3938642,0.18083054,0.70031577,0.69054902,0
-0.40524375,2.1285284,3.1214008,0.18083054,0.70031577,0.69054902,0
-1.6924326,0.53993356,-0.064147949,-0.97285277,0.024263501,0.23014921,0
0.49667299,-2.7002709,-2.6514683,-0.18083054,-0.70031577,-0.69054902,0
1.1783102,0.21901953,3.1704116,0.14442194,-0.71342057,0.68569177,0
0.56229615,-3.9698522,-1.0487638,0.14442194,-0.71342057,0.68569177,0
1.5557716,1.6997669,2.6982009,0.18083054,0.70031577,0.69054902,0
1.2364582,0.50896579,-1.5040705,0.97285277,-0.024263501,-0.23014921,0
2.099061,0.24820256,2.8078461,0.14442194,-0.71342057,0.68569177,0
0.27707005,-2.4776649,0.37307608,0.14442194,-0.71342057,0.68569177,0
0.82374281,-3.7149918,-1.6926556,-0.18083054,-0.70031577,-0.69054902,0
-1.5805856,-2.865443,-1.6294484,-0.18083054,-0.70031577,-0.69054902,0
2.0128934,1.9979957,1.166163,0.97285277,-0.024263501,-0.23014921,0
-0.78313947,0.26611865,-2.4196727,-0.14442194,0.71342057,-0.68569177,0
1.0794201,1.0143,-1.7297218,0.97285277,-0.024263501,-0.23014921,0
-0.4793303,-0.058291823,3.0035195,0.14442194,-0.71342057,0.68569177,0
-1.3137987,-2.3620596,0.84206736,0.14442194,-0.71342057,0.68569177,0
-0.19337535,0.59719646,3.442749,0.14442194,-0.71342057,0.68569177,0
1.4144038,2.0357721,-0.45983213,0.97285277,-0.024263501,-0.23014921,0
-1.0174493,3.4951775,1.8652129,0.18083054,0.70031577,0.69054902,0
-0.59040195,-2.595109,-2.1447277,-0.18083054,-0.70031577,-0.69054902,0
1.8853774,-0.46061158,1.6235009,0.97285277,-0.024263501,-0.23014921,0
-1.6864564,0.90453506,-1.7277679,-0.14442194,0.71342057,-0.68569177,0
-1.0605561,0.58276939,2.1971641,-0.97285277,0.024263501,0.23014921,0
1.4974254,0.4078064,0.2605848,0.97285277,-0.024263501,-0.23014921,0
1.8543367,1.2668788,3.1353424,0.18083054,0.70031577,0.69054902,0
0.99748874,-1.6508594,-2.4592443,0.97285277,-0.024263501,-0.23014921,0
0.06594348,-0.60446215,2.1922345,0.14442194,-0.71342057,0.68569177,0
0.18274379,2.5891864,2.2614684,0.18083054,0.70031577,0.69054902,0
-0.069694281,2.6285629,2.4434292,0.18083054,0.70031577,0.69054902,0
-0.94174218,-1.6577528,1.3850743,0.14442194,-0.71342057,0.68569177,0
1.9352074,-0.024080038,1.1995156,0.97285277,-0.024263501,-0.23014921,0
1.3162405,-0.25296497,2.1623807,0.14442194,-0.71342057,0.68569177,0
-1.8031702,-2.1241174,-1.03106,-0.97285277,0.024263501,0.23014921,0
2.1642315,1.9628375,2.4076097,0.18083054,0.70031577,0.69054902,0
1.2705996,-2.769949,-1.1802437,0.97285277,-0.024263501,-0.23014921,0
1.9524915,0.033557177,2.6207848,0.14442194,-0.71342057,0.68569177,0
-0.097189903,-1.8520464,-2.9445653,-0.18083054,-0.70031577,-0.69054902,0
-0.49433982,-2.1575928,-2.5093505,-0.18083054,-0.70031577,-0.69054902,0
1.213991,1.6198386,-1.2625682,0.97285277,-0.024263501,-0.23014921,0
-0.079935312,1.3668721,3.4787183,0.18083054,0.70031577,0.69054902,0
0.075704336,-3.0079699,-0.39074564,0.14442194,-0.71342057,0.68569177,0
1.5485468,-1.6202565,-0.49367344,0.97285277,-0.024263501,-0.23014921,0
0.95657635,-2.8589528,0.014643192,0.14442194,-0.71342057,0.68569177,0
0.55387068,0.58891523,-2.462656,-0.14442194,0.71342057,-0.68569177,0
1.2426848,3.4078584,0.19580173,-0.14442194,0.71342057,-0.68569177,0
-0.60714793,3.2794073,0.59633493,-0.14442194,0.71342057,-0.68569177,0
0.37488651,2.7347071,-0.0086681843,-0.14442194,0.71342057,-0.68569177,0
-0.49358296,-0.90897214,-3.5980997,-0.14442194,0.71342057,-0.68569177,0
1.1360631,-0.69963276,1.9393122,0.14442194,-0.71342057,0.68569177,0
1.659723,2.5831606,-0.13651192,0.97285277,-0.024263501,-0.23014921,0
0.82729697,-2.9715097,-2.488019,-0.18083054,-0.70031577,-0.69054902,0
-0.21644735,1.2424216,-1.5769439,-0.14442194,0.71342057,-0.68569177,0
1.9367198,0.57474005,1.6756585,0.97285277,-0.024263501,-0.23014921,0
-0.77624512,0.86871964,-1.853502,-0.14442194,0.71342057,-0.68569177,0
1.8747333,1.8412629,2.6889269,0.18083054,0.70031577,0.69054902,0
2.0168757,1.2649118,3.0476911,0.18083054,0.70031577,0.69054902,0
0.074061036,2.8497319,2.3729792,0.18083054,0.70031577,0.69054902,0
-1.5503409,1.4864197,0.056790709,-0.97285277,0.024263501,0.23014921,0
-1.1857511,1.8007735,2.1630132,-0.97285277,0.024263501,0.23014921,0
0.22062328,3.4430475,1.6333067,0.18083054,0.70031577,0.69054902,0
1.4011227,0.96815372,-0.60231793,0.97285277,-0.024263501,-0.23014921,0
1.6731225,-0.86680973,1.200382,0.97285277,-0.024263501,-0.23014921,0
0.01006633,3.5461922,1.3661642,0.18083054,0.70031577,0.69054902,0
0.96511221,0.14734507,2.9810166,0.14442194,-0.71342057,0.68569177,0
-0.61484158,1.8830147,3.0454922,0.18083054,0.70031577,0.69054902,0
1.5537966,-2.054975,-0.043247104,0.97285277,-0.024263501,-0.23014921,0
-0.66812229,0.57802093,2.8710718,-0.97285277,0.024263501,0.23014921,0
1.0106359,2.5668271,-0.44928467,-0.14442194,0.71342057,-0.68569177,0
-0.52338696,-2.961128,0.036382914,0.14442194,-0.71342057,0.68569177,0
2.1444631,0.35771883,2.7782011,0.14442194,-0.71342057,0.68569177,0
-1.9008009,-0.40070832,-0.66275805,-0.97285277,0.024263501,0.23014921,0
0.82660997,1.6953447,3.1879234,0.18083054,0.70031577,0.69054902,0
-0.26489866,3.7826514,1.3129907,0.18083054,0.70031577,0.69054902,0
0.48243523,-3.0605977,-0.17226601,0.14442194,-0.71342057,0.68569177,0
-0.99690741,-2.3792355,-2.1376684,-0.18083054,-0.70031577,-0.69054902,0
1.2775718,-0.53297293,-1.8583777,0.97285277,-0.024263501,-0.23014921,0
2.1753652,1.8407972,2.4782276,0.18083054,0.70031577,0.69054902,0
-2.1501424,0.11274338,-1.9367601,-0.97285277,0.024263501,0.23014921,0
-0.088084102,-3.3481882,-0.33416128,0.14442194,-0.71342057,0.68569177,0
0.3871845,2.3248053,-0.8680281,-0.14442194,0.71342057,-0.68569177,0
-1.4728036,-2.4737253,-1.9516766,-0.18083054,-0.70031577,-0.69054902,0
-0.38146734,1.5416108,-1.1780186,-0.14442194,0.71342057,-0.68569177,0
-0.35870743,-0.37540454,2.354773,0.14442194,-0.71342057,0.68569177,0
-1.5011353,-0.64394689,-3.5595617,-0.14442194,0.71342057,-0.68569177,0
-1.0145735,-0.41046202,2.8969588,0.14442194,-0.71342057,0.68569177,0
-0.76320279,-0.84584135,2.0287068,0.14442194,-0.71342057,0.68569177,0
-0.037123539,-3.0701499,-1.7803457,-0.18083054,-0.70031577,-0.69054902,0
-1.1111076,-1.5088763,-3.1536438,-0.18083054,-0.70031577,-0.69054902,0
1.2333435,0.59260297,-2.0828469,0.97285277,-0.024263501,-0.23014921,0
1.1102246,3.4968061,0.55750513,-0.14442194,0.71342057,-0.68569177,0
1.7444117,1.6678331,0.98513377,0.97285277,-0.024263501,-0.23014921,0
0.036911726,1.6135188,3.1806071,0.18083054,0.70031577,0.69054902,0
-0.84463358,0.022794664,-2.5311623,-0.14442194,0.71342057,-0.68569177,0
1.818468,-1.0165261,1.0714084,0.97285277,-0.024263501,-0.23014921,0
-2.0306709,-1.6312542,-2.5969031,-0.18083054,-0.70031577,-0.69054902,0
1.2957786,-0.30507147,-0.67437428,0.97285277,-0.024263501,-0.23014921,0
-1.5636762,-2.9873354,-1.7504649,-0.18083054,-0.70031577,-0.69054902,0
1.5956244,0.34378743,2.9488826,0.14442194,-0.71342057,0.68569177,0
1.2092754,-1.4740767,-1.4280071,0.97285277,-0.024263501,-0.23014921,0
1.6010363,0.57830453,2.9182477,0.14442194,-0.71342057,0.68569177,0
0.10950816,-2.5729446,0.2163316,0.14442194,-0.71342057,0.68569177,0
-1.3851583,1.4325057,0.4645803,-0.97285277,0.024263501,0.23014921,0
2.3053575,1.5022537,2.7003825,0.18083054,0.70031577,0.69054902,0
-1.3479851,-1.8015025,-3.1539657,-0.18083054,-0.70031577,-0.69054902,0
1.1309967,-2.9029045,-0.59965491,0.97285277,-0.024263501,-0.23014921,0
0.45634872,3.6860156,1.0897329,0.18083054,0.70031577,0.69054902,0
0.13569301,3.3694365,1.346319,0.18083054,0.70031577,0.69054902,0
-1.026318,1.4370294,1.5300565,-0.97285277,0.024263501,0.23014921,0
-1.8490962,-0.32607365,-1.2097118,-0.97285277,0.024263501,0.23014921,0
-2.0423315,-2.0780845,-2.4271295,-0.97285277,0.024263501,0.23014921,0
2.1555057,1.814276,2.6905928,0.18083054,0.70031577,0.69054902,0
0.94468117,2.3644555,-0.7113772,-0.14442194,0.71342057,-0.68569177,0
1.9013093,1.7112477,1.5548959,0.97285277,-0.024263501,-0.23014921,0
-1.4638348,-1.3406481,0.59503138,-0.97285277,0.024263501,0.23014921,0
-0.13198566,-2.2700343,-2.7219868,-0.18083054,-0.70031577,-0.69054902,0
1.6418273,2.2868574,2.4322402,0.18083054,0.70031577,0.69054902,0
-0.73549342,0.62374377,3.0630066,-0.97285277,0.024263501,0.23014921,0
-1.4643924,-3.158313,-1.4667346,-0.18083054,-0.70031577,-0.69054902,0
-0.11493993,0.47187769,-2.2376833,-0.14442194,0.71342057,-0.68569177,0
-1.5631654,-1.5645144,-0.081145287,-0.97285277,0.024263501,0.23014921,0
0.80807984,-0.30572814,-2.2839484,0.97285277,-0.024263501,-0.23014921,0
-1.7675147,-0.23039222,-1.2612332,-0.97285277,0.024263501,0.23014921,0
1.185349,1.7799262,2.9104455,0.18083054,0.70031577,0.69054902,0
-1.0783534,1.4458157,1.3293314,-0.97285277,0.024263501,0.23014921,0
-1.8107996,0.6994617,-1.7941167,-0.14442194,0.71342057,-0.68569177,0
1.2140608,0.66946471,3.3743048,0.14442194,-0.71342057,0.68569177,0
-0.61486375,-3.0847151,-0.34281659,0.14442194,-0.71342057,0.68569177,0
-1.724339,-1.6516,-1.3528938,-0.97285277,0.024263501,0.23014921,0
0.99451774,2.242837,-0.84458244,-0.14442194,0.71342057,-0.68569177,0
-0.87555408,0.75730139,2.3254683,-0.97285277,0.024263501,0.23014921,0
0.70979166,-2.4884646,-2.8766055,-0.18083054,-0.70031577,-0.69054902,0
0.017811298,1.3998394,3.7789533,0.18083054,0.70031577,0.69054902,0
0.45153052,-3.9011521,-1.3324428,-0.18083054,-0.70031577,-0.69054902,0
-1.3470241,1.3432362,-1.2057236,-0.14442194,0.71342057,-0.68569177,0
0.21225548,2.5866299,-0.44844067,-0.14442194,0.71342057,-0.68569177,0
-1.0130197,-1.5039694,1.5680399,-0.97285277,0.024263501,0.23014921,0
-0.9266777,-1.4097931,1.3822643,0.14442194,-0.71342057,0.68569177,0
-1.260197,0.36219501,0.75028396,-0.97285277,0.024263501,0.23014921,0
-0.043019921,3.4290698,1.8617654,0.18083054,0.70031577,0.69054902,0
1.0681902,0.022765756,-2.2800832,0.97285277,-0.024263501,-0.23014921,0
0.87950242,-1.5115962,-3.220546,0.97285277,-0.024263501,-0.23014921,0
0.1299417,-3.826426,-0.86371326,0.14442194,-0.71342057,0.68569177,0
-1.3272886,1.8997247,0.26074183,-0.97285277,0.024263501,0.23014921,0
-1.0591969,-0.430242,-3.1539638,-0.14442194,0.71342057,-0.68569177,0
1.1216908,3.5959358,0.73598337,-0.14442194,0.71342057,-0.68569177,0
-1.0871875,-1.3511325,-3.3040442,-0.18083054,-0.70031577,-0.69054902,0
-0.54906702,-0.63170767,-3.6850474,-0.14442194,0.71342057,-0.68569177,0
1.779085,0.036390185,1.6051087,0.97285277,-0.024263501,-0.23014921,0
1.7945436,-0.34313965,0.49756432,0.97285277,-0.024263501,-0.23014921,0
-0.26571906,-3.0441716,-0.087225914,0.14442194,-0.71342057,0.68569177,0
1.2637762,3.5584478,0.53118467,-0.14442194,0.71342057,-0.68569177,0
1.1351761,0.032329082,-2.0333028,0.97285277,-0.024263501,-0.23014921,0
0.88135511,2.3290555,2.3464262,0.18083054,0.70031577,0.69054902,0
-0.70266235,3.1860631,1.7898552,0.18083054,0.70031577,0.69054902,0
1.7954302,0.056994677,0.99040657,0.97285277,-0.024263501,-0.23014921,0
-0.11791849,-2.9395931,0.036826134,0.14442194,-0.71342057,0.68569177,0
-1.4641089,1.3051121,0.10884643,-0.97285277,0.024263501,0.23014921,0
0.42997706,1.2630973,-1.9521762,-0.14442194,0.71342057,-0.68569177,0
-1.3208992,3.7907381,1.1785583,-0.14442194,0.71342057,-0.68569177,0
-0.75677991,3.0815282,0.19252539,-0.14442194,0.71342057,-0.68569177,0
0.30062842,-0.16735139,2.5527554,0.14442194,-0.71342057,0.68569177,0
-0.61215222,3.7938702,1.2893596,0.18083054,0.70031577,0.69054902,0
-0.77069747,-3.0469244,-1.9615188,-0.18083054,-0.70031577,-0.69054902,0
0.075875044,-1.3074485,-4.0112705,-0.18083054,-0.70031577,-0.69054902,0
-0.6684655,3.1143312,0.30804658,-0.14442194,0.71342057,-0.68569177,0
1.4174514,-2.4299383,-0.89516687,0.97285277,-0.024263501,-0.23014921,0
-0.19367123,-0.83732074,2.2814598,0.14442194,-0.71342057,0.68569177,0
0.38766146,0.46150815,-2.3898249,-0.14442194,0.71342057,-0.68569177,0
-2.1623914,-0.50484502,-2.6258154,-0.97285277,0.024263501,0.23014921,0
-0.9750455,-2.8329687,0.44802225,0.14442194,-0.71342057,0.68569177,0
-1.0336182,1.4869509,2.6191742,-0.97285277,0.024263501,0.23014921,0
1.9934367,0.44999385,2.1068168,0.97285277,-0.024263501,-0.23014921,0
-1.8198279,-3.3991215,-1.0251069,-0.18083054,-0.70031577,-0.69054902,0
-0.34946072,2.6777153,2.3158641,0.18083054,0.70031577,0.69054902,0
1.0742627,-2.3582251,-1.4940975,0.97285277,-0.024263501,-0.23014921,0
-1.2875147,2.8423805,1.5531273,-0.97285277,0.024263501,0.23014921,0
1.0768145,-1.2461438,1.3938348,0.14442194,-0.71342057,0.68569177,0
0.85089988,-3.4811416,-1.7299876,-0.18083054,-0.70031577,-0.69054902,0
-1.6559331,-3.6597517,-0.91852212,-0.18083054,-0.70031577,-0.69054902,0
-1.499846,0.0077023506,-2.7403927,-0.14442194,0.71342057,-0.68569177,0
1.0476243,1.1697387,3.8584583,0.14442194,-0.71342057,0.68569177,0
-1.5154487,-2.6160882,0.28217101,-0.97285277,0.024263501,0.23014921,0
1.5915086,-1.7243347,-0.39171839,0.97285277,-0.024263501,-0.23014921,0
0.097326994,-1.2706591,-3.981425,-0.18083054,-0.70031577,-0.69054902,0
-0.92543805,3.8065622,1.0387545,-0.14442194,0.71342057,-0.68569177,0
0.84923738,-3.2806928,-2.0713634,-0.18083054,-0.70031577,-0.69054902,0
-0.23879945,-1.6735919,-3.1972234,-0.18083054,-0.70031577,-0.69054902,0
1.5225266,-1.5859184,0.67196608,0.97285277,-0.024263501,-0.23014921,0
-1.0076759,-1.892626,-2.9384778,-0.18083054,-0.70031577,-0.69054902,0
-0.23024829,-3.2140777,-1.7157321,-0.18083054,-0.70031577,-0.69054902,0
-1.9286208,0.42310548,-2.3089042,-0.14442194,0.71342057,-0.68569177,0
0.15820336,1.669945,3.42731,0.18083054,0.70031577,0.69054902,0
0.29761577,-1.196553,1.7827475,0.14442194,-0.71342057,0.68569177,0
-0.084635258,1.9534593,3.1233251,0.18083054,0.70031577,0.69054902,0
-1.9059154,-0.66656971,-0.96963882,-0.97285277,0.024263501,0.23014921,0
-1.9317685,-2.6529675,-0.70907688,-0.97285277,0.024263501,0.23014921,0
-1.7612876,-1.7509531,-2.709837,-0.18083054,-0.70031577,-0.69054902,0
0.19026136,-1.883215,-3.0736732,-0.18083054,-0.70031577,-0.69054902,0
1.3569471,-0.44665802,-1.2118012,0.97285277,-0.024263501,-0.23014921,0
0.17199636,2.184062,-0.57077062,-0.14442194,0.71342057,-0.68569177,0
0.0088465214,0.17517975,-2.9866133,-0.14442194,0.71342057,-0.68569177,0
0.35763633,-2.0267589,0.94948339,0.14442194,-0.71342057,0.68569177,0
0.77160263,2.0879757,-0.71818584,-0.14442194,0.71342057,-0.68569177,0
0.49629831,-0.63503271,-3.4261968,-0.14442194,0.71342057,-0.68569177,0
-1.8248131,-1.7596893,-2.5738771,-0.18083054,-0.70031577,-0.69054902,0
-1.8330234,-2.7253242,-0.15444636,-0.97285277,0.024263501,0.23014921,0
-0.60605502,-1.0761976,-3.9134731,-0.18083054,-0.70031577,-0.69054902,0
-0.21784616,1.4749393,-1.5503443,-0.14442194,0.71342057,-0.68569177,0
1.442102,-1.7607561,0.29697239,0.97285277,-0.024263501,-0.23014921,0
0.92124581,1.7455434,-1.4968174,-0.14442194,0.71342057,-0.68569177,0
-1.9017131,0.090044856,-0.81915456,-0.97285277,0.024263501,0.23014921,0
-1.6653074,-0.9751398,0.05908674,-0.97285277,0.024263501,0.23014921,0
-0.3089419,3.1164141,1.7487102,0.18083054,0.70031577,0.69054902,0
1.1132329,3.567914,0.83908796,-0.14442194,0.71342057,-0.68569177,0
-0.25447667,2.2055874,3.0410242,0.18083054,0.70031577,0.69054902,0
-1.2886258,-3.529783,-0.3650074,0.14442194,-0.71342057,0.68569177,0
1.2621497,1.8601065,-1.2914841,-0.14442194,0.71342057,-0.68569177,0
1.7481852,-0.91243887,1.5888108,0.14442194,-0.71342057,0.68569177,0
-1.0888656,-2.3752396,0.68718702,0.14442194,-0.71342057,0.68569177,0
1.2918355,3.8487864,1.0477746,0.18083054,0.70031577,0.69054902,0
-1.5303696,1.6748397,0.59136772,-0.97285277,0.024263501,0.23014921,0
-1.3761665,2.3109927,-0.25757253,-0.14442194,0.71342057,-0.68569177,0
0.42297196,-0.29934677,-3.3460786,-0.14442194,0.71342057,-0.68569177,0
0.95971847,-2.7802584,-0.01260376,0.14442194,-0.71342057,0.68569177,0
1.4508429,-3.0423822,-0.88233423,0.97285277,-0.024263501,-0.23014921,0
1.3594208,1.4588774,3.0516772,0.18083054,0.70031577,0.69054902,0
1.8910649,2.2282653,2.3322248,0.18083054,0.70031577,0.69054902,0
1.8816247,-0.49468768,1.1138055,0.97285277,-0.024263501,-0.23014921,0
1.1742054,1.5845615,2.8700161,0.18083054,0.70031577,0.69054902,0
-0.3804493,1.4839463,3.9440756,0.18083054,0.70031577,0.69054902,0
1.9534791,0.9159236,2.0907927,0.97285277,-0.024263501,-0.23014921,0
0.14968979,-2.3884032,-2.8685668,-0.18083054,-0.70031577,-0.69054902,0
-0.64264274,-0.97629666,-3.8454106,-0.14442194,0.71342057,-0.68569177,0
0.62249827,-0.80803472,-3.6177227,-0.14442194,0.71342057,-0.68569177,0
0.85983157,1.647486,3.3916888,0.18083054,0.70031577,0.69054902,0
1.1413209,1.7402508,-1.1155119,0.97285277,-0.024263501,-0.23014921,0
-1.7468915,-1.0917437,-3.3952975,-0.18083054,-0.70031577,-0.69054902,0
1.7443011,3.3627698,0.91428542,0.18083054,0.70031577,0.69054902,0
-2.1315567,-1.1055843,-3.0712125,-0.97285277,0.024263501,0.23014921,0
0.71834111,-0.12461895,-3.3628159,-0.14442194,0.71342057,-0.68569177,0
1.7044805,-1.0514388,1.107349,0.97285277,-0.024263501,-0.23014921,0
0.28793454,3.8137059,1.3245444,0.18083054,0.70031577,0.69054902,0
0.94815457,3.543695,0.62630677,-0.14442194,0.71342057,-0.68569177,0
-0.45066619,-3.6562443,-1.1291904,-0.18083054,-0.70031577,-0.69054902,0
-1.1593844,0.91683054,2.2665586,-0.97285277,0.024263501,0.23014921,0
1.3214235,2.2916772,-0.7876541,0.97285277,-0.024263501,-0.23014921,0
-1.2808352,1.0803668,-1.632091,-0.14442194,0.71342057,-0.68569177,0
-0.13095045,-0.42660776,-3.5664909,-0.14442194,0.71342057,-0.68569177,0
-0.71544611,2.8335481,2.4227419,-0.97285277,0.024263501,0.23014921,0
1.5675834,2.1004016,-0.46665353,0.97285277,-0.024263501,-0.23014921,0
-1.3089736,-1.0404019,-3.7436891,-0.18083054,-0.70031577,-0.69054902,0
1.4957092,3.5386071,1.2667968,0.18083054,0.70031577,0.69054902,0
-1.1202083,-0.87662005,-3.3647478,-0.14442194,0.71342057,-0.68569177,0
0.24864364,0.10427348,-2.6184621,-0.14442194,0.71342057,-0.68569177,0
0.82109058,-1.8303993,0.89617664,0.14442194,-0.71342057,0.68569177,0
-1.4476969,-1.958752,-2.9480388,-0.18083054,-0.70031577,-0.69054902,0
-1.7449015,-2.3199875,-0.35647345,-0.97285277,0.024263501,0.23014921,0
1.0835531,-1.2073864,-2.1537063,0.97285277,-0.024263501,-0.23014921,0
0.06325984,-0.60494709,-3.641264,-0.14442194,0.71342057,-0.68569177,0
1.1973884,2.5714102,-0.72761834,-0.14442194,0.71342057,-0.68569177,0
-1.4866233,-3.6124265,-1.208076,-0.18083054,-0.70031577,-0.69054902,0
2.3936212,0.76865673,3.3971982,0.14442194,-0.71342057,0.68569177,0
-0.79051542,-3.8107862,-0.82816625,0.14442194,-0.71342057,0.68569177,0
0.78054929,1.2347528,3.7427084,0.18083054,0.70031577,0.69054902,0
0.26011062,0.98804045,3.9610658,0.18083054,0.70031577,0.69054902,0
1.3707428,1.2874091,3.1531005,0.18083054,0.70031577,0.69054902,0
-2.4143658,-0.83683085,-2.8880882,-0.97285277,0.024263501,0.23014921,0
0.35616446,-1.9666139,-2.9092095,-0.18083054,-0.70031577,-0.69054902,0
1.7202003,2.1291223,1.1960192,0.97285277,-0.024263501,-0.23014921,0
-1.8540225,-0.062245965,-2.7128153,-0.14442194,0.71342057,-0.68569177,0
0.31133375,-3.3601189,-1.6622772,-0.18083054,-0.70031577,-0.69054902,0
-1.3161967,1.9979929,0.7400887,-0.97285277,0.024263501,0.23014921,0
0.86370736,3.7412257,0.93539762,-0.14442194,0.71342057,-0.68569177,0
-0.40005398,0.038928092,-2.7448807,-0.14442194,0.71342057,-0.68569177,0
1.1589867,-3.3019717,-1.9663815,-0.18083054,-0.70031577,-0.69054902,0
-1.2261549,1.3057796,-1.3394122,-0.14442194,0.71342057,-0.68569177,0
0.429847,1.1153476,3.6524923,0.18083054,0.70031577,0.69054902,0
-0.90276861,1.8441852,-0.86113107,-0.14442194,0.71342057,-0.68569177,0
-2.0556221,-0.24726295,-1.7023449,-0.97285277,0.024263501,0.23014921,0
-1.7781483,-1.4571182,-0.83398187,-0.97285277,0.024263501,0.23014921,0
1.0143749,-3.1966052,-1.8915622,-0.18083054,-0.70031577,-0.69054902,0
1.8675294,1.8959458,0.41635859,0.97285277,-0.024263501,-0.23014921,0
-1.521242,0.32114494,0.77100247,-0.97285277,0.024263501,0.23014921,0
0.13685513,0.000628829,-2.8214359,-0.14442194,0.71342057,-0.68569177,0
0.15673876,1.521215,-1.400476,-0.14442194,0.71342057,-0.68569177,0
-0.14331526,2.9492741,2.4041607,0.18083054,0.70031577,0.69054902,0
1.1360765,-0.61772323,-2.2025788,0.97285277,-0.024263501,-0.23014921,0
0.63292748,2.9980688,0.24920869,-0.14442194,0.71342057,-0.68569177,0
-0.58562267,2.9389729,2.3518898,0.18083054,0.70031577,0.69054902,0
-2.1847336,-1.5186068,-2.1193159,-0.97285277,0.024263501,0.23014921,0
-0.6452232,-2.3460631,-2.4420331,-0.18083054,-0.70031577,-0.69054902,0
-0.062182188,0.46388769,3.5942731,0.14442194,-0.71342057,0.68569177,0
-0.22117364,-2.4176331,-2.6625211,-0.18083054,-0.70031577,-0.69054902,0
-0.088487685,3.6053834,1.6205525,0.18083054,0.70031577,0.69054902,0
1.8408185,2.8095508,1.9579911,0.18083054,0.70031577,0.69054902,0
0.022835821,-3.3230884,-1.6553214,-0.18083054,-0.70031577,-0.69054902,0
1.5420587,-1.709796,0.6299575,0.97285277,-0.024263501,-0.23014921,0
-1.5986814,-3.5830481,-0.64498472,0.14442194,-0.71342057,0.68569177,0
1.0825371,2.3967388,2.442817,0.18083054,0.70031577,0.69054902,0
-1.2052135,-0.73068297,-3.6027253,-0.14442194,0.71342057,-0.68569177,0
-0.77168202,-3.8579483,-0.97773027,0.14442194,-0.71342057,0.68569177,0
-0.092598081,-2.7508116,-2.4839625,-0.18083054,-0.70031577,-0.69054902,0
1.5477686,4.0397735,0.7341857,-0.14442194,0.71342057,-0.68569177,0
0.023361742,-3.5033889,-1.4570405,-0.18083054,-0.70031577,-0.69054902,0
0.89913726,-3.2431252,-0.64783835,0.14442194,-0.71342057,0.68569177,0
-1.525782,-2.23911,-2.3876672,-0.18083054,-0.70031577,-0.69054902,0
2.1136706,1.3951488,3.0268435,0.18083054,0.70031577,0.69054902,0
-0.6376996,-1.949984,-2.7479274,-0.18083054,-0.70031577,-0.69054902,0
-1.0848281,-0.2451784,2.2041302,-0.97285277,0.024263501,0.23014921,0
1.9652715,0.39537847,2.9323959,0.14442194,-0.71342057,0.68569177,0
1.0974078,-0.6405195,1.9715093,0.14442194,-0.71342057,0.68569177,0
0.07874167,-3.5953243,-1.356365,-0.18083054,-0.70031577,-0.69054902,0
-1.8066339,-3.593101,-0.94569373,-0.97285277,0.024263501,0.23014921,0
1.3971119,-1.4060206,-0.45755136,0.97285277,-0.024263501,-0.23014921,0
-1.3217564,-3.7262492,-0.40676856,0.14442194,-0.71342057,0.68569177,0
1.4316902,3.1362829,0.26050019,-0.14442194,0.71342057,-0.68569177,0
0.75446486,-0.53764296,2.3341269,0.14442194,-0.71342057,0.68569177,0
-1.882099,-3.4363208,-1.1818981,-0.18083054,-0.70031577,-0.69054902,0
0.42953336,-2.1320329,-2.9693804,-0.18083054,-0.70031577,-0.69054902,0
0.81947851,1.6990836,3.3478415,0.18083054,0.70031577,0.69054902,0
1.5629504,3.5686481,0.56799603,-0.14442194,0.71342057,-0.68569177,0
1.5925045,2.6342998,0.78792119,0.97285277,-0.024263501,-0.23014921,0
-1.9947939,-0.84331262,-1.3804731,-0.97285277,0.024263501,0.23014921,0
-0.33969617,-2.2623861,0.70619762,0.14442194,-0.71342057,0.68569177,0
-0.23650527,1.2863653,3.9685643,0.18083054,0.70031577,0.69054902,0
-0.64426041,-0.076748431,2.9746008,0.14442194,-0.71342057,0.68569177,0
-1.9068704,-1.0740665,-3.2525637,-0.18083054,-0.70031577,-0.69054902,0
0.13212991,-2.6936369,0.029067516,0.14442194,-0.71342057,0.68569177,0
1.3207685,1.4814037,-0.5958581,0.97285277,-0.024263501,-0.23014921,0
0.072492361,-3.9537344,-1.1069622,-0.18083054,-0.70031577,-0.69054902,0
-0.49280572,-1.4385428,-3.2082934,-0.18083054,-0.70031577,-0.69054902,0
-0.87031174,-4.0404282,-0.92550087,0.14442194,-0.71342057,0.68569177,0
-0.65724671,-3.2949212,-1.7139165,-0.18083054,-0.70031577,-0.69054902,0
1.4106072,-0.61741984,-1.0786489,0.97285277,-0.024263501,-0.23014921,0
-1.6825435,-2.8107619,0.08343029,-0.97285277,0.024263501,0.23014921,0
-2.1907949,-1.2326227,-2.656173,-0.97285277,0.024263501,0.23014921,0
1.4427925,0.21565676,-0.99073046,0.97285277,-0.024263501,-0.23014921,0
-1.2566793,2.3196025,0.019193172,-0.14442194,0.71342057,-0.68569177,0
0.23650077,-3.4333065,-1.6857491,-0.18083054,-0.70031577,-0.69054902,0
0.75931644,2.3418422,2.2769043,0.18083054,0.70031577,0.69054902,0
1.0881001,2.0776267,2.8597631,0.18083054,0.70031577,0.69054902,0
1.9592185,0.91919994,3.552978,0.18083054,0.70031577,0.69054902,0
1.1488678,-1.238801,-1.6992979,0.97285277,-0.024263501,-0.23014921,0
2.1929984,1.7831231,1.912025,0.97285277,-0.024263501,-0.23014921,0
-0.97674024,3.1055424,0.53561211,-0.14442194,0.71342057,-0.68569177,0
0.08131814,-2.6150239,-2.6691651,-0.18083054,-0.70031577,-0.69054902,0
-1.1190799,-3.4563556,-0.73350453,0.14442194,-0.71342057,0.68569177,0
1.8106828,0.19109249,0.64778954,0.97285277,-0.024263501,-0.23014921,0
1.7990839,0.20414722,0.76838827,0.97285277,-0.024263501,-0.23014921,0
-0.19008708,1.7849823,-0.79974145,-0.14442194,0.71342057,-0.68569177,0
1.8605988,0.88755524,1.4628371,0.97285277,-0.024263501,-0.23014921,0
-1.4528905,-2.366658,-2.290833,-0.18083054,-0.70031577,-0.69054902,0
0.67448926,-3.5101728,-1.7701564,-0.18083054,-0.70031577,-0.69054902,0
-1.1456406,3.2819817,1.9384866,0.18083054,0.70031577,0.69054902,0
-0.0029301643,1.2126752,3.9861422,0.18083054,0.70031577,0.69054902,0
1.2881182,-0.15235496,-1.669724,0.97285277,-0.024263501,-0.23014921,0
1.7087804,-1.8010236,0.88616037,0.14442194,-0.71342057,0.68569177,0
-1.1629314,-1.7399771,-3.2122014,-0.18083054,-0.70031577,-0.69054902,0
0.1140942,-3.9001679,-1.306108,-0.18083054,-0.70031577,-0.69054902,0
1.8105719,1.7647783,3.067529,0.18083054,0.70031577,0.69054902,0
-1.7061152,-1.8301718,0.12264609,-0.97285277,0.024263501,0.23014921,0
-1.6287527,1.455902,-1.0685508,-0.14442194,0.71342057,-0.68569177,0
-1.6524751,-1.1034505,-3.3346057,-0.18083054,-0.70031577,-0.69054902,0
1.002486,-0.24462378,2.4456739,0.14442194,-0.71342057,0.68569177,0
-0.66913974,2.8162189,2.4263549,0.18083054,0.70031577,0.69054902,0
-1.9291284,1.0080044,-1.6953654,-0.14442194,0.71342057,-0.68569177,0
0.035814285,-0.90790671,-3.897048,-0.18083054,-0.70031577,-0.69054902,0
1.9726284,1.4507058,3.1626055,0.18083054,0.70031577,0.69054902,0
-2.3119116,-1.111874,-3.0704052,-0.97285277,0.024263501,0.23014921,0
1.3182601,-0.69518745,1.6721755,0.14442194,-0.71342057,0.68569177,0
-1.1298413,-3.4038563,-1.143889,-0.18083054,-0.70031577,-0.69054902,0
-0.037536025,3.1021156,0.30838299,-0.14442194,0.71342057,-0.68569177,0
0.9143641,-0.39634472,-2.6405392,0.97285277,-0.024263501,-0.23014921,0
1.1206501,-1.7861965,-1.5363209,0.97285277,-0.024263501,-0.23014921,0
-2.0716267,-2.8510997,-1.8794022,-0.18083054,-0.70031577,-0.69054902,0
-0.86666542,2.5982306,2.3752291,0.18083054,0.70031577,0.69054902,0
-0.26336753,-1.196339,1.6588364,0.14442194,-0.71342057,0.68569177,0
-0.81576729,0.34264243,-2.097286,-0.14442194,0.71342057,-0.68569177,0
-0.43404365,-1.6637182,-3.0162497,-0.18083054,-0.70031577,-0.69054902,0
0.38395977,1.4503744,3.3995736,0.18083054,0.70031577,0.69054902,0
-1.0682958,2.5578594,-0.26968634,-0.14442194,0.71342057,-0.68569177,0
1.720472,2.8955691,0.42377281,0.97285277,-0.024263501,-0.23014921,0
1.7631941,2.2798469,0.24180293,0.97285277,-0.024263501,-0.23014921,0
0.19406128,-2.7814872,-0.15798259,0.14442194,-0.71342057,0.68569177,0
-1.3497169,-0.53392839,1.3307064,-0.97285277,0.024263501,0.23014921,0
-1.7248211,0.51083219,-1.8244311,-0.14442194,0.71342057,-0.68569177,0
2.1422813,0.75072896,3.4764471,0.14442194,-0.71342057,0.68569177,0
-0.020539045,2.4526839,-0.1929189,-0.14442194,0.71342057,-0.68569177,0
-0.4490478,0.26852328,-2.3037395,-0.14442194,0.71342057,-0.68569177,0
-1.2550678,-3.4483962,-1.2272913,-0.18083054,-0.70031577,-0.69054902,0
1.4499252,-1.5898491,0.02165997,0.97285277,-0.024263501,-0.23014921,0
1.3754947,-1.1271876,-0.53249848,0.97285277,-0.024263501,-0.23014921,0
-0.8320244,-2.7718742,-2.2220664,-0.18083054,-0.70031577,-0.69054902,0
1.148912,1.9668081,-1.0885158,0.97285277,-0.024263501,-0.23014921,0
1.1320577,-1.410937,-1.3560336,0.97285277,-0.024263501,-0.23014921,0
1.5665185,-0.53539026,2.2298145,0.14442194,-0.71342057,0.68569177,0
-0.66148746,1.4036322,3.7357624,-0.97285277,0.024263501,0.23014921,0
-1.7772064,-0.65174663,-3.3505487,-0.14442194,0.71342057,-0.68569177,0
-0.52851176,-2.4329729,-2.5303757,-0.18083054,-0.70031577,-0.69054902,0
-0.86873674,3.382175,0.87491202,-0.14442194,0.71342057,-0.68569177,0
1.7883055,2.1076708,0.061358929,0.97285277,-0.024263501,-0.23014921,0
0.56213117,2.3011956,-0.56581354,-0.14442194,0.71342057,-0.68569177,0
0.47919708,-2.33729,-2.6676905,-0.18083054,-0.70031577,-0.69054902,0
-1.7997874,0.00038993359,-1.3768833,-0.97285277,0.024263501,0.23014921,0
-1.3464881,-3.097024,-1.5326035,-0.18083054,-0.70031577,-0.69054902,0
-1.0898701,-3.7313213,-0.79167652,-0.18083054,-0.70031577,-0.69054902,0
0.745166,-3.4021049,-1.561475,-0.18083054,-0.70031577,-0.69054902,0
-1.060061,1.0671515,-1.570105,-0.14442194,0.71342057,-0.68569177,0
-0.5280025,-2.3981571,-2.3227723,-0.18083054,-0.70031577,-0.69054902,0
-1.4860007,1.9326077,-0.67842895,-0.14442194,0.71342057,-0.68569177,0
1.1758866,3.4849315,0.5902524,-0.14442194,0.71342057,-0.68569177,0
0.88550568,-1.0740472,-2.924299,0.97285277,-0.024263501,-0.23014921,0
-1.3175411,0.65107226,-2.2180731,-0.14442194,0.71342057,-0.68569177,0
0.15983987,2.0379684,2.826117,0.18083054,0.70031577,0.69054902,0
-1.5104942,-1.7760495,-0.40022373,-0.97285277,0.024263501,0.23014921,0
1.2646124,2.4845939,-0.86547905,-0.14442194,0.71342057,-0.68569177,0
-1.5998268,1.2667749,0.48627806,-0.97285277,0.024263501,0.23014921,0
-0.27408981,2.0693548,2.8143883,0.18083054,0.70031577,0.69054902,0
-1.4404063,2.6568313,0.033476353,-0.14442194,0.71342057,-0.68569177,0
1.5631998,1.2124906,-0.24123347,0.97285277,-0.024263501,-0.23014921,0
1.6920115,1.2615923,0.52349544,0.97285277,-0.024263501,-0.23014921,0
-1.1252162,-3.0386872,-1.5374944,-0.18083054,-0.70031577,-0.69054902,0
-1.8081559,0.14672768,-1.0934978,-0.97285277,0.024263501,0.23014921,0
0.70305681,-1.2403651,-3.5864305,0.97285277,-0.024263501,-0.23014921,0
-1.9377344,-3.6870356,-0.80026269,-0.97285277,0.024263501,0.23014921,0
-1.0844514,2.76194,1.0815449,-0.97285277,0.024263501,0.23014921,0
0.38294876,-3.1902463,-2.0528584,-0.18083054,-0.70031577,-0.69054902,0
1.3527541,1.3888108,-1.8081722,0.97285277,-0.024263501,-0.23014921,0
0.5466907,-0.74748516,-3.4688091,0.97285277,-0.024263501,-0.23014921,0
-0.080538034,-1.7800676,1.3530412,0.14442194,-0.71342057,0.68569177,0
-1.4556024,-1.6206317,0.79245895,-0.97285277,0.024263501,0.23014921,0
1.1860194,-2.5159376,-0.67124844,0.97285277,-0.024263501,-0.23014921,0
1.6900615,2.1257486,2.2497699,0.18083054,0.70031577,0.69054902,0
-1.6481884,-0.13017225,-2.6515322,-0.14442194,0.71342057,-0.68569177,0
-1.332919,2.0281656,-0.16175389,-0.97285277,0.024263501,0.23014921,0
-1.7069124,0.0071909428,-0.53039581,-0.97285277,0.024263501,0.23014921,0
-1.2167171,2.9660487,1.8070638,-0.97285277,0.024263501,0.23014921,0
1.4631513,-2.2626185,-0.16131973,0.97285277,-0.024263501,-0.23014921,0
-1.5195473,-3.582031,-0.74831223,-0.18083054,-0.70031577,-0.69054902,0
1.0499355,-2.6500263,-2.328419,0.97285277,-0.024263501,-0.23014921,0
1.7654649,-1.7174269,0.57818294,0.14442194,-0.71342057,0.68569177,0
1.4317482,1.2511055,3.2346268,0.18083054,0.70031577,0.69054902,0
0.83591044,-3.6433513,-1.5375896,-0.18083054,-0.70031577,-0.69054902,0
-1.0395994,-2.1922045,-2.8057294,-0.18083054,-0.70031577,-0.69054902,0
-1.3993629,-2.1992035,-2.2214117,-0.18083054,-0.70031577,-0.69054902,0
0.22418416,3.3589151,0.69598365,-0.14442194,0.71342057,-0.68569177,0
-1.6571752,-3.3211541,-0.76095939,-0.97285277,0.024263501,0.23014921,0
-1.8051975,-1.1063461,-3.2078855,-0.18083054,-0.70031577,-0.69054902,0
1.2251067,-1.2454201,-0.5916425,0.97285277,-0.024263501,-0.23014921,0
1.583594,2.5117044,-0.44409573,0.97285277,-0.024263501,-0.23014921,0
-0.781308,2.0346415,2.8359668,-0.97285277,0.024263501,0.23014921,0
1.2165012,-0.97729933,1.5669063,0.14442194,-0.71342057,0.68569177,0
-1.2466784,1.3762153,1.8961124,-0.97285277,0.024263501,0.23014921,0
-0.089882135,1.3028197,3.8846743,0.18083054,0.70031577,0.69054902,0
1.7645614,-0.38149476,2.1248972,0.14442194,-0.71342057,0.68569177,0
-1.0216848,2.0068688,-0.38783193,-0.14442194,0.71342057,-0.68569177,0
1.0256232,-0.32173884,-1.8139293,0.97285277,-0.024263501,-0.23014921,0
-1.3200399,-2.993083,0.1519804,0.14442194,-0.71342057,0.68569177,0
1.5984045,3.3153713,1.3216083,0.18083054,0.70031577,0.69054902,0
0.21953773,2.172298,-0.94493794,-0.14442194,0.71342057,-0.68569177,0
0.086263418,0.38575757,3.4660015,0.14442194,-0.71342057,0.68569177,0
0.2327106,-1.2277476,-3.6748171,-0.18083054,-0.70031577,-0.69054902,0
-1.3104272,2.9610877,0.94358397,-0.97285277,0.024263501,0.23014921,0
-0.52532601,-0.38183436,-3.3552194,-0.14442194,0.71342057,-0.68569177,0
-2.0317681,-1.843465,-1.8178163,-0.97285277,0.024263501,0.23014921,0
0.4749788,1.9441714,2.7968013,0.18083054,0.70031577,0.69054902,0
1.1415529,-0.2545886,-1.7485356,0.97285277,-0.024263501,-0.23014921,0
-0.9849267,-1.6691524,-3.2617078,-0.18083054,-0.70031577,-0.69054902,0
-1.3019574,1.6277623,1.0425193,-0.97285277,0.024263501,0.23014921,0
0.1559391,-2.6029277,0.43945742,0.14442194,-0.71342057,0.68569177,0
-1.6646194,0.20796084,0.062578976,-0.97285277,0.024263501,0.23014921,0
0.045804024,-1.4534652,-3.5204754,-0.18083054,-0.70031577,-0.69054902,0
-0.53753889,1.4962734,3.4700396,0.18083054,0.70031577,0.69054902,0
1.1117282,1.3780849,-1.9908416,-0.14442194,0.71342057,-0.68569177,0
-0.78437138,-1.1995144,-3.7129619,-0.18083054,-0.70031577,-0.69054902,0
-1.2297807,-3.3509369,-1.2573082,-0.18083054,-0.70031577,-0.69054902,0
-0.08048296,1.4752152,3.4921114,0.18083054,0.70031577,0.69054902,0
0.18025303,-1.6569949,-3.6325338,-0.18083054,-0.70031577,-0.69054902,0
-1.8334523,-1.8252487,-0.79597926,-0.97285277,0.024263501,0.23014921,0
-0.34410596,1.4169841,-1.5097269,-0.14442194,0.71342057,-0.68569177,0
-0.39348686,-2.5201759,-2.3434494,-0.18083054,-0.70031577,-0.69054902,0
0.54156715,3.0769157,1.6333938,0.18083054,0.70031577,0.69054902,0
0.90384102,1.6002872,3.3371916,0.18083054,0.70031577,0.69054902,0
1.4092948,1.1011407,3.855989,0.18083054,0.70031577,0.69054902,0
-0.67868888,-2.211472,-2.8927891,-0.18083054,-0.70031577,-0.69054902,0
0.078998111,3.1300588,1.8959982,0.18083054,0.70031577,0.69054902,0
1.8864977,0.20430541,1.8169347,0.97285277,-0.024263501,-0.23014921,0
0.28721952,-3.7123046,-1.5922084,-0.18083054,-0.70031577,-0.69054902,0
-1.7648292,-2.7040107,-0.47684503,-0.97285277,0.024263501,0.23014921,0
0.73399132,-3.1652286,-1.9175692,-0.18083054,-0.70031577,-0.69054902,0
-0.62025803,2.5550613,2.7679031,0.18083054,0.70031577,0.69054902,0
1.287833,-1.284986,1.4130067,0.14442194,-0.71342057,0.68569177,0
-1.915898,-1.388759,-1.0655215,-0.97285277,0.024263501,0.23014921,0
-0.31643224,-2.7691531,-1.8962388,-0.18083054,-0.70031577,-0.69054902,0
-1.5394938,2.0839648,0.36304498,-0.97285277,0.024263501,0.23014921,0
1.4473339,0.27047253,0.42633432,0.97285277,-0.024263501,-0.23014921,0
-0.62846255,-0.07084161,2.9872642,0.14442194,-0.71342057,0.68569177,0
2.3423963,1.9689,2.5833099,0.18083054,0.70031577,0.69054902,0
-0.3226794,-2.2993817,0.82785749,0.14442194,-0.71342057,0.68569177,0
1.5435634,-1.3647723,-0.27532351,0.97285277,-0.024263501,-0.23014921,0
0.62138796,0.30958143,2.9961619,0.14442194,-0.71342057,0.68569177,0
0.17058051,1.7789273,3.1233706,0.18083054,0.70031577,0.69054902,0
-2.146955,-0.76126885,-3.3060071,-0.97285277,0.024263501,0.23014921,0
0.60162973,0.34305924,3.0161395,0.14442194,-0.71342057,0.68569177,0
-2.1799543,-2.1611149,-2.4837935,-0.18083054,-0.70031577,-0.69054902,0
-0.1077354,-0.62469667,2.5651364,0.14442194,-0.71342057,0.68569177,0
1.1826487,-3.0089998,-1.0225265,0.97285277,-0.024263501,-0.23014921,0
-0.53204632,-2.1321537,1.0540547,0.14442194,-0.71342057,0.68569177,0
-0.23868394,0.65072656,3.9212544,0.14442194,-0.71342057,0.68569177,0
1.8264184,0.63681054,1.4136539,0.97285277,-0.024263501,-0.23014921,0
1.1325045,1.3757319,3.2782178,0.18083054,0.70031577,0.69054902,0
-1.5727295,-1.4046715,-0.68956923,-0.97285277,0.024263501,0.23014921,0
-1.1700608,-0.48257744,2.2629876,-0.97285277,0.024263501,0.23014921,0
0.57132435,1.1202264,3.9359503,0.18083054,0.70031577,0.69054902,0
1.4688547,-1.6490626,1.0698211,0.14442194,-0.71342057,0.68569177,0
-0.82142383,2.1652722,2.8842168,-0.97285277,0.024263501,0.23014921,0
1.4179826,1.1029451,3.5255339,0.18083054,0.70031577,0.69054902,0
0.13397408,-2.304363,0.71880895,0.14442194,-0.71342057,0.68569177,0
-0.51009798,0.0051788092,-3.0388432,-0.14442194,0.71342057,-0.68569177,0
1.2657118,3.3028712,1.403008,0.18083054,0.70031577,0.69054902,0
-0.24730951,-3.5009992,-0.68325472,0.14442194,-0.71342057,0.68569177,0
-1.0300951,-2.7398303,-2.2477269,-0.18083054,-0.70031577,-0.69054902,0
0.68939626,1.7267075,-1.3744644,-0.14442194,0.71342057,-0.68569177,0
-1.0276053,1.1664147,2.4937665,-0.97285277,0.024263501,0.23014921,0
0.18275413,-2.8061984,-2.4541268,-0.18083054,-0.70031577,-0.69054902,0
-1.4104487,0.82971644,1.2987292,-0.97285277,0.024263501,0.23014921,0
-1.5201042,1.4285804,0.38137126,-0.97285277,0.024263501,0.23014921,0
-0.21902609,3.2466135,0.59447336,-0.14442194,0.71342057,-0.68569177,0
-0.21468961,1.9702294,-0.65240055,-0.14442194,0.71342057,-0.68569177,0
0.76147199,-1.6407666,-3.2729692,0.97285277,-0.024263501,-0.23014921,0
0.33976477,3.3853891,1.5195005,0.18083054,0.70031577,0.69054902,0
-1.133599,-1.9976797,-2.7948663,-0.18083054,-0.70031577,-0.69054902,0
-1.8194456,-1.7662239,-1.7723088,-0.97285277,0.024263501,0.23014921,0
1.2888107,2.1488972,-0.74292362,0.97285277,-0.024263501,-0.23014921,0
1.2012738,-1.6365575,-1.3106029,0.97285277,-0.024263501,-0.23014921,0
-0.065547109,2.9075236,0.08019352,-0.14442194,0.71342057,-0.68569177,0
0.64224899,-1.4942442,-3.2453749,0.97285277,-0.024263501,-0.23014921,0
1.8741831,0.49490047,1.8984783,0.97285277,-0.024263501,-0.23014921,0
-0.50444913,3.0526047,0.61381102,-0.14442194,0.71342057,-0.68569177,0
1.0808606,-0.66152406,-2.2781799,0.97285277,-0.024263501,-0.23014921,0
-0.16472268,-1.6647913,-3.2602861,-0.18083054,-0.70031577,-0.69054902,0
0.81527257,0.4056021,3.0909467,0.14442194,-0.71342057,0.68569177,0
-1.6742955,0.98470592,-1.3309153,-0.97285277,0.024263501,0.23014921,0
-2.1120734,-1.8574113,-2.6240237,-0.97285277,0.024263501,0.23014921,0
0.81864119,2.3527648,-0.90274888,-0.14442194,0.71342057,-0.68569177,0
0.64463234,-3.0125463,-0.63218427,0.14442194,-0.71342057,0.68569177,0
0.9325102,3.56568,1.1478133,0.18083054,0.70031577,0.69054902,0
-0.67894936,-1.598809,-3.2418749,-0.18083054,-0.70031577,-0.69054902,0
-1.1315131,3.0923038,0.87035632,-0.97285277,0.024263501,0.23014921,0
1.7135588,-2.2133262,0.42511201,0.14442194,-0.71342057,0.68569177,0
-1.7215929,-3.381804,-1.0837555,-0.18083054,-0.70031577,-0.69054902,0
0.031560183,2.2711411,2.6035426,0.18083054,0.70031577,0.69054902,0
1.0841441,0.55364138,-1.7057734,0.97285277,-0.024263501,-0.23014921,0
1.6451735,2.5729322,1.9458063,0.18083054,0.70031577,0.69054902,0
1.3731724,-0.50842142,-1.1526966,0.97285277,-0.024263501,-0.23014921,0
-1.3954046,-2.6182213,0.39201689,0.14442194,-0.71342057,0.68569177,0
-0.9081955,-2.2199717,-2.5120163,-0.18083054,-0.70031577,-0.69054902,0
-0.58657217,2.5824018,-0.12883449,-0.14442194,0.71342057,-0.68569177,0
0.023773432,0.19741362,3.2746069,0.14442194,-0.71342057,0.68569177,0
-1.2802273,0.71143937,0.33336931,-0.97285277,0.024263501,0.23014921,0
1.5643516,0.90879369,0.64650548,0.97285277,-0.024263501,-0.23014921,0
2.0886252,0.47659075,2.5753448,0.97285277,-0.024263501,-0.23014921,0
-0.39436162,1.9308196,3.163197,0.18083054,0.70031577,0.69054902,0
1.5683715,1.5762963,2.9103866,0.18083054,0.70031577,0.69054902,0
-0.77770334,-2.7836068,-1.9110548,-0.18083054,-0.70031577,-0.69054902,0
-1.9317153,-0.19816566,-1.9369116,-0.97285277,0.024263501,0.23014921,0
-2.017626,-2.4971647,-1.6582344,-0.97285277,0.024263501,0.23014921,0
0.85681176,1.0670352,-2.168365,-0.14442194,0.71342057,-0.68569177,0
-0.44524574,-1.0828609,-3.6274147,-0.18083054,-0.70031577,-0.69054902,0
-0.91608906,-1.6565123,-3.0159361,-0.18083054,-0.70031577,-0.69054902,0
-1.539335,-2.4205818,-2.4045458,-0.18083054,-0.70031577,-0.69054902,0
-1.1209786,1.9413817,1.2810187,-0.97285277,0.024263501,0.23014921,0
-0.11682606,-1.7802004,1.351656,0.14442194,-0.71342057,0.68569177,0
-0.21714586,2.6647062,2.346724,0.18083054,0.70031577,0.69054902,0
1.2228571,1.0005964,-0.64167845,0.97285277,-0.024263501,-0.23014921,0
-1.3357553,0.22824669,0.096066505,-0.97285277,0.024263501,0.23014921,0
-0.77756751,0.88033628,3.5142651,-0.97285277,0.024263501,0.23014921,0
-1.6615102,-1.739877,-2.7943072,-0.18083054,-0.70031577,-0.69054902,0
0.85378844,-3.1644795,-2.24754,-0.18083054,-0.70031577,-0.69054902,0
-0.76865697,-2.0447266,-2.819113,-0.18083054,-0.70031577,-0.69054902,0
-0.65473318,3.1744576,0.67005658,-0.14442194,0.71342057,-0.68569177,0
-1.0039942,0.8615427,2.353348,-0.97285277,0.024263501,0.23014921,0
0.08466053,1.7258012,3.5685885,0.18083054,0.70031577,0.69054902,0
0.36329436,1.3702002,3.4784715,0.18083054,0.70031577,0.69054902,0
-0.46909738,-0.5180347,2.6281495,0.14442194,-0.71342057,0.68569177,0
0.7759434,-2.8070955,-0.42460465,0.14442194,-0.71342057,0.68569177,0
-1.0088497,-2.2910013,-2.6685998,-0.18083054,-0.70031577,-0.69054902,0
0.9212532,3.9403954,0.71766353,-0.14442194,0.71342057,-0.68569177,0
-1.2130146,0.75102162,-1.7569938,-0.14442194,0.71342057,-0.68569177,0
-2.0750237,0.28095078,-1.7376428,-0.97285277,0.024263501,0.23014921,0
-1.4858569,1.7970136,-0.66796774,-0.97285277,0.024263501,0.23014921,0
2.0714819,0.81826746,3.4719563,0.14442194,-0.71342057,0.68569177,0
-1.9441187,-1.3414198,-3.1351647,-0.18083054,-0.70031577,-0.69054902,0
0.74853516,3.3210244,1.2842016,0.18083054,0.70031577,0.69054902,0
-1.7833078,-0.029471278,-2.5252924,-0.14442194,0.71342057,-0.68569177,0
-0.88167393,-3.878541,-0.95446777,0.14442194,-0.71342057,0.68569177,0
0.012277603,-1.3977236,-3.3732319,-0.18083054,-0.70031577,-0.69054902,0
1.9623928,1.2345085,3.1298037,0.18083054,0.70031577,0.69054902,0
0.74766898,3.334347,1.3028967,0.18083054,0.70031577,0.69054902,0
0.67162406,-3.7334976,-0.90715647,0.14442194,-0.71342057,0.68569177,0
-1.3542879,-0.99177295,0.1788089,-0.97285277,0.024263501,0.23014921,0
0.064979315,3.6597083,1.4125419,0.18083054,0.70031577,0.69054902,0
