1.8422467,-0.79753739,2.8260574,-0.012214959,-0.71559179,0.69841206,0
-1.8397949,1.7368685,-1.231871,-0.56439459,0.5814997,0.58593255,0
-0.010747671,2.5912762,-1.2053801,0.012214959,0.71559179,-0.69841206,0
3.0688994,-0.2856487,1.7458017,0.8254149,0.3870227,0.41097897,0
2.0144982,-1.8685496,1.4763372,0.56439459,-0.5814997,-0.58593255,0
2.0446627,-1.4388249,1.9888326,-0.012214959,-0.71559179,0.69841206,0
2.310163,1.0763844,1.8818876,0.8254149,0.3870227,0.41097897,0
0.58216023,1.5460868,-1.7015965,0.012214959,0.71559179,-0.69841206,0
-2.019835,-3.222343,0.079829693,-0.012214959,-0.71559179,0.69841206,0
-0.80984622,-1.1304218,-2.0073404,0.56439459,-0.5814997,-0.58593255,0
-1.3440927,1.6827102,-1.8953829,0.012214959,0.71559179,-0.69841206,0
-0.17517018,1.0753287,-2.760751,0.012214959,0.71559179,-0.69841206,0
1.3914095,2.6096368,1.4454242,-0.56439459,0.5814997,0.58593255,0
0.93372154,-2.319247,1.437757,-0.012214959,-0.71559179,0.69841206,0
-2.7878819,-0.30040848,-1.3465333,-0.8254149,-0.3870227,-0.41097897,0
-0.068799257,-0.3356756,-2.4325047,0.56439459,-0.5814997,-0.58593255,0
2.1973202,2.9925799,-0.22901273,0.012214959,0.71559179,-0.69841206,0
1.4428163,1.409929,2.6205153,-0.56439459,0.5814997,0.58593255,0
1.0952127,2.5373774,1.2999623,-0.56439459,0.5814997,0.58593255,0
0.83078384,-2.4746304,1.0729246,-0.012214959,-0.71559179,0.69841206,0
-2.2676773,-2.8759022,0.090510368,-0.8254149,-0.3870227,-0.41097897,0
-1.9602721,-1.2480012,-1.8588194,-0.8254149,-0.3870227,-0.41097897,0
-0.83694476,-2.1051044,-0.95028377,0.56439459,-0.5814997,-0.58593255,0
2.5061505,2.7381368,-0.56071424,0.8254149,0.3870227,0.41097897,0
2.8479521,-0.097280025,2.0191779,0.8254149,0.3870227,0.41097897,0
1.9246576,-0.46605951,3.3312225,-0.012214959,-0.71559179,0.69841206,0
0.18761945,0.84235775,-2.4436843,0.012214959,0.71559179,-0.69841206,0
-0.49411535,1.8831487,-1.3912954,0.012214959,0.71559179,-0.69841206,0
0.39797568,0.39771777,-2.3933794,0.56439459,-0.5814997,-0.58593255,0
-0.8805452,-1.5369737,-1.7133104,0.56439459,-0.5814997,-0.58593255,0
-2.6288867,-0.62061685,-1.2559268,-0.8254149,-0.3870227,-0.41097897,0
2.5286512,0.1096524,-0.19939661,0.56439459,-0.5814997,-0.58593255,0
2.229948,-0.55110419,0.10040987,0.56439459,-0.5814997,-0.58593255,0
1.3765121,-1.5691187,0.32308125,0.56439459,-0.5814997,-0.58593255,0
0.94673336,-0.025302202,3.6676803,-0.012214959,-0.71559179,0.69841206,0
-0.44222993,-1.6791894,-1.6154388,0.56439459,-0.5814997,-0.58593255,0
2.7642088,1.0556264,1.2326517,0.8254149,0.3870227,0.41097897,0
-0.20262361,-2.1955323,1.4845018,-0.012214959,-0.71559179,0.69841206,0
3.0772409,1.35539,-0.051134109,0.8254149,0.3870227,0.41097897,0
0.99099171,-2.0434425,1.3317242,-0.012214959,-0.71559179,0.69841206,0
1.6794848,3.0379968,-0.50134379,0.012214959,0.71559179,-0.69841206,0
-2.1711304,0.30989969,-2.9372978,-0.8254149,-0.3870227,-0.41097897,0
-1.9676085,-2.0994279,1.4646481,-0.012214959,-0.71559179,0.69841206,0
1.8354847,0.74624002,-1.6034486,0.56439459,-0.5814997,-0.58593255,0
2.568994,-0.80220759,0.45338774,0.56439459,-0.5814997,-0.58593255,0
-3.0953565,-0.056908131,-0.60114217,-0.56439459,0.5814997,0.58593255,0
-0.80126965,1.8419983,-1.5235877,0.012214959,0.71559179,-0.69841206,0
0.0019238591,-1.0621282,-1.8386172,0.56439459,-0.5814997,-0.58593255,0
-1.2302127,-2.637727,-1.0671055,0.56439459,-0.5814997,-0.58593255,0
0.91676742,1.6516184,1.5276554,-0.56439459,0.5814997,0.58593255,0
2.4518197,-0.32807362,2.809375,0.8254149,0.3870227,0.41097897,0
-0.9938525,1.7418745,-1.8514268,0.012214959,0.71559179,-0.69841206,0
0.057378292,2.6805494,-0.84412408,0.012214959,0.71559179,-0.69841206,0
-3.2205467,-1.944445,0.9580363,-0.8254149,-0.3870227,-0.41097897,0
2.6388762,2.4921813,-0.77582085,0.012214959,0.71559179,-0.69841206,0
-1.6934707,-2.9396534,0.5095861,-0.012214959,-0.71559179,0.69841206,0
-2.8005419,-2.1438246,0.28785253,-0.8254149,-0.3870227,-0.41097897,0
-2.11095,1.6947316,-1.6457486,0.012214959,0.71559179,-0.69841206,0
-0.63671255,-2.7766645,-0.72742909,0.56439459,-0.5814997,-0.58593255,0
-1.6045551,-0.026350737,1.057694,-0.56439459,0.5814997,0.58593255,0
-1.2146652,-2.2712715,1.3587098,-0.012214959,-0.71559179,0.69841206,0
-0.29135251,1.4332354,-2.3638763,0.012214959,0.71559179,-0.69841206,0
-1.8737717,0.37776208,-3.2847209,0.012214959,0.71559179,-0.69841206,0
0.018258095,0.076618284,2.6312852,-0.56439459,0.5814997,0.58593255,0
-1.8061975,-0.96676856,-2.6392465,-0.8254149,-0.3870227,-0.41097897,0
2.9967618,2.1024227,-0.81968927,0.8254149,0.3870227,0.41097897,0
1.0499164,-1.4009426,2.2127063,-0.012214959,-0.71559179,0.69841206,0
1.0340538,-0.58575213,2.9484434,-0.012214959,-0.71559179,0.69841206,0
-0.4049232,-2.9093552,0.45646644,-0.012214959,-0.71559179,0.69841206,0
1.7143693,-1.7630244,1.7711302,-0.012214959,-0.71559179,0.69841206,0
0.40298581,0.82354176,-2.6758535,0.012214959,0.71559179,-0.69841206,0
-2.4903226,-2.4168544,1.0668241,-0.012214959,-0.71559179,0.69841206,0
-1.9692929,-0.75188768,-2.4873469,-0.8254149,-0.3870227,-0.41097897,0
1.9535203,-1.3970464,2.2537704,-0.012214959,-0.71559179,0.69841206,0
-1.6462303,-1.8560276,-2.0561302,-0.8254149,-0.3870227,-0.41097897,0
2.0347347,0.69351757,2.5379989,0.8254149,0.3870227,0.41097897,0
-0.62774587,-1.4236259,-1.4352269,0.56439459,-0.5814997,-0.58593255,0
-2.9080343,-1.8214908,1.6698074,-0.012214959,-0.71559179,0.69841206,0
0.82896614,3.1483383,-0.59380937,0.012214959,0.71559179,-0.69841206,0
2.6078849,1.6468436,0.50719786,0.8254149,0.3870227,0.41097897,0
2.2301962,-0.60747421,0.16695821,0.56439459,-0.5814997,-0.58593255,0
2.9431686,2.2150674,-1.0304908,0.012214959,0.71559179,-0.69841206,0
1.1190674,0.36850497,3.320441,-0.56439459,0.5814997,0.58593255,0
0.086078882,-1.0750051,2.3353226,-0.012214959,-0.71559179,0.69841206,0
-1.1300867,0.99448812,0.49100906,-0.56439459,0.5814997,0.58593255,0
0.97751522,-2.1644149,1.5123806,-0.012214959,-0.71559179,0.69841206,0
2.8041546,0.47822964,0.80803418,0.8254149,0.3870227,0.41097897,0
-0.88862276,-3.2932205,0.19277802,-0.012214959,-0.71559179,0.69841206,0
0.47239518,-0.48101479,-1.696877,0.56439459,-0.5814997,-0.58593255,0
-0.38863027,2.8946958,-0.37568575,0.012214959,0.71559179,-0.69841206,0
-0.72087312,1.5673996,-2.2270303,0.012214959,0.71559179,-0.69841206,0
-1.4077501,0.34947181,0.63205266,-0.56439459,0.5814997,0.58593255,0
1.8269042,2.8622975,1.0223863,0.8254149,0.3870227,0.41097897,0
-2.0534468,0.16570318,0.2508924,-0.56439459,0.5814997,0.58593255,0
-0.0047500134,2.8201218,-0.62075746,0.012214959,0.71559179,-0.69841206,0
-1.6095326,-2.7562077,-1.1509733,-0.8254149,-0.3870227,-0.41097897,0
-1.7955639,-0.91002083,1.6610513,-0.56439459,0.5814997,0.58593255,0
-1.446694,1.6139324,-2.193881,0.012214959,0.71559179,-0.69841206,0
-3.2932642,-0.83113921,-0.14655876,-0.8254149,-0.3870227,-0.41097897,0
-2.3896773,1.0791287,-2.238301,0.012214959,0.71559179,-0.69841206,0
-2.1326919,-0.8670615,-2.2506943,-0.8254149,-0.3870227,-0.41097897,0
1.2722138,-1.5079175,0.051553965,0.56439459,-0.5814997,-0.58593255,0
2.0505133,-1.0052745,0.23804629,0.56439459,-0.5814997,-0.58593255,0
2.8334281,1.5046651,-0.028751493,0.8254149,0.3870227,0.41097897,0
-1.5935845,-0.49330103,-3.327044,0.56439459,-0.5814997,-0.58593255,0
1.7380643,2.7053876,-0.96387368,0.012214959,0.71559179,-0.69841206,0
-2.5435493,0.39448595,-2.1189094,-0.8254149,-0.3870227,-0.41097897,0
-2.1448998,-3.2189713,0.059277415,-0.8254149,-0.3870227,-0.41097897,0
-0.22098148,-0.38291782,-2.1622713,0.56439459,-0.5814997,-0.58593255,0
1.346961,-1.9812944,1.8311803,-0.012214959,-0.71559179,0.69841206,0
-1.2599065,0.16737372,-3.1981752,0.012214959,0.71559179,-0.69841206,0
-0.43697542,-2.3834066,-0.82422495,0.56439459,-0.5814997,-0.58593255,0
1.059629,0.32236934,3.3930271,-0.56439459,0.5814997,0.58593255,0
-2.2870953,-2.8589814,-0.42675185,-0.8254149,-0.3870227,-0.41097897,0
-2.0239611,0.13678372,-2.9291091,-0.8254149,-0.3870227,-0.41097897,0
-2.640656,-1.1417124,1.0136647,-0.56439459,0.5814997,0.58593255,0
-2.4618559,-0.017933488,-2.1559491,-0.8254149,-0.3870227,-0.41097897,0
-2.8610547,0.6372385,-2.1817801,-0.8254149,-0.3870227,-0.41097897,0
1.64819,-2.3556075,1.1118543,0.56439459,-0.5814997,-0.58593255,0
2.4493973,-0.50248826,2.7979815,0.8254149,0.3870227,0.41097897,0
-2.4576538,0.060878158,-1.9830362,-0.8254149,-0.3870227,-0.41097897,0
0.21773654,2.1384497,0.70335025,-0.56439459,0.5814997,0.58593255,0
-2.438539,-1.5843494,-0.79482937,-0.8254149,-0.3870227,-0.41097897,0
-0.11334229,-0.082885966,2.575582,-0.56439459,0.5814997,0.58593255,0
2.0735564,-1.9678212,1.8016739,-0.012214959,-0.71559179,0.69841206,0
-1.0324099,-1.9108791,-1.7651756,0.56439459,-0.5814997,-0.58593255,0
-3.2249269,-0.72629225,-0.17992902,-0.8254149,-0.3870227,-0.41097897,0
2.243839,-1.6762724,1.6800975,-0.012214959,-0.71559179,0.69841206,0
1.338202,2.1971481,1.8101125,-0.56439459,0.5814997,0.58593255,0
0.4398458,1.738721,-1.9038438,0.012214959,0.71559179,-0.69841206,0
2.4186158,-1.6260842,1.2847621,0.56439459,-0.5814997,-0.58593255,0
-0.53728539,1.0900319,0.92390567,-0.56439459,0.5814997,0.58593255,0
-0.18112469,-0.73734158,2.8106489,-0.012214959,-0.71559179,0.69841206,0
2.6193123,-0.044071317,1.6252065,0.8254149,0.3870227,0.41097897,0
0.041461945,-2.3584316,1.2664353,-0.012214959,-0.71559179,0.69841206,0
-1.5994051,-3.5313177,-0.068742692,-0.012214959,-0.71559179,0.69841206,0
1.2673278,2.7760177,1.3631957,-0.56439459,0.5814997,0.58593255,0
2.7494833,1.4109861,0.048999548,0.8254149,0.3870227,0.41097897,0
-0.58947146,1.6713641,-1.8085855,0.012214959,0.71559179,-0.69841206,0
-1.0172236,-1.2848265,-1.9998918,0.56439459,-0.5814997,-0.58593255,0
0.14372796,-1.068536,-1.6626784,0.56439459,-0.5814997,-0.58593255,0
-2.4364052,-0.46746045,-2.0706422,-0.8254149,-0.3870227,-0.41097897,0
-1.0237994,-1.0668141,-2.8078725,0.56439459,-0.5814997,-0.58593255,0
-3.0845087,-1.9963604,0.95335793,-0.8254149,-0.3870227,-0.41097897,0
-2.2271013,1.5838217,-1.0198641,-0.56439459,0.5814997,0.58593255,0
1.1846139,2.2565274,-1.4486797,0.012214959,0.71559179,-0.69841206,0
-0.045199156,1.9282323,-1.8445194,0.012214959,0.71559179,-0.69841206,0
-0.72533405,-2.6404929,-0.89166528,0.56439459,-0.5814997,-0.58593255,0
-0.046659112,-2.7050176,0.041111931,0.56439459,-0.5814997,-0.58593255,0
-2.8665092,-0.41578805,-1.2987201,-0.8254149,-0.3870227,-0.41097897,0
1.8543601,1.4256575,1.8291383,0.8254149,0.3870227,0.41097897,0
-0.54621685,2.3248024,-0.10129893,-0.56439459,0.5814997,0.58593255,0
0.92021906,-2.4435177,0.74000496,0.56439459,-0.5814997,-0.58593255,0
0.10548508,0.64600593,2.2880678,-0.56439459,0.5814997,0.58593255,0
0.55921662,0.57591188,2.732337,-0.56439459,0.5814997,0.58593255,0
-1.6821194,1.1534667,-2.3807883,0.012214959,0.71559179,-0.69841206,0
-0.39011931,-3.0362837,0.6975401,-0.012214959,-0.71559179,0.69841206,0
-2.3327456,-1.9107472,1.3760698,-0.012214959,-0.71559179,0.69841206,0
1.5257723,3.051806,-0.27207798,0.012214959,0.71559179,-0.69841206,0
1.7402116,0.87389094,3.2584059,0.8254149,0.3870227,0.41097897,0
-0.36815143,-3.1596501,0.56693727,-0.012214959,-0.71559179,0.69841206,0
-1.7477274,2.1817784,-1.6128279,0.012214959,0.71559179,-0.69841206,0
2.1921818,-1.1044905,2.6947317,-0.012214959,-0.71559179,0.69841206,0
2.8374104,0.93877208,-1.090155,0.56439459,-0.5814997,-0.58593255,0
1.4902868,-0.83592349,-0.21339381,0.56439459,-0.5814997,-0.58593255,0
3.0314696,0.79595006,0.63563871,0.8254149,0.3870227,0.41097897,0
-2.6205297,-2.0443964,0.13418388,-0.8254149,-0.3870227,-0.41097897,0
-2.4119451,-1.3874252,1.454686,-0.56439459,0.5814997,0.58593255,0
-2.231137,-1.5305763,2.0389552,-0.56439459,0.5814997,0.58593255,0
1.6038733,-2.2754595,1.472671,-0.012214959,-0.71559179,0.69841206,0
-2.9593272,-0.34242511,-1.0588768,-0.8254149,-0.3870227,-0.41097897,0
-2.7404902,0.29253137,-1.7477849,-0.8254149,-0.3870227,-0.41097897,0
1.3005041,3.2909262,0.79123563,-0.56439459,0.5814997,0.58593255,0
3.0961692,-1.0583303,2.485085,0.8254149,0.3870227,0.41097897,0
2.1667159,-0.61710715,3.0310583,-0.012214959,-0.71559179,0.69841206,0
1.5171251,3.6629617,0.34709185,-0.56439459,0.5814997,0.58593255,0
1.4035479,-0.8498078,2.5967712,-0.012214959,-0.71559179,0.69841206,0
-1.354634,-1.1012076,2.408052,-0.012214959,-0.71559179,0.69841206,0
-1.8630884,-1.6661327,2.112957,-0.012214959,-0.71559179,0.69841206,0
2.4822903,2.1955161,-1.5235964,0.012214959,0.71559179,-0.69841206,0
0.66485167,1.6463747,-1.7757771,0.012214959,0.71559179,-0.69841206,0
-0.15891171,2.7038109,-0.6311363,0.012214959,0.71559179,-0.69841206,0
2.7636752,-1.1928571,2.5860512,-0.012214959,-0.71559179,0.69841206,0
-0.24980783,1.3055279,1.0522815,-0.56439459,0.5814997,0.58593255,0
-1.8832548,-1.5519583,-1.7709692,-0.8254149,-0.3870227,-0.41097897,0
-2.1045973,1.0557131,-2.2942514,0.012214959,0.71559179,-0.69841206,0
1.8321593,1.5278528,2.1991148,0.8254149,0.3870227,0.41097897,0
2.0086713,-0.81432164,0.20798135,0.56439459,-0.5814997,-0.58593255,0
-1.6429002,-3.5918646,-0.40066558,0.56439459,-0.5814997,-0.58593255,0
-2.9572859,1.3162483,-2.1327631,0.012214959,0.71559179,-0.69841206,0
-2.6894212,-0.63223648,0.55330682,-0.56439459,0.5814997,0.58593255,0
0.41669011,1.9848756,-1.7958939,0.012214959,0.71559179,-0.69841206,0
2.3341012,2.0101109,0.29160774,0.8254149,0.3870227,0.41097897,0
-1.2254521,-1.1423333,-2.5269821,0.56439459,-0.5814997,-0.58593255,0
0.52285099,-1.1207147,2.5550487,-0.012214959,-0.71559179,0.69841206,0
1.1212263,3.2711451,-0.42701694,0.012214959,0.71559179,-0.69841206,0
2.3151023,-1.8011878,1.6911216,-0.012214959,-0.71559179,0.69841206,0
0.012847885,1.3865492,1.352318,-0.56439459,0.5814997,0.58593255,0
1.3907481,-1.4386104,2.1487679,-0.012214959,-0.71559179,0.69841206,0
-2.1725645,0.70520723,-3.1611414,0.012214959,0.71559179,-0.69841206,0
1.6091552,-1.3030556,2.3818197,-0.012214959,-0.71559179,0.69841206,0
2.5287049,2.4559252,-0.95297974,0.012214959,0.71559179,-0.69841206,0
-0.64014959,2.1026599,-1.168129,0.012214959,0.71559179,-0.69841206,0
1.7524704,-0.17806697,-0.99859619,0.56439459,-0.5814997,-0.58593255,0
-1.7784692,-2.3275771,-1.1635079,-0.8254149,-0.3870227,-0.41097897,0
-1.5955876,1.4479942,-0.70181561,-0.56439459,0.5814997,0.58593255,0
-1.6185887,-1.5262508,-2.9056606,0.56439459,-0.5814997,-0.58593255,0
1.9107562,-1.3387026,2.4876792,-0.012214959,-0.71559179,0.69841206,0
-0.011218458,1.4456557,1.044441,-0.56439459,0.5814997,0.58593255,0
-1.837955,-1.2678963,-2.5499911,-0.8254149,-0.3870227,-0.41097897,0
-1.2093866,-3.5540831,0.084431261,0.56439459,-0.5814997,-0.58593255,0
1.2574084,2.2711165,1.3405693,-0.56439459,0.5814997,0.58593255,0
-0.039974928,0.037906498,-2.3669283,0.56439459,-0.5814997,-0.58593255,0
-1.931774,-0.94958162,1.3731556,-0.56439459,0.5814997,0.58593255,0
-0.31195962,-0.34145343,-2.3826191,0.56439459,-0.5814997,-0.58593255,0
2.8566875,0.51164818,0.69293404,0.8254149,0.3870227,0.41097897,0
2.3468711,0.80102825,2.2846656,0.8254149,0.3870227,0.41097897,0
0.99917054,-0.4764331,2.8512926,-0.012214959,-0.71559179,0.69841206,0
2.7840629,-1.1450199,1.2493718,0.56439459,-0.5814997,-0.58593255,0
0.52796465,1.8427296,1.346156,-0.56439459,0.5814997,0.58593255,0
2.9167979,2.1985099,-1.133602,0.012214959,0.71559179,-0.69841206,0
2.5731819,-0.15812349,-0.11363685,0.56439459,-0.5814997,-0.58593255,0
-0.25667381,-0.80150902,2.5634146,-0.012214959,-0.71559179,0.69841206,0
-1.4442136,0.99206585,-2.519598,0.012214959,0.71559179,-0.69841206,0
-1.9919052,-3.3676252,0.23317057,-0.8254149,-0.3870227,-0.41097897,0
1.7811505,3.6509924,0.45308882,-0.56439459,0.5814997,0.58593255,0
-0.39577362,-1.0680053,-1.7864637,0.56439459,-0.5814997,-0.58593255,0
-1.7925471,1.0440527,-0.19312108,-0.56439459,0.5814997,0.58593255,0
1.2745562,1.1817956,-2.4086599,0.012214959,0.71559179,-0.69841206,0
-1.6363606,-0.86122358,-2.7736702,-0.8254149,-0.3870227,-0.41097897,0
1.7635601,1.7246616,1.7491711,0.8254149,0.3870227,0.41097897,0
1.2862259,-2.0524411,1.5917975,-0.012214959,-0.71559179,0.69841206,0
1.8018358,3.4795451,0.21829522,0.012214959,0.71559179,-0.69841206,0
0.016973019,2.3772464,-1.3731872,0.012214959,0.71559179,-0.69841206,0
1.9881706,0.014938354,-0.93839794,0.56439459,-0.5814997,-0.58593255,0
-2.9081357,-0.05557704,0.029148817,-0.56439459,0.5814997,0.58593255,0
0.65940928,0.38852772,-2.4907479,0.56439459,-0.5814997,-0.58593255,0
-0.751333,-0.66219652,2.2896669,-0.56439459,0.5814997,0.58593255,0
2.62129,1.2338423,1.1778721,0.8254149,0.3870227,0.41097897,0
2.6588118,0.351789,1.6325841,0.8254149,0.3870227,0.41097897,0
3.2963676,-0.88802493,1.1915181,0.56439459,-0.5814997,-0.58593255,0
0.13203216,-0.34533855,2.9749174,-0.012214959,-0.71559179,0.69841206,0
2.2207587,-0.99238968,2.8766587,-0.012214959,-0.71559179,0.69841206,0
2.0497696,2.1938682,0.66268122,0.8254149,0.3870227,0.41097897,0
2.8670835,0.93194538,0.8239274,0.8254149,0.3870227,0.41097897,0
1.9326187,1.1871809,2.7380409,0.8254149,0.3870227,0.41097897,0
1.6128262,0.34657192,3.735949,0.8254149,0.3870227,0.41097897,0
-3.3397713,-0.38986015,-0.39113331,-0.8254149,-0.3870227,-0.41097897,0
-1.8010278,-3.1379428,0.55916107,-0.012214959,-0.71559179,0.69841206,0
-2.0440824,-0.89627022,-2.4977884,-0.8254149,-0.3870227,-0.41097897,0
2.2271924,0.19819009,2.287046,0.8254149,0.3870227,0.41097897,0
-2.5461745,-1.6533284,1.5914364,-0.012214959,-0.71559179,0.69841206,0
0.36293101,-1.1736634,2.4346166,-0.012214959,-0.71559179,0.69841206,0
-2.6429453,-1.1042247,-1.3147687,-0.8254149,-0.3870227,-0.41097897,0
1.1868852,-0.61898381,2.7909493,-0.012214959,-0.71559179,0.69841206,0
-0.69251442,-2.3167164,1.0468037,-0.012214959,-0.71559179,0.69841206,0
-2.3678074,-1.3430604,-0.85002267,-0.8254149,-0.3870227,-0.41097897,0
-2.6322353,0.41726744,-2.1925967,-0.8254149,-0.3870227,-0.41097897,0
-2.1986959,2.0613773,-1.4049263,-0.56439459,0.5814997,0.58593255,0
0.72677302,1.5999027,-1.9603072,0.012214959,0.71559179,-0.69841206,0
3.1575496,-0.08234024,1.1563528,0.8254149,0.3870227,0.41097897,0
-2.7155218,1.3463329,-1.9841144,0.012214959,0.71559179,-0.69841206,0
-2.0541496,-2.4703231,-0.8105005,-0.8254149,-0.3870227,-0.41097897,0
0.78542614,-1.8364826,0.21605164,0.56439459,-0.5814997,-0.58593255,0
0.88666344,-1.3708111,1.9276556,-0.012214959,-0.71559179,0.69841206,0
-2.5417693,-2.3150284,0.92431152,-0.012214959,-0.71559179,0.69841206,0
-1.4617033,0.13397038,-3.5368364,0.012214959,0.71559179,-0.69841206,0
-2.3271296,-2.5507097,-0.24543047,-0.8254149,-0.3870227,-0.41097897,0
1.6335099,-1.4096298,0.62765014,0.56439459,-0.5814997,-0.58593255,0
-3.3732209,-1.5028917,0.43291485,-0.8254149,-0.3870227,-0.41097897,0
0.2806685,3.0375607,-0.33519661,0.012214959,0.71559179,-0.69841206,0
2.6213667,0.69214505,1.5857077,0.8254149,0.3870227,0.41097897,0
2.7839777,-1.2754346,1.3765271,0.56439459,-0.5814997,-0.58593255,0
2.3367054,2.6627862,-0.59764355,0.012214959,0.71559179,-0.69841206,0
3.2041039,0.47993696,-0.28405619,0.56439459,-0.5814997,-0.58593255,0
-1.0916345,-2.9034593,-0.74473506,0.56439459,-0.5814997,-0.58593255,0
-2.1705697,-0.20363688,-2.9319034,-0.8254149,-0.3870227,-0.41097897,0
2.8492615,-0.64900005,2.5677578,0.8254149,0.3870227,0.41097897,0
-1.0641992,-2.3801992,1.1566024,-0.012214959,-0.71559179,0.69841206,0
2.0348914,0.4861095,3.0284433,0.8254149,0.3870227,0.41097897,0
-3.3502989,-0.88898873,0.22732258,-0.8254149,-0.3870227,-0.41097897,0
-0.37390399,-2.306478,1.1293533,-0.012214959,-0.71559179,0.69841206,0
2.1212857,1.4369273,1.9847944,0.8254149,0.3870227,0.41097897,0
3.0823102,1.5840327,-0.048760414,0.8254149,0.3870227,0.41097897,0
-2.0365052,0.48958445,-3.1017087,0.012214959,0.71559179,-0.69841206,0
-2.3888273,1.4096755,-2.0291014,0.012214959,0.71559179,-0.69841206,0
-2.0055604,0.86796749,-2.4738059,0.012214959,0.71559179,-0.69841206,0
3.0909064,-0.6532563,1.5287385,0.8254149,0.3870227,0.41097897,0
-2.7924933,-2.3298969,1.0280478,-0.012214959,-0.71559179,0.69841206,0
2.1533637,-0.29339099,2.8931546,0.8254149,0.3870227,0.41097897,0
1.6213477,2.8962159,0.93025935,-0.56439459,0.5814997,0.58593255,0
2.4019866,0.74296409,-0.78025764,0.56439459,-0.5814997,-0.58593255,0
-1.1802657,-2.2153563,1.5614487,-0.012214959,-0.71559179,0.69841206,0
-2.4963231,-0.19670796,-1.645733,-0.8254149,-0.3870227,-0.41097897,0
-3.0889442,1.3963369,-2.0452108,0.012214959,0.71559179,-0.69841206,0
-1.3003446,1.9305663,-1.5365235,0.012214959,0.71559179,-0.69841206,0
-1.8096616,-2.5790548,0.93175089,-0.012214959,-0.71559179,0.69841206,0
2.4569073,2.2515767,0.54742038,0.8254149,0.3870227,0.41097897,0
-0.65694261,-0.55744493,2.471329,-0.56439459,0.5814997,0.58593255,0
0.96384501,0.22400782,3.155092,-0.56439459,0.5814997,0.58593255,0
-0.34970236,-0.993828,-2.2238171,0.56439459,-0.5814997,-0.58593255,0
3.5131524,0.80541563,-0.23348022,0.8254149,0.3870227,0.41097897,0
-2.564081,-0.77974993,-1.6442952,-0.8254149,-0.3870227,-0.41097897,0
0.25055504,-2.5619664,0.14895168,0.56439459,-0.5814997,-0.58593255,0
-3.3986003,0.094612598,-0.76423407,-0.8254149,-0.3870227,-0.41097897,0
3.0346558,1.1410121,-0.51130772,0.56439459,-0.5814997,-0.58593255,0
1.8705325,-0.81666636,-0.22291946,0.56439459,-0.5814997,-0.58593255,0
0.46061134,-0.22984409,-1.668776,0.56439459,-0.5814997,-0.58593255,0
3.3117876,1.0947973,-0.64049125,0.56439459,-0.5814997,-0.58593255,0
-3.2054284,0.18323255,-0.45949936,-0.56439459,0.5814997,0.58593255,0
0.57477236,-1.5584673,2.0493293,-0.012214959,-0.71559179,0.69841206,0
1.5831542,2.9852996,-0.26483583,0.012214959,0.71559179,-0.69841206,0
0.27540493,0.66933548,1.8570888,-0.56439459,0.5814997,0.58593255,0
-0.18301558,-3.234158,0.4668169,-0.012214959,-0.71559179,0.69841206,0
-1.955642,0.92681789,-2.6849036,0.012214959,0.71559179,-0.69841206,0
-0.67529964,-0.82155466,2.685288,-0.56439459,0.5814997,0.58593255,0
0.22256446,2.9785514,-0.51436001,0.012214959,0.71559179,-0.69841206,0
-2.0889835,1.4560266,-1.9586895,0.012214959,0.71559179,-0.69841206,0
-2.0395725,-2.5122356,-0.73483503,-0.8254149,-0.3870227,-0.41097897,0
-2.6576436,1.644946,-1.6467271,-0.56439459,0.5814997,0.58593255,0
0.49646306,3.1636057,-0.16886684,0.012214959,0.71559179,-0.69841206,0
-2.092993,0.82314372,-2.9313416,0.012214959,0.71559179,-0.69841206,0
2.6693113,0.26288474,-0.084015727,0.56439459,-0.5814997,-0.58593255,0
2.8716702,0.74274135,1.0525064,0.8254149,0.3870227,0.41097897,0
1.98299,-0.17641884,3.140228,0.8254149,0.3870227,0.41097897,0
-3.1710982,-0.17571795,-0.17809701,-0.56439459,0.5814997,0.58593255,0
-2.6016932,0.29903734,-2.2338083,-0.8254149,-0.3870227,-0.41097897,0
-0.98898983,-3.0500083,0.24508318,-0.012214959,-0.71559179,0.69841206,0
0.39383256,-2.8048158,0.50984645,0.56439459,-0.5814997,-0.58593255,0
-3.1683006,-1.1070135,0.35710812,-0.8254149,-0.3870227,-0.41097897,0
3.005002,-0.63994181,2.3092265,0.8254149,0.3870227,0.41097897,0
1.6052468,2.1197932,-1.3446376,0.012214959,0.71559179,-0.69841206,0
-2.4899292,-2.4003665,0.047299027,-0.8254149,-0.3870227,-0.41097897,0
-2.754771,0.2249397,-2.459486,-0.8254149,-0.3870227,-0.41097897,0
-1.8603792,1.9393328,-1.148543,-0.56439459,0.5814997,0.58593255,0
2.2236445,0.28662997,2.3444982,0.8254149,0.3870227,0.41097897,0
2.4095747,2.6068723,0.39057612,0.8254149,0.3870227,0.41097897,0
-1.4964939,-2.5680082,-1.3976073,0.56439459,-0.5814997,-0.58593255,0
2.0487483,3.0922179,-0.25626099,0.012214959,0.71559179,-0.69841206,0
1.784862,3.0757358,-0.44419885,0.012214959,0.71559179,-0.69841206,0
1.6646229,-1.7228878,0.75897062,0.56439459,-0.5814997,-0.58593255,0
2.4537206,2.6808629,0.16133273,0.8254149,0.3870227,0.41097897,0
-1.3557451,1.0513787,-2.6520317,0.012214959,0.71559179,-0.69841206,0
-0.96463847,-0.37788108,1.9672594,-0.56439459,0.5814997,0.58593255,0
-1.4970567,1.6568854,-1.9703507,0.012214959,0.71559179,-0.69841206,0
-0.31462121,1.6147786,-2.0434134,0.012214959,0.71559179,-0.69841206,0
1.5110292,2.3277025,-1.3963953,0.012214959,0.71559179,-0.69841206,0
-0.84447885,-0.26487854,-3.05932,0.56439459,-0.5814997,-0.58593255,0
1.7088486,-1.5811143,2.1996775,-0.012214959,-0.71559179,0.69841206,0
1.9520116,3.2010331,-0.02910924,0.012214959,0.71559179,-0.69841206,0
1.6011446,-1.308831,2.1231983,-0.012214959,-0.71559179,0.69841206,0
1.2979292,-0.80463195,-0.5948813,0.56439459,-0.5814997,-0.58593255,0
2.2587025,-0.29693127,2.7463117,0.8254149,0.3870227,0.41097897,0
-0.59497905,1.7518809,0.45462477,-0.56439459,0.5814997,0.58593255,0
2.7111452,1.5700512,0.63425791,0.8254149,0.3870227,0.41097897,0
-2.097976,-3.4219074,-0.071700335,-0.8254149,-0.3870227,-0.41097897,0
1.9602069,-0.32121348,-0.11050272,0.56439459,-0.5814997,-0.58593255,0
-2.1201499,1.7212166,-1.3826207,-0.56439459,0.5814997,0.58593255,0
2.6557589,-1.2658837,2.1073828,-0.012214959,-0.71559179,0.69841206,0
-1.9071422,1.5478522,-0.66785872,-0.56439459,0.5814997,0.58593255,0
-2.7136817,1.5542423,-1.93204,-0.56439459,0.5814997,0.58593255,0
2.5493627,-0.074978113,1.9392253,0.8254149,0.3870227,0.41097897,0
-2.6817982,-0.14790118,0.19216001,-0.56439459,0.5814997,0.58593255,0
-0.97261381,-1.0377945,2.5318184,-0.012214959,-0.71559179,0.69841206,0
-2.7245784,-0.68582952,0.44002402,-0.56439459,0.5814997,0.58593255,0
-2.8636193,0.89963078,-2.1329694,-0.8254149,-0.3870227,-0.41097897,0
3.228703,1.8377748,-1.0693636,0.56439459,-0.5814997,-0.58593255,0
-0.95693612,1.9550163,-1.3597065,0.012214959,0.71559179,-0.69841206,0
3.0234251,0.6973033,-0.61240673,0.56439459,-0.5814997,-0.58593255,0
-1.4702744,-2.7741523,-1.0576098,0.56439459,-0.5814997,-0.58593255,0
-0.85624826,0.9460181,-2.8594344,0.012214959,0.71559179,-0.69841206,0
2.4157374,-1.3769087,2.1302826,-0.012214959,-0.71559179,0.69841206,0
2.6198795,2.9350986,-0.58181763,0.8254149,0.3870227,0.41097897,0
-0.98762667,1.4354476,-2.2936935,0.012214959,0.71559179,-0.69841206,0
-2.6743855,-0.20071411,-1.8284531,-0.8254149,-0.3870227,-0.41097897,0
-2.6778369,-2.1605515,0.08175385,-0.8254149,-0.3870227,-0.41097897,0
2.2122073,2.7551084,0.50684309,0.8254149,0.3870227,0.41097897,0
1.9983311,1.4146532,-1.7657135,0.56439459,-0.5814997,-0.58593255,0
2.8797569,1.8179719,0.071189642,0.8254149,0.3870227,0.41097897,0
-2.5074058,-2.6608844,0.28724837,-0.8254149,-0.3870227,-0.41097897,0
0.48987871,1.6651665,1.4801096,-0.56439459,0.5814997,0.58593255,0
0.27186632,2.4980018,-0.97432417,0.012214959,0.71559179,-0.69841206,0
-1.5976063,-2.4506102,-1.3204618,-0.8254149,-0.3870227,-0.41097897,0
1.7629354,1.7505201,-1.4753584,0.012214959,0.71559179,-0.69841206,0
-2.3812747,-0.23703039,-2.6625283,-0.8254149,-0.3870227,-0.41097897,0
2.050842,1.9221649,1.1981269,0.8254149,0.3870227,0.41097897,0
3.2145452,0.55119503,0.53175855,0.8254149,0.3870227,0.41097897,0
-3.2089221,-1.6836267,0.83845663,-0.56439459,0.5814997,0.58593255,0
-0.077113807,2.0929329,0.59143913,-0.56439459,0.5814997,0.58593255,0
1.1418359,2.1916137,1.7091957,-0.56439459,0.5814997,0.58593255,0
2.4699841,1.6716959,0.62952495,0.8254149,0.3870227,0.41097897,0
2.9348421,0.89965093,-0.44858575,0.56439459,-0.5814997,-0.58593255,0
-1.5159729,-0.42502964,-3.7921424,0.56439459,-0.5814997,-0.58593255,0
1.8648248,2.6236935,-1.0500412,0.012214959,0.71559179,-0.69841206,0
-1.7550731,-0.43315873,-2.8835607,-0.8254149,-0.3870227,-0.41097897,0
0.84398532,-1.5105263,2.2232728,-0.012214959,-0.71559179,0.69841206,0
-0.67841291,-0.84888363,2.4099669,-0.56439459,0.5814997,0.58593255,0
-2.1004999,0.82484233,-0.37786794,-0.56439459,0.5814997,0.58593255,0
2.0864909,2.6350214,-0.73164845,0.012214959,0.71559179,-0.69841206,0
-1.9815348,-2.7173886,-0.46156693,-0.8254149,-0.3870227,-0.41097897,0
-1.0759743,1.7916236,-1.8943979,0.012214959,0.71559179,-0.69841206,0
0.2095232,1.5788097,-1.7463769,0.012214959,0.71559179,-0.69841206,0
2.9886813,-0.47433579,1.7915838,0.8254149,0.3870227,0.41097897,0
-1.3735151,-0.32490784,-3.6698296,0.012214959,0.71559179,-0.69841206,0
-0.39776349,0.087015718,1.9646502,-0.56439459,0.5814997,0.58593255,0
-2.0211153,-2.1653066,-1.6784986,-0.8254149,-0.3870227,-0.41097897,0
0.14679766,-0.20272765,-1.972702,0.56439459,-0.5814997,-0.58593255,0
-0.016708612,1.3371795,-2.1722145,0.012214959,0.71559179,-0.69841206,0
1.6911323,0.11656117,3.5633836,0.8254149,0.3870227,0.41097897,0
-0.69382799,0.98106927,0.6550951,-0.56439459,0.5814997,0.58593255,0
2.9698675,0.74207032,0.47681427,0.8254149,0.3870227,0.41097897,0
-1.9359655,0.68189651,-2.696734,0.012214959,0.71559179,-0.69841206,0
-1.6818733,-2.3993616,0.94659865,-0.012214959,-0.71559179,0.69841206,0
-2.2713721,1.9120085,-1.7508044,0.012214959,0.71559179,-0.69841206,0
2.1235185,1.1185724,2.3922081,0.8254149,0.3870227,0.41097897,0
-2.3137462,0.102566,-2.5203774,-0.8254149,-0.3870227,-0.41097897,0
2.9135373,0.12353265,1.3085332,0.8254149,0.3870227,0.41097897,0
1.9311078,3.5409875,-0.1786136,0.012214959,0.71559179,-0.69841206,0
-2.9759169,-1.5493547,0.33104181,-0.8254149,-0.3870227,-0.41097897,0
-3.0986643,0.83820331,-1.437901,-0.56439459,0.5814997,0.58593255,0
-1.2523539,-2.2620411,1.0774444,-0.012214959,-0.71559179,0.69841206,0
-2.6099477,0.64583457,-0.60841846,-0.56439459,0.5814997,0.58593255,0
2.9042678,-0.14667201,1.9855216,0.8254149,0.3870227,0.41097897,0
-1.6704845,-2.9691494,0.31598246,-0.012214959,-0.71559179,0.69841206,0
-3.2489467,-1.6602285,0.38519764,-0.8254149,-0.3870227,-0.41097897,0
-0.58115256,2.5950532,-0.74496716,0.012214959,0.71559179,-0.69841206,0
-1.8711295,-2.8098202,-0.84013057,-0.8254149,-0.3870227,-0.41097897,0
2.4412408,-1.2182897,0.95031989,0.56439459,-0.5814997,-0.58593255,0
3.024992,0.61824906,0.99178767,0.8254149,0.3870227,0.41097897,0
-2.7824738,-2.0509076,1.1651828,-0.012214959,-0.71559179,0.69841206,0
2.2337127,0.89880776,1.7894902,0.8254149,0.3870227,0.41097897,0
0.14861822,-1.6364079,2.1396511,-0.012214959,-0.71559179,0.69841206,0
1.8959684,1.17984,2.1056213,0.8254149,0.3870227,0.41097897,0
1.7249897,-0.80345678,-0.12027788,0.56439459,-0.5814997,-0.58593255,0
2.751689,0.35784686,-0.23437166,0.56439459,-0.5814997,-0.58593255,0
1.8863128,-0.069919229,-0.89285868,0.56439459,-0.5814997,-0.58593255,0
1.9781861,0.62043488,2.7343459,0.8254149,0.3870227,0.41097897,0
1.1274769,3.2378423,-0.0004145503,0.012214959,0.71559179,-0.69841206,0
2.0374446,2.36303,0.6720854,0.8254149,0.3870227,0.41097897,0
2.0637832,1.6859038,-2.0650101,0.012214959,0.71559179,-0.69841206,0
1.1200362,-0.079981953,3.2440543,-0.012214959,-0.71559179,0.69841206,0
-0.27446675,-0.048750311,-2.6850257,0.56439459,-0.5814997,-0.58593255,0
-0.87194765,2.4958138,-0.41717911,-0.56439459,0.5814997,0.58593255,0
0.97849321,-1.9273193,1.6531739,-0.012214959,-0.71559179,0.69841206,0
3.2092049,-0.10263109,1.2049329,0.8254149,0.3870227,0.41097897,0
-0.20873073,1.3292288,1.0482229,-0.56439459,0.5814997,0.58593255,0
-1.5168469,-1.6182072,1.6385057,-0.012214959,-0.71559179,0.69841206,0
1.8959515,-1.0550517,2.2497826,-0.012214959,-0.71559179,0.69841206,0
-2.881295,0.058689952,0.028661966,-0.56439459,0.5814997,0.58593255,0
1.8029286,1.9441276,1.3736422,0.8254149,0.3870227,0.41097897,0
1.0033667,-0.41112423,-1.3511409,0.56439459,-0.5814997,-0.58593255,0
1.927125,3.4515958,0.28943455,0.8254149,0.3870227,0.41097897,0
2.5269742,-0.91167295,2.668705,-0.012214959,-0.71559179,0.69841206,0
2.776371,-0.30936229,1.6824102,0.8254149,0.3870227,0.41097897,0
0.42152727,0.85606015,1.8570613,-0.56439459,0.5814997,0.58593255,0
0.061322451,-0.69957751,-1.5935484,0.56439459,-0.5814997,-0.58593255,0
2.4519608,0.45816475,1.8658282,0.8254149,0.3870227,0.41097897,0
-3.0525501,0.63607597,-2.0762606,-0.8254149,-0.3870227,-0.41097897,0
-0.8976053,1.9400195,-1.6469097,0.012214959,0.71559179,-0.69841206,0
-0.9056325,-0.43530107,2.2900121,-0.56439459,0.5814997,0.58593255,0
-1.177732,-2.5738504,0.92734528,-0.012214959,-0.71559179,0.69841206,0
-2.388669,0.046863675,-2.4749708,-0.8254149,-0.3870227,-0.41097897,0
-2.1859636,-0.90636635,-1.7292475,-0.8254149,-0.3870227,-0.41097897,0
-0.185086,1.2793754,0.86258793,-0.56439459,0.5814997,0.58593255,0
1.7359464,3.3296618,0.095053792,0.012214959,0.71559179,-0.69841206,0
-1.9789197,1.0321789,-2.8280225,0.012214959,0.71559179,-0.69841206,0
0.79275596,-2.4595101,0.76631081,0.56439459,-0.5814997,-0.58593255,0
1.5464373,2.8085608,1.2563338,0.8254149,0.3870227,0.41097897,0
-2.6899416,-0.14093471,-1.3753209,-0.8254149,-0.3870227,-0.41097897,0
1.9521979,0.44754928,-0.93386126,0.56439459,-0.5814997,-0.58593255,0
0.24526787,1.8391056,-1.6744595,0.012214959,0.71559179,-0.69841206,0
-0.88149816,1.106128,0.94338918,-0.56439459,0.5814997,0.58593255,0
1.7025853,0.12786114,3.7934546,0.8254149,0.3870227,0.41097897,0
2.9227102,1.6258594,-0.34064865,0.8254149,0.3870227,0.41097897,0
1.8809048,1.8449135,1.9956461,0.8254149,0.3870227,0.41097897,0
-1.3401316,1.0340405,-2.4242744,0.012214959,0.71559179,-0.69841206,0
-1.1625781,0.41785657,-3.0654497,0.012214959,0.71559179,-0.69841206,0
-2.1594274,1.8488723,-1.7062407,0.012214959,0.71559179,-0.69841206,0
-2.5517912,-2.487978,-0.060224533,-0.8254149,-0.3870227,-0.41097897,0
2.1140218,0.23530757,3.2240629,0.8254149,0.3870227,0.41097897,0
-2.4695876,-1.1486015,-1.2956923,-0.8254149,-0.3870227,-0.41097897,0
2.1607223,1.7103175,1.2844263,0.8254149,0.3870227,0.41097897,0
-1.0014832,1.2917345,-2.2674508,0.012214959,0.71559179,-0.69841206,0
-1.0875967,-1.3021302,2.1010032,-0.012214959,-0.71559179,0.69841206,0
2.0593426,1.6986654,1.5285983,0.8254149,0.3870227,0.41097897,0
1.8336685,3.6079993,0.39326406,0.012214959,0.71559179,-0.69841206,0
0.060870171,0.90633011,-2.4528086,0.012214959,0.71559179,-0.69841206,0
0.62309515,2.0383077,0.88300169,-0.56439459,0.5814997,0.58593255,0
-0.22201788,0.37350765,1.6596103,-0.56439459,0.5814997,0.58593255,0
-2.5465348,-1.4514326,1.7157592,-0.56439459,0.5814997,0.58593255,0
-3.149895,-0.73817337,0.22303152,-0.56439459,0.5814997,0.58593255,0
1.1005211,0.83719528,-2.577065,0.56439459,-0.5814997,-0.58593255,0
-2.4271619,-0.30112803,-2.0323043,-0.8254149,-0.3870227,-0.41097897,0
1.8732233,-0.22048402,3.184597,-0.012214959,-0.71559179,0.69841206,0
2.7419431,2.8125644,-0.78640723,0.012214959,0.71559179,-0.69841206,0
-1.8551884,-1.6563208,-1.9578549,-0.8254149,-0.3870227,-0.41097897,0
1.1674436,0.51176274,-2.0538721,0.56439459,-0.5814997,-0.58593255,0
0.16455722,-2.488688,0.22665837,0.56439459,-0.5814997,-0.58593255,0
1.7998147,3.4448268,0.03015852,0.8254149,0.3870227,0.41097897,0
0.94917065,-1.3824567,-0.53503996,0.56439459,-0.5814997,-0.58593255,0
-0.43128788,0.14892544,-2.9125445,0.56439459,-0.5814997,-0.58593255,0
-3.1603587,1.1070942,-2.3105111,-0.8254149,-0.3870227,-0.41097897,0
-0.34194493,0.68745017,-2.9025416,0.012214959,0.71559179,-0.69841206,0
3.4211822,1.4215066,-0.52978444,0.8254149,0.3870227,0.41097897,0
-1.7877314,-1.6200504,1.6423453,-0.012214959,-0.71559179,0.69841206,0
-1.2944582,-1.854022,1.4490019,-0.012214959,-0.71559179,0.69841206,0
-1.6667423,-0.48435801,-3.2385926,-0.8254149,-0.3870227,-0.41097897,0
2.7760496,-0.1026088,0.54226804,0.56439459,-0.5814997,-0.58593255,0
2.7268126,0.26957953,0.079680443,0.56439459,-0.5814997,-0.58593255,0
-1.7972059,-2.4233854,-1.4216524,-0.8254149,-0.3870227,-0.41097897,0
-1.3625014,-0.39252043,-3.2855554,0.56439459,-0.5814997,-0.58593255,0
1.7803314,2.8888378,-0.54394776,0.012214959,0.71559179,-0.69841206,0
-2.7045305,-2.0685165,0.21994328,-0.8254149,-0.3870227,-0.41097897,0
2.7710285,1.0826987,0.32998693,0.8254149,0.3870227,0.41097897,0
2.5851722,-0.14122772,2.4692941,0.8254149,0.3870227,0.41097897,0
0.86189222,1.9858179,-1.3082721,0.012214959,0.71559179,-0.69841206,0
-1.1492984,-0.43001008,-3.3372166,0.56439459,-0.5814997,-0.58593255,0
0.34367442,2.2384765,-1.5458542,0.012214959,0.71559179,-0.69841206,0
2.375726,2.8973041,-0.10566771,0.8254149,0.3870227,0.41097897,0
1.2823265,2.1266668,-1.2987046,0.012214959,0.71559179,-0.69841206,0
2.2861562,1.6275395,-2.0190332,0.012214959,0.71559179,-0.69841206,0
-0.3082931,1.0582461,-2.3843963,0.012214959,0.71559179,-0.69841206,0
-1.9614122,1.0118983,-0.2314384,-0.56439459,0.5814997,0.58593255,0
2.3191507,2.2383456,-1.5306686,0.012214959,0.71559179,-0.69841206,0
-1.343675,2.2183623,-1.2330024,0.012214959,0.71559179,-0.69841206,0
-0.1215353,-2.1493578,1.4015627,-0.012214959,-0.71559179,0.69841206,0
1.6813058,1.3745682,2.4190931,0.8254149,0.3870227,0.41097897,0
1.6580042,1.6100001,2.5701542,0.8254149,0.3870227,0.41097897,0
1.2365966,0.35597086,3.1130428,-0.56439459,0.5814997,0.58593255,0
2.8642631,0.45447636,-0.58789742,0.56439459,-0.5814997,-0.58593255,0
0.66924167,2.2762187,-0.9713403,0.012214959,0.71559179,-0.69841206,0
3.1849391,2.439867,-1.0071137,0.8254149,0.3870227,0.41097897,0
-1.968236,-0.9397257,1.4654646,-0.56439459,0.5814997,0.58593255,0
-1.7273581,0.59540057,-2.8706856,0.012214959,0.71559179,-0.69841206,0
2.615119,-1.5816523,2.2269006,-0.012214959,-0.71559179,0.69841206,0
-2.3824196,0.67434204,-2.9587612,-0.8254149,-0.3870227,-0.41097897,0
2.3686993,1.8006992,1.2393521,0.8254149,0.3870227,0.41097897,0
-3.1408811,1.4669812,-1.9787185,0.012214959,0.71559179,-0.69841206,0
1.915431,0.16126364,2.8888478,0.8254149,0.3870227,0.41097897,0
-1.5200276,1.4358612,-2.1271703,0.012214959,0.71559179,-0.69841206,0
-2.4783607,-2.5647097,0.15236509,-0.8254149,-0.3870227,-0.41097897,0
-0.82130325,-0.21216196,-2.8569937,0.56439459,-0.5814997,-0.58593255,0
-2.1710043,-0.50237906,-2.92277,-0.8254149,-0.3870227,-0.41097897,0
-2.5555072,-0.39816594,0.66451609,-0.56439459,0.5814997,0.58593255,0
-1.1976371,1.003798,-2.672833,0.012214959,0.71559179,-0.69841206,0
2.7984891,-1.2003382,2.2117004,-0.012214959,-0.71559179,0.69841206,0
1.7722571,-0.2679404,3.292691,-0.012214959,-0.71559179,0.69841206,0
1.8527818,-0.8644259,0.18703616,0.56439459,-0.5814997,-0.58593255,0
-1.7710091,-2.5524685,-0.96836197,-0.8254149,-0.3870227,-0.41097897,0
-0.70035636,-3.0760045,-0.0034250319,0.56439459,-0.5814997,-0.58593255,0
-2.2476151,-3.25423,0.23406398,-0.8254149,-0.3870227,-0.41097897,0
-0.83418894,0.71402049,-2.605305,0.012214959,0.71559179,-0.69841206,0
2.1123624,0.72583371,-0.94281495,0.56439459,-0.5814997,-0.58593255,0
2.0405161,0.3833195,2.6893888,0.8254149,0.3870227,0.41097897,0
-2.5069828,-1.0155839,-1.6083716,-0.8254149,-0.3870227,-0.41097897,0
-0.73553813,-0.24154058,-2.7661095,0.56439459,-0.5814997,-0.58593255,0
2.7294257,-1.0194976,2.4294052,0.8254149,0.3870227,0.41097897,0
2.8319631,1.7825936,-1.5728755,0.56439459,-0.5814997,-0.58593255,0
-3.0601995,1.4793937,-2.4020531,0.012214959,0.71559179,-0.69841206,0
-1.9837341,1.5893735,-2.1416368,0.012214959,0.71559179,-0.69841206,0
-2.7088339,-2.5378072,0.61141407,-0.8254149,-0.3870227,-0.41097897,0
0.65366411,1.9093211,-1.661378,0.012214959,0.71559179,-0.69841206,0
-0.39755976,0.054780126,1.8515446,-0.56439459,0.5814997,0.58593255,0
3.2428923,-0.053120971,0.78732777,0.8254149,0.3870227,0.41097897,0
-1.6836755,1.4935057,-1.8936889,0.012214959,0.71559179,-0.69841206,0
1.0359948,2.3146362,-1.3392985,0.012214959,0.71559179,-0.69841206,0
-2.2365341,1.9201508,-1.8994821,0.012214959,0.71559179,-0.69841206,0
-0.42915726,0.15482688,2.2250466,-0.56439459,0.5814997,0.58593255,0
-1.6507738,0.42629391,-3.096384,0.012214959,0.71559179,-0.69841206,0
-1.7348361,1.4951653,-1.8175303,0.012214959,0.71559179,-0.69841206,0
-2.2232509,-1.6492909,1.9394398,-0.012214959,-0.71559179,0.69841206,0
0.30424452,-0.07137166,3.2567153,-0.56439459,0.5814997,0.58593255,0
-0.15903592,-1.6759498,2.0258908,-0.012214959,-0.71559179,0.69841206,0
1.3159285,1.4150405,-2.3886712,0.012214959,0.71559179,-0.69841206,0
-3.0535848,-1.044323,0.51886427,-0.56439459,0.5814997,0.58593255,0
1.0151539,3.3478436,0.082893312,-0.56439459,0.5814997,0.58593255,0
-0.25232589,0.69726014,1.7254605,-0.56439459,0.5814997,0.58593255,0
3.1530156,-0.30943704,1.6711631,0.8254149,0.3870227,0.41097897,0
1.6383994,1.4101772,2.6126809,0.8254149,0.3870227,0.41097897,0
0.50988531,2.8660984,-0.55220664,0.012214959,0.71559179,-0.69841206,0
1.6483614,3.4525647,0.49636519,0.8254149,0.3870227,0.41097897,0
1.4198163,1.1615157,-2.2556345,0.012214959,0.71559179,-0.69841206,0
-0.8512795,2.0052097,-0.0021268725,-0.56439459,0.5814997,0.58593255,0
2.7669387,0.0037765503,2.0019097,0.8254149,0.3870227,0.41097897,0
1.2073364,-0.19125324,-0.87615234,0.56439459,-0.5814997,-0.58593255,0
-1.3590462,0.3324911,-3.009064,0.012214959,0.71559179,-0.69841206,0
-3.0279908,-2.3024881,0.48949182,-0.8254149,-0.3870227,-0.41097897,0
-2.9759936,-1.2406011,0.047600985,-0.8254149,-0.3870227,-0.41097897,0
2.4872739,2.5699985,-0.71992111,0.012214959,0.71559179,-0.69841206,0
1.8481643,3.3032861,0.8457433,0.8254149,0.3870227,0.41097897,0
-1.7912014,-3.2576637,-0.63490653,-0.8254149,-0.3870227,-0.41097897,0
-2.4152875,-1.2349952,-0.86897874,-0.8254149,-0.3870227,-0.41097897,0
-1.9294548,-1.3636463,-2.0447357,-0.8254149,-0.3870227,-0.41097897,0
1.6186142,0.84908891,3.1636848,0.8254149,0.3870227,0.41097897,0
2.6975665,0.1801312,1.4645505,0.8254149,0.3870227,0.41097897,0
0.056890786,-0.8440572,-1.7218,0.56439459,-0.5814997,-0.58593255,0
1.4638424,3.3817604,0.17136556,0.012214959,0.71559179,-0.69841206,0
1.3101697,1.8885782,2.0502286,-0.56439459,0.5814997,0.58593255,0
-0.75498295,0.9193638,0.79454541,-0.56439459,0.5814997,0.58593255,0
-1.582082,-2.8166661,0.68589455,-0.012214959,-0.71559179,0.69841206,0
1.3137954,-1.7986417,0.30379772,0.56439459,-0.5814997,-0.58593255,0
1.0980437,2.619607,1.1942306,-0.56439459,0.5814997,0.58593255,0
0.19010019,-0.87862712,2.5298805,-0.012214959,-0.71559179,0.69841206,0
1.0455008,2.8179631,-0.72261435,0.012214959,0.71559179,-0.69841206,0
0.0016503334,2.1641531,-1.3780065,0.012214959,0.71559179,-0.69841206,0
2.9684749,1.8091571,-0.49642503,0.8254149,0.3870227,0.41097897,0
-2.9175313,-0.0033382177,0.042405605,-0.56439459,0.5814997,0.58593255,0
1.2000093,0.20710313,-1.6072921,0.56439459,-0.5814997,-0.58593255,0
-1.8234985,-1.2664943,-2.2546186,-0.8254149,-0.3870227,-0.41097897,0
0.41202092,-0.86019444,-1.5657916,0.56439459,-0.5814997,-0.58593255,0
-0.66022122,1.8543766,-1.7122868,0.012214959,0.71559179,-0.69841206,0
1.0909487,-0.54066861,2.7687185,-0.012214959,-0.71559179,0.69841206,0
-0.5088408,2.1745746,-1.2961965,0.012214959,0.71559179,-0.69841206,0
-0.47856358,1.1732854,0.89198202,-0.56439459,0.5814997,0.58593255,0
-0.80427861,-2.3196552,1.3816783,-0.012214959,-0.71559179,0.69841206,0
3.1720984,-0.21632051,1.3919106,0.8254149,0.3870227,0.41097897,0
0.56747949,-0.097977281,-1.7569666,0.56439459,-0.5814997,-0.58593255,0
1.6734614,2.1173484,1.8639178,0.8254149,0.3870227,0.41097897,0
1.5509148,3.3676519,0.94573641,0.8254149,0.3870227,0.41097897,0
1.9082363,2.3481169,1.5096711,0.8254149,0.3870227,0.41097897,0
-2.8642285,0.16893029,-0.24238038,-0.56439459,0.5814997,0.58593255,0
2.1510088,0.29679012,2.6078334,0.8254149,0.3870227,0.41097897,0
3.1622026,0.10064113,0.61861801,0.56439459,-0.5814997,-0.58593255,0
2.2043486,0.43674797,2.5695004,0.8254149,0.3870227,0.41097897,0
-2.1287451,1.6617938,-0.88513792,-0.56439459,0.5814997,0.58593255,0
0.90493369,1.9338648,-1.5077617,0.012214959,0.71559179,-0.69841206,0
-0.63468301,0.089505613,1.5633022,-0.56439459,0.5814997,0.58593255,0
-2.4113019,-3.2094836,0.24613321,-0.8254149,-0.3870227,-0.41097897,0
2.6733379,-0.22370887,2.2098868,0.8254149,0.3870227,0.41097897,0
-2.4650569,-2.7046466,0.0004478693,-0.8254149,-0.3870227,-0.41097897,0
0.0861485,-0.72596097,2.7815619,-0.012214959,-0.71559179,0.69841206,0
1.5884129,-0.84448594,2.7803478,-0.012214959,-0.71559179,0.69841206,0
1.3514496,3.3057945,0.39746946,-0.56439459,0.5814997,0.58593255,0
1.9987264,-1.0595051,2.6668487,-0.012214959,-0.71559179,0.69841206,0
-1.2424941,2.3360171,-1.0667796,0.012214959,0.71559179,-0.69841206,0
-3.2116029,0.12828755,-1.2707562,-0.8254149,-0.3870227,-0.41097897,0
1.9049513,0.75416189,2.5734417,0.8254149,0.3870227,0.41097897,0
-2.3780987,-1.4496523,1.859707,-0.56439459,0.5814997,0.58593255,0
-3.2900941,-0.25347602,-0.65957618,-0.8254149,-0.3870227,-0.41097897,0
-0.74018109,-0.79742169,-2.1919622,0.56439459,-0.5814997,-0.58593255,0
0.93198729,2.2485065,-1.3421078,0.012214959,0.71559179,-0.69841206,0
-1.7535403,0.14641953,0.41963905,-0.56439459,0.5814997,0.58593255,0
1.6293287,2.1954226,2.1566527,0.8254149,0.3870227,0.41097897,0
2.7616353,-0.68717873,2.0346704,0.8254149,0.3870227,0.41097897,0
2.4256411,0.2273798,-0.56753886,0.56439459,-0.5814997,-0.58593255,0
3.0436797,-0.77077055,2.2728698,0.8254149,0.3870227,0.41097897,0
-0.95722866,-2.0944352,1.1439104,-0.012214959,-0.71559179,0.69841206,0
-3.0150332,-1.9297211,0.93404853,-0.8254149,-0.3870227,-0.41097897,0
1.6216432,2.848948,1.0735729,0.8254149,0.3870227,0.41097897,0
0.50378227,3.3211415,-0.34382299,0.012214959,0.71559179,-0.69841206,0
-2.3079436,1.6008006,-1.2095795,-0.56439459,0.5814997,0.58593255,0
2.6640341,0.29231,1.7494975,0.8254149,0.3870227,0.41097897,0
1.4363945,1.3800062,-1.9698061,0.012214959,0.71559179,-0.69841206,0
-0.61357838,1.5057175,0.5182215,-0.56439459,0.5814997,0.58593255,0
-2.6812153,-0.77604932,-1.136627,-0.8254149,-0.3870227,-0.41097897,0
-1.0712509,2.2227919,-0.58914399,-0.56439459,0.5814997,0.58593255,0
-0.67913437,-2.8791602,0.52031922,-0.012214959,-0.71559179,0.69841206,0
1.092797,2.2150102,-1.5081131,0.012214959,0.71559179,-0.69841206,0
2.7212954,1.7528781,0.65539229,0.8254149,0.3870227,0.41097897,0
-2.37062,-2.7082415,0.44424987,-0.8254149,-0.3870227,-0.41097897,0
2.5504656,-0.80468822,0.78417373,0.56439459,-0.5814997,-0.58593255,0
1.9835025,1.0692239,-1.6836617,0.56439459,-0.5814997,-0.58593255,0
-1.9486589,-0.34094691,-2.7097316,-0.8254149,-0.3870227,-0.41097897,0
0.47507286,1.5317944,-1.7952549,0.012214959,0.71559179,-0.69841206,0
-0.62087762,1.3917547,-2.2705288,0.012214959,0.71559179,-0.69841206,0
0.17097664,0.41394174,2.4959371,-0.56439459,0.5814997,0.58593255,0
-2.0155487,-0.45045727,0.79370147,-0.56439459,0.5814997,0.58593255,0
1.0588398,-1.0931802,-0.54095536,0.56439459,-0.5814997,-0.58593255,0
0.95026243,-2.5462041,1.1740544,-0.012214959,-0.71559179,0.69841206,0
-0.014460683,0.69429111,1.5441929,-0.56439459,0.5814997,0.58593255,0
3.1163831,0.54740191,-0.33736897,0.56439459,-0.5814997,-0.58593255,0
-3.5394783,-1.6029768,0.94110644,-0.56439459,0.5814997,0.58593255,0
1.0797162,-1.502877,-0.33275551,0.56439459,-0.5814997,-0.58593255,0
-3.4382193,0.38727951,-1.0482342,-0.8254149,-0.3870227,-0.41097897,0
0.70699835,1.5831324,-1.9474022,0.012214959,0.71559179,-0.69841206,0
-2.1167917,-1.7805161,-1.442986,-0.8254149,-0.3870227,-0.41097897,0
2.368907,2.667953,-0.12596869,0.8254149,0.3870227,0.41097897,0
0.074686527,2.8569758,-0.62162769,0.012214959,0.71559179,-0.69841206,0
2.5860085,2.5959942,-0.61449683,0.8254149,0.3870227,0.41097897,0
-0.41044098,1.111328,0.78065729,-0.56439459,0.5814997,0.58593255,0
-0.57652313,-2.1138499,-1.0479642,0.56439459,-0.5814997,-0.58593255,0
1.1243962,-1.4669125,-0.26671809,0.56439459,-0.5814997,-0.58593255,0
2.9253967,-1.3341267,2.0424304,-0.012214959,-0.71559179,0.69841206,0
2.0988178,1.007148,-1.771197,0.56439459,-0.5814997,-0.58593255,0
-2.7774782,-2.539119,0.80452907,-0.012214959,-0.71559179,0.69841206,0
-2.1951578,-1.6596099,-0.9524616,-0.8254149,-0.3870227,-0.41097897,0
-1.8994353,1.4588804,-2.3537722,0.012214959,0.71559179,-0.69841206,0
-0.93004131,-1.1978695,2.0988274,-0.012214959,-0.71559179,0.69841206,0
0.8572017,0.81368917,2.3998723,-0.56439459,0.5814997,0.58593255,0
0.76452315,-1.6785928,1.6496429,-0.012214959,-0.71559179,0.69841206,0
-2.9315686,-0.68943608,-1.2221279,-0.8254149,-0.3870227,-0.41097897,0
0.84587836,2.3111241,-1.2038471,0.012214959,0.71559179,-0.69841206,0
-1.0057662,-2.059124,-1.5820386,0.56439459,-0.5814997,-0.58593255,0
-1.1903142,-3.3850741,-0.39244312,0.56439459,-0.5814997,-0.58593255,0
-2.7087202,-1.4860882,-0.10430634,-0.8254149,-0.3870227,-0.41097897,0
0.18847799,-2.3852949,1.0641799,-0.012214959,-0.71559179,0.69841206,0
-1.8925693,-0.025624156,-3.3001306,-0.8254149,-0.3870227,-0.41097897,0
-2.7413538,-0.59675157,0.55086517,-0.56439459,0.5814997,0.58593255,0
-2.3842025,-0.10083318,-1.9847958,-0.8254149,-0.3870227,-0.41097897,0
-2.1347718,0.93498135,-0.58339381,-0.56439459,0.5814997,0.58593255,0
0.92774057,1.3693209,-1.8901148,0.012214959,0.71559179,-0.69841206,0
-1.9878445,-1.57464,-1.6494282,-0.8254149,-0.3870227,-0.41097897,0
-3.2245011,-0.46733105,-0.33513284,-0.8254149,-0.3870227,-0.41097897,0
-0.27883005,-0.57525355,-2.3441756,0.56439459,-0.5814997,-0.58593255,0
