1.9879476,3.0284896,1.1177725,0.95466876,0.0019610524,-0.2976642,0
2.1420519,0.87771708,1.1779668,0.95466876,0.0019610524,-0.2976642,0
-0.22242284,3.1836138,2.7953005,0.024880886,0.99595332,0.086360365,0
0.76721096,3.2965918,0.084963769,0.024880886,0.99595332,0.086360365,0
-2.2123711,-3.366714,-2.5369403,-0.024880886,-0.99595332,-0.086360365,0
-0.81775355,-3.1399381,-3.7611289,-0.024880886,-0.99595332,-0.086360365,0
-1.4651661,2.6007116,-2.8909659,-0.29662898,0.089851715,-0.95075667,0
0.82231385,-1.8844931,3.3964684,0.29662898,-0.089851715,0.95075667,0
0.46624851,-3.1199272,-2.9347274,-0.024880886,-0.99595332,-0.086360365,0
1.6893103,1.8913444,3.3374958,0.29662898,-0.089851715,0.95075667,0
-2.2584753,-1.3045899,-3.2599208,-0.29662898,0.089851715,-0.95075667,0
-0.41952538,3.1547837,-3.1978521,-0.29662898,0.089851715,-0.95075667,0
1.1190393,-1.1169313,-1.527645,0.95466876,0.0019610524,-0.2976642,0
-0.35557628,2.8379197,3.5117362,-0.95466876,-0.0019610524,0.2976642,0
-1.9884562,3.67063,-1.7155073,0.024880886,0.99595332,0.086360365,0
-0.66912204,-0.14600253,2.6230559,-0.95466876,-0.0019610524,0.2976642,0
2.4010625,0.31765816,3.102828,0.29662898,-0.089851715,0.95075667,0
-0.59311342,3.4770315,0.94259465,0.024880886,0.99595332,0.086360365,0
2.0769842,-2.1845424,2.7224746,0.29662898,-0.089851715,0.95075667,0
-0.1118753,3.7720613,-1.7851295,0.024880886,0.99595332,0.086360365,0
1.5092419,3.6224568,-0.5190506,0.024880886,0.99595332,0.086360365,0
2.0034485,1.4429837,3.1347673,0.29662898,-0.089851715,0.95075667,0
-2.1678121,-1.9682807,-2.2885585,-0.95466876,-0.0019610524,0.2976642,0
0.40165377,0.023850679,3.6217489,0.29662898,-0.089851715,0.95075667,0
-0.61674941,-1.1125045,3.5723391,-0.95466876,-0.0019610524,0.2976642,0
0.030567646,1.2174342,3.98086,0.29662898,-0.089851715,0.95075667,0
-0.084649324,-1.6131518,-3.6237931,-0.29662898,0.089851715,-0.95075667,0
-1.824962,1.6352973,-2.759141,-0.29662898,0.089851715,-0.95075667,0
-0.49881911,3.5205293,0.0019643307,0.024880886,0.99595332,0.086360365,0
1.6061566,0.86913991,0.19409508,0.95466876,0.0019610524,-0.2976642,0
0.12160683,-3.776818,1.3301775,-0.024880886,-0.99595332,-0.086360365,0
2.18262,0.50699198,2.9093733,0.29662898,-0.089851715,0.95075667,0
-0.90475386,-0.20878029,-3.4411931,-0.29662898,0.089851715,-0.95075667,0
2.1103239,1.8892524,3.2097645,0.29662898,-0.089851715,0.95075667,0
-0.16407228,-3.796356,2.696007,-0.024880886,-0.99595332,-0.086360365,0
-2.4930315,-3.2660687,-2.516001,-0.95466876,-0.0019610524,0.2976642,0
-1.1685299,-1.1284763,1.5581809,-0.95466876,-0.0019610524,0.2976642,0
-2.3738391,-1.0915434,-2.7199554,-0.95466876,-0.0019610524,0.2976642,0
0.72989368,2.6374152,3.6580327,0.29662898,-0.089851715,0.95075667,0
1.5469966,1.482748,3.2496603,0.29662898,-0.089851715,0.95075667,0
-0.62919617,-2.8157885,-3.9123635,-0.29662898,0.089851715,-0.95075667,0
-0.77194512,-3.0917945,2.0092978,-0.95466876,-0.0019610524,0.2976642,0
2.1073813,-0.081293613,3.0420351,0.29662898,-0.089851715,0.95075667,0
-1.5608981,0.13187023,-3.0441034,-0.29662898,0.089851715,-0.95075667,0
-1.5104949,3.6890352,-2.2907908,0.024880886,0.99595332,0.086360365,0
0.076682687,-2.3042262,3.5141499,0.29662898,-0.089851715,0.95075667,0
1.7728829,-2.0415072,0.12014854,0.95466876,0.0019610524,-0.2976642,0
-2.3315301,-2.7764473,-2.1116953,-0.95466876,-0.0019610524,0.2976642,0
-0.32135582,2.592278,3.409656,-0.95466876,-0.0019610524,0.2976642,0
-0.93847674,0.79558212,-3.5034332,-0.29662898,0.089851715,-0.95075667,0
2.288938,3.17805,1.9498947,0.95466876,0.0019610524,-0.2976642,0
-1.9865153,-0.24207415,-2.8989451,-0.29662898,0.089851715,-0.95075667,0
-0.46043563,1.318812,2.9305267,-0.95466876,-0.0019610524,0.2976642,0
-1.4133987,1.5439779,-3.0031052,-0.29662898,0.089851715,-0.95075667,0
0.52064967,3.0074565,-2.7275901,0.95466876,0.0019610524,-0.2976642,0
-1.1206882,3.7716501,-1.4962494,0.024880886,0.99595332,0.086360365,0
0.42796373,-3.6322551,3.1268806,-0.024880886,-0.99595332,-0.086360365,0
-2.2931519,2.2065988,-2.5757151,-0.29662898,0.089851715,-0.95075667,0
0.69323087,3.7537107,-1.4585555,0.024880886,0.99595332,0.086360365,0
0.56324983,2.6806986,3.8296981,0.29662898,-0.089851715,0.95075667,0
-0.97078228,3.5723011,-0.041367292,0.024880886,0.99595332,0.086360365,0
0.33357859,3.3891358,-0.19740051,0.024880886,0.99595332,0.086360365,0
-0.53456521,3.7307169,-1.8247275,0.024880886,0.99595332,0.086360365,0
-1.6388383,-2.6652517,-0.81889641,-0.95466876,-0.0019610524,0.2976642,0
-1.0490353,3.2154064,1.9131935,0.024880886,0.99595332,0.086360365,0
-0.36265135,-3.3385377,-4.041224,-0.024880886,-0.99595332,-0.086360365,0
0.24981117,3.6301773,0.33749321,0.024880886,0.99595332,0.086360365,0
1.2855408,-2.275979,3.2095151,0.29662898,-0.089851715,0.95075667,0
0.55814958,-0.4509775,3.5898318,0.29662898,-0.089851715,0.95075667,0
-0.7117455,1.4613782,2.339452,-0.95466876,-0.0019610524,0.2976642,0
-2.3977702,-1.3278397,-3.0332968,-0.29662898,0.089851715,-0.95075667,0
0.45128834,0.76161146,-3.5399714,0.95466876,0.0019610524,-0.2976642,0
-2.4115627,-0.7552582,-2.0653424,-0.95466876,-0.0019610524,0.2976642,0
-1.8190722,0.33956093,-2.9095232,-0.29662898,0.089851715,-0.95075667,0
-1.6602278,-3.2580037,-2.0840316,-0.024880886,-0.99595332,-0.086360365,0
0.75454772,2.5030138,-2.6224945,0.95466876,0.0019610524,-0.2976642,0
0.76000333,-2.5753808,-2.2679665,0.95466876,0.0019610524,-0.2976642,0
-1.7465999,-0.47415197,-0.055921316,-0.95466876,-0.0019610524,0.2976642,0
-2.2041569,3.8295686,-2.7587028,-0.29662898,0.089851715,-0.95075667,0
-0.42934489,-0.50486016,3.9261851,0.29662898,-0.089851715,0.95075667,0
0.37526286,2.9655335,-3.4930191,-0.29662898,0.089851715,-0.95075667,0
-1.0268703,3.3419771,0.074841499,0.024880886,0.99595332,0.086360365,0
-1.9495933,0.11248022,-2.9890399,-0.29662898,0.089851715,-0.95075667,0
-1.5023532,2.418813,-2.9614885,-0.29662898,0.089851715,-0.95075667,0
0.62426019,-1.2054605,-3.5702605,0.95466876,0.0019610524,-0.2976642,0
-1.9424181,3.6942546,-1.8767774,0.024880886,0.99595332,0.086360365,0
-2.1711771,-0.02852416,-1.9142604,-0.95466876,-0.0019610524,0.2976642,0
0.92041504,1.817358,-2.1514146,0.95466876,0.0019610524,-0.2976642,0
0.16010666,3.4259734,-3.3598065,-0.29662898,0.089851715,-0.95075667,0
1.5022352,2.1073754,3.3816895,0.29662898,-0.089851715,0.95075667,0
-0.014770031,-3.4466708,-1.8189343,-0.024880886,-0.99595332,-0.086360365,0
1.5821204,-3.3907266,0.10965359,0.95466876,0.0019610524,-0.2976642,0
0.039865017,-3.2555261,-0.80901146,-0.024880886,-0.99595332,-0.086360365,0
1.9521255,3.4263821,2.4991965,0.024880886,0.99595332,0.086360365,0
-0.20796847,-3.6895878,-0.18886,-0.024880886,-0.99595332,-0.086360365,0
-1.3201979,-1.9810002,0.77702689,-0.95466876,-0.0019610524,0.2976642,0
-0.2621181,3.5489533,-0.3119247,0.024880886,0.99595332,0.086360365,0
-0.33464932,3.7594249,-0.70824873,0.024880886,0.99595332,0.086360365,0
-0.93308139,0.2084235,-3.3423927,-0.29662898,0.089851715,-0.95075667,0
2.1413014,1.5217657,3.083636,0.29662898,-0.089851715,0.95075667,0
-1.271394,-3.2639217,-2.905432,-0.024880886,-0.99595332,-0.086360365,0
2.1787889,1.6165376,3.280365,0.29662898,-0.089851715,0.95075667,0
1.1602937,0.8707307,-1.3994066,0.95466876,0.0019610524,-0.2976642,0
-1.4788382,1.0531068,-0.15365779,-0.95466876,-0.0019610524,0.2976642,0
0.91411406,1.4267066,-2.7095923,0.95466876,0.0019610524,-0.2976642,0
0.37355137,3.3892422,-3.5262208,-0.29662898,0.089851715,-0.95075667,0
-0.15903592,-3.4948545,0.4507823,-0.024880886,-0.99595332,-0.086360365,0
1.8582565,-0.44736278,0.7190994,0.95466876,0.0019610524,-0.2976642,0
0.085402489,3.3856065,0.30492374,0.024880886,0.99595332,0.086360365,0
2.2848036,3.0585876,3.0126102,0.024880886,0.99595332,0.086360365,0
0.47130084,-2.8119469,-3.3575733,0.95466876,0.0019610524,-0.2976642,0
-1.2474933,3.6763504,-0.22515273,0.024880886,0.99595332,0.086360365,0
2.2541218,0.2666015,2.9489965,0.29662898,-0.089851715,0.95075667,0
2.3130672,1.0902189,1.7706754,0.95466876,0.0019610524,-0.2976642,0
0.16885972,3.2442367,2.9117599,0.024880886,0.99595332,0.086360365,0
-1.9003928,-1.863457,-1.7219602,-0.95466876,-0.0019610524,0.2976642,0
-0.15912509,-3.7157211,1.2131753,-0.024880886,-0.99595332,-0.086360365,0
-0.022540331,-3.334182,-0.85955727,-0.024880886,-0.99595332,-0.086360365,0
-1.1921124,3.0430281,1.8279144,-0.95466876,-0.0019610524,0.2976642,0
1.5034697,0.34314704,-0.86875379,0.95466876,0.0019610524,-0.2976642,0
-1.6784847,-0.29026154,-3.0683122,-0.29662898,0.089851715,-0.95075667,0
-0.43675351,3.7245226,-0.32000661,0.024880886,0.99595332,0.086360365,0
-1.2709346,-0.73552573,1.4018784,-0.95466876,-0.0019610524,0.2976642,0
-0.17222548,3.570786,-0.65271282,0.024880886,0.99595332,0.086360365,0
-0.58317423,2.8024096,2.7102294,-0.95466876,-0.0019610524,0.2976642,0
-0.87383658,0.63262099,-3.2934914,-0.29662898,0.089851715,-0.95075667,0
-0.23868674,1.636065,-3.3995485,-0.29662898,0.089851715,-0.95075667,0
1.627937,0.038334444,2.986284,0.29662898,-0.089851715,0.95075667,0
1.3953753,-2.1066594,-0.79790288,0.95466876,0.0019610524,-0.2976642,0
-0.24107218,-3.3241842,-0.8941251,-0.024880886,-0.99595332,-0.086360365,0
-1.4138248,3.8016753,-2.5686295,0.024880886,0.99595332,0.086360365,0
1.5953445,1.5695978,3.404283,0.29662898,-0.089851715,0.95075667,0
-2.0832806,-0.12991166,-2.2824361,-0.95466876,-0.0019610524,0.2976642,0
-0.39434254,-2.4068756,3.472131,0.29662898,-0.089851715,0.95075667,0
0.89449096,-3.6578767,1.6787975,-0.024880886,-0.99595332,-0.086360365,0
-1.3876643,-0.50176269,-3.1745684,-0.29662898,0.089851715,-0.95075667,0
0.57749009,2.9630098,-3.2471895,0.95466876,0.0019610524,-0.2976642,0
0.17213392,3.7308986,-0.61237681,0.024880886,0.99595332,0.086360365,0
-0.21818519,-1.1210896,-3.87832,-0.29662898,0.089851715,-0.95075667,0
0.87682533,0.19504833,3.2566612,0.29662898,-0.089851715,0.95075667,0
0.16758323,-3.0928607,3.4676378,0.29662898,-0.089851715,0.95075667,0
-0.15133762,-3.7858038,2.8791711,-0.024880886,-0.99595332,-0.086360365,0
2.1219783,2.4011393,1.380823,0.95466876,0.0019610524,-0.2976642,0
0.47147554,1.2509681,-3.5740955,0.95466876,0.0019610524,-0.2976642,0
-0.26549816,-2.5792592,3.6385748,0.29662898,-0.089851715,0.95075667,0
1.6010647,-3.6074455,0.38558865,0.95466876,0.0019610524,-0.2976642,0
-1.6444985,1.6175494,0.22396803,-0.95466876,-0.0019610524,0.2976642,0
1.0815034,-3.7152939,1.0914052,-0.024880886,-0.99595332,-0.086360365,0
1.1110266,2.9832759,-1.4919854,0.95466876,0.0019610524,-0.2976642,0
-1.4424127,-3.4540095,0.45591104,-0.024880886,-0.99595332,-0.086360365,0
-1.5527442,3.409339,0.33299839,0.024880886,0.99595332,0.086360365,0
-0.12962198,-3.5597596,-0.70395482,-0.024880886,-0.99595332,-0.086360365,0
-1.1386075,-2.3685894,-3.5690904,-0.29662898,0.089851715,-0.95075667,0
-0.29784489,-3.436259,0.10995805,-0.024880886,-0.99595332,-0.086360365,0
2.4829235,3.1222177,3.349956,0.024880886,0.99595332,0.086360365,0
0.96821523,3.2180748,3.0428977,0.024880886,0.99595332,0.086360365,0
2.1269186,-1.1584561,2.7295578,0.29662898,-0.089851715,0.95075667,0
-0.045753002,-3.9744766,3.2391233,-0.024880886,-0.99595332,-0.086360365,0
2.0240054,-3.2087345,2.8677435,0.29662898,-0.089851715,0.95075667,0
-0.83106613,1.803777,2.8387899,-0.95466876,-0.0019610524,0.2976642,0
-1.8671409,-2.6201074,-3.5317671,-0.29662898,0.089851715,-0.95075667,0
1.4207909,-3.6514909,0.53913188,-0.024880886,-0.99595332,-0.086360365,0
0.17482829,3.1401424,3.3548248,0.024880886,0.99595332,0.086360365,0
-0.80346107,2.6625786,1.9132837,-0.95466876,-0.0019610524,0.2976642,0
0.38560486,3.2466006,-3.3119478,-0.29662898,0.089851715,-0.95075667,0
1.8962719,3.445612,2.1248298,0.024880886,0.99595332,0.086360365,0
0.10667992,-3.5663681,-1.076148,-0.024880886,-0.99595332,-0.086360365,0
-0.85112739,3.3854892,-0.032102466,0.024880886,0.99595332,0.086360365,0
-1.270354,-3.2499077,-1.9224097,-0.024880886,-0.99595332,-0.086360365,0
1.2565525,-0.10535434,3.2939324,0.29662898,-0.089851715,0.95075667,0
0.89956117,-3.0763824,3.1004305,0.29662898,-0.089851715,0.95075667,0
-1.8871331,2.5181639,-2.662801,-0.29662898,0.089851715,-0.95075667,0
-1.955828,-3.2864504,-3.5113041,-0.29662898,0.089851715,-0.95075667,0
0.70429921,3.3300192,3.2270932,0.024880886,0.99595332,0.086360365,0
-1.3766673,3.1153991,-3.0701313,-0.29662898,0.089851715,-0.95075667,0
-2.2634816,-0.24523044,-2.010942,-0.95466876,-0.0019610524,0.2976642,0
-1.731431,3.6109738,-0.37712002,0.024880886,0.99595332,0.086360365,0
-0.77044582,3.1701245,-3.2516041,-0.29662898,0.089851715,-0.95075667,0
2.0914929,-3.1491127,1.1875308,0.95466876,0.0019610524,-0.2976642,0
-0.24535871,-3.4538224,1.3066896,-0.024880886,-0.99595332,-0.086360365,0
-0.8700788,2.5053577,1.8595631,-0.95466876,-0.0019610524,0.2976642,0
-1.7655792,-1.8000743,-1.0431063,-0.95466876,-0.0019610524,0.2976642,0
1.8858774,-1.0754688,2.8267362,0.29662898,-0.089851715,0.95075667,0
0.46653128,3.6986084,-3.2455926,0.024880886,0.99595332,0.086360365,0
0.074169636,3.3895164,3.2355266,0.024880886,0.99595332,0.086360365,0
-1.4503185,2.5939701,-2.8315399,-0.29662898,0.089851715,-0.95075667,0
0.99170256,-3.5967283,0.28770065,-0.024880886,-0.99595332,-0.086360365,0
-0.22802567,3.4501629,-0.44341719,0.024880886,0.99595332,0.086360365,0
0.1883533,3.5134473,-2.0214417,0.024880886,0.99595332,0.086360365,0
-0.29671574,2.1221457,-3.560817,-0.29662898,0.089851715,-0.95075667,0
-1.9404775,-0.33326411,-1.2078226,-0.95466876,-0.0019610524,0.2976642,0
-2.2424452,-1.4513803,-2.4118161,-0.95466876,-0.0019610524,0.2976642,0
-0.46822882,3.0854616,3.1586561,0.024880886,0.99595332,0.086360365,0
-0.59027481,-0.136338,-3.6261275,-0.29662898,0.089851715,-0.95075667,0
1.3792975,-0.78487718,-0.39301991,0.95466876,0.0019610524,-0.2976642,0
1.4525462,1.9194797,-0.41199112,0.95466876,0.0019610524,-0.2976642,0
0.68453181,-0.66232884,3.6099763,0.29662898,-0.089851715,0.95075667,0
-2.3446441,-1.5744874,-3.0467951,-0.29662898,0.089851715,-0.95075667,0
-1.3625772,3.4720221,-1.3355761,0.024880886,0.99595332,0.086360365,0
1.2807381,-1.9049865,2.9003735,0.29662898,-0.089851715,0.95075667,0
-1.1351511,3.8182619,-0.97053075,0.024880886,0.99595332,0.086360365,0
-1.8846898,1.3273203,-0.85125518,-0.95466876,-0.0019610524,0.2976642,0
0.45704293,3.5681796,-0.95247567,0.024880886,0.99595332,0.086360365,0
0.46226895,0.52489328,3.6750839,0.29662898,-0.089851715,0.95075667,0
1.3243874,-0.37467587,-1.1136848,0.95466876,0.0019610524,-0.2976642,0
2.1465316,-2.6549921,2.3014884,0.95466876,0.0019610524,-0.2976642,0
-1.6930001,-2.2256041,-0.47062689,-0.95466876,-0.0019610524,0.2976642,0
1.8282329,2.6056376,3.5629222,0.29662898,-0.089851715,0.95075667,0
-0.81957126,3.6258028,-0.22221899,0.024880886,0.99595332,0.086360365,0
-1.847007,1.9814491,-0.64436769,-0.95466876,-0.0019610524,0.2976642,0
1.2398438,2.2831662,3.4047446,0.29662898,-0.089851715,0.95075667,0
0.76352745,1.9882931,-3.2465727,0.95466876,0.0019610524,-0.2976642,0
0.58194876,-3.4803991,0.030164123,-0.024880886,-0.99595332,-0.086360365,0
2.3123581,0.0031850934,2.7333403,0.95466876,0.0019610524,-0.2976642,0
-1.1551759,-3.5057688,-1.0656974,-0.024880886,-0.99595332,-0.086360365,0
-2.217241,-2.4438941,-2.1688895,-0.95466876,-0.0019610524,0.2976642,0
-1.7124219,3.029763,-0.83454251,-0.95466876,-0.0019610524,0.2976642,0
-1.2628611,1.7070631,-3.1596882,-0.29662898,0.089851715,-0.95075667,0
-0.021266222,2.8358903,4.0102158,0.29662898,-0.089851715,0.95075667,0
-1.3560545,1.5025951,0.093898177,-0.95466876,-0.0019610524,0.2976642,0
1.7557447,0.83122295,0.11576015,0.95466876,0.0019610524,-0.2976642,0
2.336657,2.2771103,3.0844979,0.29662898,-0.089851715,0.95075667,0
1.4539093,-1.8470379,0.1962173,0.95466876,0.0019610524,-0.2976642,0
1.0912757,1.4276356,-1.3023918,0.95466876,0.0019610524,-0.2976642,0
1.5111177,2.2894909,-0.77541476,0.95466876,0.0019610524,-0.2976642,0
-0.41503835,3.136889,2.9949746,0.024880886,0.99595332,0.086360365,0
2.0292842,1.6926415,3.1443124,0.29662898,-0.089851715,0.95075667,0
0.033579528,1.8060236,-3.7090876,-0.29662898,0.089851715,-0.95075667,0
0.57346821,3.5832009,-1.0652809,0.024880886,0.99595332,0.086360365,0
0.74446273,-2.2268705,-2.7279065,0.95466876,0.0019610524,-0.2976642,0
-0.37271512,-1.2102418,-3.7537527,-0.29662898,0.089851715,-0.95075667,0
-1.0070379,1.3171183,-3.4118423,-0.29662898,0.089851715,-0.95075667,0
-0.17378354,-3.2603085,-1.0706831,-0.024880886,-0.99595332,-0.086360365,0
2.1390381,-0.089788318,3.1211464,0.29662898,-0.089851715,0.95075667,0
1.5424089,-1.3816621,0.28604686,0.95466876,0.0019610524,-0.2976642,0
0.93683553,3.386601,2.3284805,0.024880886,0.99595332,0.086360365,0
0.33566511,0.91382253,3.8616648,0.29662898,-0.089851715,0.95075667,0
-0.78698158,-3.060235,-3.6148975,-0.29662898,0.089851715,-0.95075667,0
-0.35203755,2.0523698,-3.4974618,-0.29662898,0.089851715,-0.95075667,0
0.13262129,0.70276201,3.7804303,0.29662898,-0.089851715,0.95075667,0
0.41729426,3.6134729,-2.8572357,0.024880886,0.99595332,0.086360365,0
1.0003173,-3.048738,-2.4827735,0.95466876,0.0019610524,-0.2976642,0
0.19219089,3.7314944,-1.801759,0.024880886,0.99595332,0.086360365,0
-1.3450272,1.9907686,1.0385089,-0.95466876,-0.0019610524,0.2976642,0
1.5617304,-3.5714078,0.54692984,-0.024880886,-0.99595332,-0.086360365,0
-0.91154897,-3.2232189,2.4898007,-0.95466876,-0.0019610524,0.2976642,0
0.42741823,-3.1775551,-3.1333766,0.95466876,0.0019610524,-0.2976642,0
-0.88181806,3.4345174,-0.25649643,0.024880886,0.99595332,0.086360365,0
-0.77234006,2.0998363,-3.4008083,-0.29662898,0.089851715,-0.95075667,0
-2.2062159,2.9625671,-1.9818609,-0.95466876,-0.0019610524,0.2976642,0
-2.5625906,-0.53189945,-2.7901525,-0.95466876,-0.0019610524,0.2976642,0
2.1157629,-2.8407292,1.3321242,0.95466876,0.0019610524,-0.2976642,0
-1.4783772,-1.9322281,0.41526836,-0.95466876,-0.0019610524,0.2976642,0
-2.1489623,-1.3647997,-3.1641817,-0.29662898,0.089851715,-0.95075667,0
-1.0613482,0.86122012,-3.4508367,-0.29662898,0.089851715,-0.95075667,0
0.29028404,-0.98468077,3.4930487,0.29662898,-0.089851715,0.95075667,0
-1.584173,0.19162703,-0.50140679,-0.95466876,-0.0019610524,0.2976642,0
1.0961375,-3.5898297,-1.5784268,-0.024880886,-0.99595332,-0.086360365,0
-1.6531422,-1.3672637,-3.4702859,-0.29662898,0.089851715,-0.95075667,0
1.4433757,-0.45575666,-0.19854072,0.95466876,0.0019610524,-0.2976642,0
-1.5897782,-3.2473302,-1.4054694,-0.024880886,-0.99595332,-0.086360365,0
-0.65366435,3.5062289,2.2004197,0.024880886,0.99595332,0.086360365,0
2.1796985,3.4551363,2.3590991,0.024880886,0.99595332,0.086360365,0
2.4159398,-1.4722409,2.2386608,0.95466876,0.0019610524,-0.2976642,0
0.39752316,3.8492398,-2.7469327,0.024880886,0.99595332,0.086360365,0
1.3813863,3.5714231,0.26062405,0.024880886,0.99595332,0.086360365,0
1.4532263,2.8403428,3.3097141,0.29662898,-0.089851715,0.95075667,0
1.821738,-2.5883687,2.7469497,0.29662898,-0.089851715,0.95075667,0
-0.69704807,-1.830989,2.6309023,-0.95466876,-0.0019610524,0.2976642,0
0.41300488,-3.2967644,-3.1228704,-0.024880886,-0.99595332,-0.086360365,0
1.4243951,3.1584349,1.8626844,0.024880886,0.99595332,0.086360365,0
-0.11615944,-2.6010346,-3.9493647,-0.29662898,0.089851715,-0.95075667,0
0.48829794,3.8721261,-2.0487747,0.024880886,0.99595332,0.086360365,0
-1.5042493,3.5182939,-3.0428438,-0.29662898,0.089851715,-0.95075667,0
-0.71506548,3.7672825,-1.6476068,0.024880886,0.99595332,0.086360365,0
-0.93746626,-0.6347034,1.9613941,-0.95466876,-0.0019610524,0.2976642,0
0.4520638,-2.0204043,-3.3856192,0.95466876,0.0019610524,-0.2976642,0
-0.59629774,3.6133039,-1.5321951,0.024880886,0.99595332,0.086360365,0
-1.5157576,-3.2748463,-1.5140237,-0.024880886,-0.99595332,-0.086360365,0
-2.2290845,3.495568,-2.7973189,-0.29662898,0.089851715,-0.95075667,0
-1.4810817,1.7945707,-3.1892786,-0.29662898,0.089851715,-0.95075667,0
-1.8645847,3.8960261,-2.5172043,0.024880886,0.99595332,0.086360365,0
-0.37889719,-3.3541503,-2.2319143,-0.024880886,-0.99595332,-0.086360365,0
0.69773626,-1.3577392,3.3070273,0.29662898,-0.089851715,0.95075667,0
-1.283445,0.49712765,0.34574437,-0.95466876,-0.0019610524,0.2976642,0
0.63082898,2.358603,-3.5133026,0.95466876,0.0019610524,-0.2976642,0
1.9407978,3.1824296,3.35765,0.024880886,0.99595332,0.086360365,0
-1.0597734,-3.391942,-0.50214231,-0.024880886,-0.99595332,-0.086360365,0
0.21747732,3.6322274,-2.206975,0.024880886,0.99595332,0.086360365,0
-1.2808019,-1.760975,-3.3717606,-0.29662898,0.089851715,-0.95075667,0
0.21510696,3.2931194,2.9768753,0.024880886,0.99595332,0.086360365,0
1.0905917,-0.067135572,-2.1905775,0.95466876,0.0019610524,-0.2976642,0
-1.4083478,2.1128943,0.60077149,-0.95466876,-0.0019610524,0.2976642,0
2.1679444,-1.5486686,2.8366163,0.29662898,-0.089851715,0.95075667,0
-0.10696733,0.75820196,-3.5989594,-0.29662898,0.089851715,-0.95075667,0
0.76033342,0.93036783,-2.2390718,0.95466876,0.0019610524,-0.2976642,0
1.5766757,3.4006953,2.4783225,0.024880886,0.99595332,0.086360365,0
2.3155131,2.9034429,3.2680714,0.29662898,-0.089851715,0.95075667,0
-0.37667096,2.3534915,-3.2972093,-0.29662898,0.089851715,-0.95075667,0
-0.81635737,3.5928345,-2.8801756,0.024880886,0.99595332,0.086360365,0
1.1815941,-1.7147561,-1.0767359,0.95466876,0.0019610524,-0.2976642,0
1.1053003,-0.7419647,3.0891566,0.29662898,-0.089851715,0.95075667,0
-2.3838885,0.055732965,-2.1884551,-0.95466876,-0.0019610524,0.2976642,0
-1.7270851,3.6266844,-0.91904211,0.024880886,0.99595332,0.086360365,0
1.0985875,3.6090028,-0.83642566,0.95466876,0.0019610524,-0.2976642,0
1.1718528,-3.8177629,2.2445333,-0.024880886,-0.99595332,-0.086360365,0
0.15244079,3.7602918,-3.2550149,-0.29662898,0.089851715,-0.95075667,0
1.1126084,0.43821228,-1.9528899,0.95466876,0.0019610524,-0.2976642,0
2.0303445,0.23770986,3.0156114,0.29662898,-0.089851715,0.95075667,0
-0.53626084,3.5091665,-3.2374659,-0.29662898,0.089851715,-0.95075667,0
0.64820361,-3.5594897,1.6645775,-0.024880886,-0.99595332,-0.086360365,0
1.8202522,-3.8466327,1.7499809,-0.024880886,-0.99595332,-0.086360365,0
-1.712585,3.5676579,-2.0532634,0.024880886,0.99595332,0.086360365,0
1.6174335,-3.069541,0.43416524,0.95466876,0.0019610524,-0.2976642,0
1.7525911,-0.093575954,0.75745869,0.95466876,0.0019610524,-0.2976642,0
1.3892016,-3.2147202,2.9868913,0.29662898,-0.089851715,0.95075667,0
1.6531589,-3.0411396,0.57059741,0.95466876,0.0019610524,-0.2976642,0
1.4160798,-3.793119,2.8303499,-0.024880886,-0.99595332,-0.086360365,0
0.12053633,-3.3348539,-1.6989982,-0.024880886,-0.99595332,-0.086360365,0
-1.1656487,3.4015265,0.88842911,0.024880886,0.99595332,0.086360365,0
0.27009654,3.4009185,-3.5382848,-0.29662898,0.089851715,-0.95075667,0
-2.1592252,-2.6280928,-1.7243586,-0.95466876,-0.0019610524,0.2976642,0
-0.34459925,3.7506013,-3.1904249,-0.29662898,0.089851715,-0.95075667,0
-0.075400829,1.5150495,3.7639515,0.29662898,-0.089851715,0.95075667,0
-1.1765816,-3.3997216,-2.2342989,-0.024880886,-0.99595332,-0.086360365,0
0.22692752,-2.311861,-3.8366163,0.95466876,0.0019610524,-0.2976642,0
-0.96663952,-3.1941681,-3.5417919,-0.024880886,-0.99595332,-0.086360365,0
-1.102385,2.4374661,1.5764973,-0.95466876,-0.0019610524,0.2976642,0
1.242404,0.83373201,3.2003748,0.29662898,-0.089851715,0.95075667,0
-1.8961618,-1.3905599,-3.387114,-0.29662898,0.089851715,-0.95075667,0
0.44691822,0.52690053,-3.5742538,0.95466876,0.0019610524,-0.2976642,0
1.5222416,-2.9862919,2.7160833,0.29662898,-0.089851715,0.95075667,0
-2.2749033,-2.0717835,-2.1443455,-0.95466876,-0.0019610524,0.2976642,0
0.53474927,-2.6403689,-3.8853631,0.95466876,0.0019610524,-0.2976642,0
-0.51350045,3.5783958,-1.0677941,0.024880886,0.99595332,0.086360365,0
1.8271787,3.0457883,3.5043952,0.29662898,-0.089851715,0.95075667,0
-1.2642119,-0.99858916,0.94479823,-0.95466876,-0.0019610524,0.2976642,0
2.225745,-3.3845899,1.5970626,0.95466876,0.0019610524,-0.2976642,0
-0.18179488,-3.481966,-1.3290579,-0.024880886,-0.99595332,-0.086360365,0
0.47338557,3.4540424,-3.2983308,0.95466876,0.0019610524,-0.2976642,0
-0.41600454,1.3154086,-3.5983706,-0.29662898,0.089851715,-0.95075667,0
0.36441737,-1.5396439,3.2879677,0.29662898,-0.089851715,0.95075667,0
-2.1270688,0.59690011,-1.8458109,-0.95466876,-0.0019610524,0.2976642,0
1.425091,-3.7025423,1.4140282,-0.024880886,-0.99595332,-0.086360365,0
0.49381173,3.1553855,-3.2460394,0.95466876,0.0019610524,-0.2976642,0
0.17667961,-2.84864,-4.1715727,-0.29662898,0.089851715,-0.95075667,0
-1.0209186,-1.9690751,1.9622025,-0.95466876,-0.0019610524,0.2976642,0
-1.6836479,-0.26510793,-3.3156817,-0.29662898,0.089851715,-0.95075667,0
-0.3067224,3.4318142,-1.0299437,0.024880886,0.99595332,0.086360365,0
1.2226584,2.3854704,-1.4847471,0.95466876,0.0019610524,-0.2976642,0
-0.62167794,-1.0666885,2.8168595,-0.95466876,-0.0019610524,0.2976642,0
2.1729467,2.0747838,3.3123384,0.29662898,-0.089851715,0.95075667,0
0.0055966377,-3.4118643,-1.4941639,-0.024880886,-0.99595332,-0.086360365,0
1.9295807,0.36734954,3.0394971,0.29662898,-0.089851715,0.95075667,0
0.69904709,3.4810209,-0.022032261,0.024880886,0.99595332,0.086360365,0
-1.4968677,3.6638727,-0.63360572,0.024880886,0.99595332,0.086360365,0
0.091026783,0.59082258,3.6936221,0.29662898,-0.089851715,0.95075667,0
0.025875926,-2.0533292,3.3120902,0.29662898,-0.089851715,0.95075667,0
-0.85294199,3.3802128,-2.9250865,-0.29662898,0.089851715,-0.95075667,0
-2.167464,1.1254033,-1.3624008,-0.95466876,-0.0019610524,0.2976642,0
-0.69950038,1.0913308,-3.1710405,-0.29662898,0.089851715,-0.95075667,0
-1.7930391,0.2836535,-1.0130893,-0.95466876,-0.0019610524,0.2976642,0
-0.77238965,-2.7215717,2.9324162,-0.95466876,-0.0019610524,0.2976642,0
1.8769041,0.41116953,3.0771618,0.29662898,-0.089851715,0.95075667,0
-1.7525458,2.0914793,-2.8834279,-0.29662898,0.089851715,-0.95075667,0
0.43508399,2.7925777,-3.3772838,0.95466876,0.0019610524,-0.2976642,0
1.69221,-2.8196859,2.8762126,0.29662898,-0.089851715,0.95075667,0
-1.8092731,1.5660684,-0.61939228,-0.95466876,-0.0019610524,0.2976642,0
-1.4759951,3.3906198,0.86126864,0.024880886,0.99595332,0.086360365,0
-0.66433507,-2.1999395,3.2985642,-0.95466876,-0.0019610524,0.2976642,0
2.4244657,1.0361856,2.3553104,0.95466876,0.0019610524,-0.2976642,0
1.2265363,-3.4124765,-1.0045774,-0.024880886,-0.99595332,-0.086360365,0
0.15643978,3.5284057,1.1703633,0.024880886,0.99595332,0.086360365,0
0.06687212,3.5356336,-1.8095365,0.024880886,0.99595332,0.086360365,0
-0.16156864,2.9976656,4.1050215,0.29662898,-0.089851715,0.95075667,0
0.40373468,2.1636548,-3.4712689,0.95466876,0.0019610524,-0.2976642,0
1.0351365,-2.382484,-2.0487773,0.95466876,0.0019610524,-0.2976642,0
0.60098886,3.0291002,-3.3191757,0.95466876,0.0019610524,-0.2976642,0
0.48993599,-0.89326882,-3.4798155,0.95466876,0.0019610524,-0.2976642,0
0.34970665,-3.1818349,-3.9488132,-0.29662898,0.089851715,-0.95075667,0
-1.1794958,3.7622113,-2.1471968,0.024880886,0.99595332,0.086360365,0
-1.501874,0.49045587,-2.9845386,-0.29662898,0.089851715,-0.95075667,0
0.16372156,-3.1914425,-3.6329212,-0.024880886,-0.99595332,-0.086360365,0
0.59055305,-0.56291938,-3.5020719,0.95466876,0.0019610524,-0.2976642,0
1.4189224,-3.4209638,-0.28238797,0.95466876,0.0019610524,-0.2976642,0
0.86565828,2.8896637,3.6112626,0.29662898,-0.089851715,0.95075667,0
-1.6177274,2.7587531,-2.9615231,-0.29662898,0.089851715,-0.95075667,0
0.18046546,3.4014339,0.47552326,0.024880886,0.99595332,0.086360365,0
-1.6031227,1.6874971,0.023308396,-0.95466876,-0.0019610524,0.2976642,0
-1.3902352,-2.1073594,-3.5266669,-0.29662898,0.089851715,-0.95075667,0
0.29148054,-3.5095663,-1.2571051,-0.024880886,-0.99595332,-0.086360365,0
-0.28289452,-0.53953743,3.5431747,0.29662898,-0.089851715,0.95075667,0
-1.1735713,-2.2470672,1.209347,-0.95466876,-0.0019610524,0.2976642,0
2.2983978,-0.58729112,2.5063138,0.95466876,0.0019610524,-0.2976642,0
-0.68871236,1.8673129,-3.2689605,-0.29662898,0.089851715,-0.95075667,0
2.1162,-1.4174476,1.5964453,0.95466876,0.0019610524,-0.2976642,0
0.94991922,3.1961522,2.4239585,0.024880886,0.99595332,0.086360365,0
-0.67488027,-0.42384851,2.5765057,-0.95466876,-0.0019610524,0.2976642,0
-0.01655972,-2.2028811,3.4584267,0.29662898,-0.089851715,0.95075667,0
1.1781187,3.1618142,1.6395276,0.024880886,0.99595332,0.086360365,0
2.1641726,3.2603245,2.4475334,0.95466876,0.0019610524,-0.2976642,0
-0.91766012,-0.96675467,1.8556923,-0.95466876,-0.0019610524,0.2976642,0
0.87659049,2.3672318,3.7868707,0.29662898,-0.089851715,0.95075667,0
0.46393234,-1.2228321,3.3738947,0.29662898,-0.089851715,0.95075667,0
0.67486393,1.6132886,3.4831402,0.29662898,-0.089851715,0.95075667,0
-1.4714692,-3.4129009,-2.4404502,-0.024880886,-0.99595332,-0.086360365,0
-0.14464474,-3.7446227,0.81898797,-0.024880886,-0.99595332,-0.086360365,0
2.2053223,-2.2203715,2.8554668,0.29662898,-0.089851715,0.95075667,0
-1.5297928,-3.2137134,-1.1049659,-0.024880886,-0.99595332,-0.086360365,0
0.052090056,1.1354444,-3.6615887,-0.29662898,0.089851715,-0.95075667,0
2.4015594,2.4305563,3.312628,0.95466876,0.0019610524,-0.2976642,0
-0.81390166,2.595181,1.8172612,-0.95466876,-0.0019610524,0.2976642,0
-1.0363529,3.4439285,1.7132584,0.024880886,0.99595332,0.086360365,0
1.8906586,-3.2469049,0.39163852,0.95466876,0.0019610524,-0.2976642,0
0.93059528,-0.43609577,3.4146147,0.29662898,-0.089851715,0.95075667,0
0.24566221,-3.8034396,3.3423886,0.29662898,-0.089851715,0.95075667,0
2.1421556,-3.6960819,1.776902,-0.024880886,-0.99595332,-0.086360365,0
2.0645838,-0.46485442,2.0880413,0.95466876,0.0019610524,-0.2976642,0
-1.6663898,-2.8203943,-0.64538139,-0.95466876,-0.0019610524,0.2976642,0
-0.048707873,-0.55143559,3.6917589,0.29662898,-0.089851715,0.95075667,0
0.61738884,-2.5199046,3.0688214,0.29662898,-0.089851715,0.95075667,0
2.0787926,0.66244507,3.0370948,0.29662898,-0.089851715,0.95075667,0
0.24771428,2.2278252,3.9194164,0.29662898,-0.089851715,0.95075667,0
-0.95729667,-2.0032282,1.532937,-0.95466876,-0.0019610524,0.2976642,0
-0.86449695,-3.2856543,-0.12702894,-0.024880886,-0.99595332,-0.086360365,0
-0.57599044,-3.2843919,-1.1874702,-0.024880886,-0.99595332,-0.086360365,0
1.6472983,1.9374411,3.2020934,0.29662898,-0.089851715,0.95075667,0
-0.15352225,2.351058,-3.4967225,-0.29662898,0.089851715,-0.95075667,0
-2.5048919,1.9022479,-2.3989973,-0.95466876,-0.0019610524,0.2976642,0
-0.15209961,3.1959949,3.917145,-0.95466876,-0.0019610524,0.2976642,0
-2.116267,-0.71778393,-1.2730086,-0.95466876,-0.0019610524,0.2976642,0
1.3203292,2.1296673,3.5444462,0.29662898,-0.089851715,0.95075667,0
-2.1871586,1.6721866,-2.6662071,-0.29662898,0.089851715,-0.95075667,0
0.90912908,1.9493066,-2.3876698,0.95466876,0.0019610524,-0.2976642,0
0.61253273,1.9092003,-2.7794478,0.95466876,0.0019610524,-0.2976642,0
-1.015684,-1.4282609,2.4022529,-0.95466876,-0.0019610524,0.2976642,0
-0.88629937,1.9946353,2.5644066,-0.95466876,-0.0019610524,0.2976642,0
0.22215366,-3.6593883,0.32396078,-0.024880886,-0.99595332,-0.086360365,0
0.13574338,3.1822181,1.925787,0.024880886,0.99595332,0.086360365,0
1.0916573,-0.43896294,-2.025332,0.95466876,0.0019610524,-0.2976642,0
-1.194685,0.46587992,1.8731252,-0.95466876,-0.0019610524,0.2976642,0
0.2026,3.2196631,2.9518609,0.024880886,0.99595332,0.086360365,0
2.0523579,-3.2093461,2.7536674,0.29662898,-0.089851715,0.95075667,0
0.97711766,0.86832929,-2.1848679,0.95466876,0.0019610524,-0.2976642,0
-2.1603637,1.6466736,-3.053628,-0.29662898,0.089851715,-0.95075667,0
-1.0553029,-3.5810223,-0.35910022,-0.024880886,-0.99595332,-0.086360365,0
-1.4542296,-3.2462215,-1.875627,-0.024880886,-0.99595332,-0.086360365,0
0.71685964,1.8631212,-2.3301201,0.95466876,0.0019610524,-0.2976642,0
0.83540702,-2.0540605,-2.3013873,0.95466876,0.0019610524,-0.2976642,0
1.0910335,-3.9093292,1.9581554,-0.024880886,-0.99595332,-0.086360365,0
-0.63032889,3.6574266,-1.3238609,0.024880886,0.99595332,0.086360365,0
-2.2886639,-2.0832968,-2.7365494,-0.95466876,-0.0019610524,0.2976642,0
0.57215977,2.1678913,3.7172506,0.29662898,-0.089851715,0.95075667,0
1.5021247,-2.3283708,3.1503768,0.29662898,-0.089851715,0.95075667,0
-1.1675789,3.8096986,-1.1837306,0.024880886,0.99595332,0.086360365,0
-1.812812,-1.5588439,-1.1916333,-0.95466876,-0.0019610524,0.2976642,0
1.1773837,-3.3334212,-0.4416424,-0.024880886,-0.99595332,-0.086360365,0
-0.70637745,-1.3620019,2.4436057,-0.95466876,-0.0019610524,0.2976642,0
0.14840394,-1.5608267,3.4542329,0.29662898,-0.089851715,0.95075667,0
2.0045192,-1.0072533,3.112052,0.29662898,-0.089851715,0.95075667,0
-1.3231797,2.2158904,1.3961518,-0.95466876,-0.0019610524,0.2976642,0
-0.040170193,-3.3517733,3.2386222,0.29662898,-0.089851715,0.95075667,0
0.57839751,3.1235673,2.5438712,0.024880886,0.99595332,0.086360365,0
0.39988804,-3.7671022,1.7212725,-0.024880886,-0.99595332,-0.086360365,0
-2.0697103,-0.10988224,-3.0327928,-0.29662898,0.089851715,-0.95075667,0
-1.0863602,-1.214496,1.9359697,-0.95466876,-0.0019610524,0.2976642,0
0.56498545,-1.01173,3.4617672,0.29662898,-0.089851715,0.95075667,0
-2.0905509,3.7019868,-1.360333,0.024880886,0.99595332,0.086360365,0
-1.6342487,-1.9257646,-0.18551174,-0.95466876,-0.0019610524,0.2976642,0
-0.49070287,-3.5385933,0.81297731,-0.024880886,-0.99595332,-0.086360365,0
0.078751326,3.6977386,-2.9278846,0.024880886,0.99595332,0.086360365,0
0.049998999,3.3600259,-0.25460494,0.024880886,0.99595332,0.086360365,0
0.93591785,0.38391578,-1.4916282,0.95466876,0.0019610524,-0.2976642,0
-2.5881281,0.65350449,-2.7750645,-0.95466876,-0.0019610524,0.2976642,0
0.63862562,0.42086148,-2.4951382,0.95466876,0.0019610524,-0.2976642,0
-1.4159327,-3.2527771,-1.4205137,-0.024880886,-0.99595332,-0.086360365,0
-1.4694263,-1.8746563,-3.4253905,-0.29662898,0.089851715,-0.95075667,0
1.4810092,-3.6281419,2.1731458,-0.024880886,-0.99595332,-0.086360365,0
-2.089617,-0.9652524,-1.3214067,-0.95466876,-0.0019610524,0.2976642,0
-1.0523622,3.5700026,1.199832,0.024880886,0.99595332,0.086360365,0
-1.6710188,-3.4032907,-1.4906223,-0.024880886,-0.99595332,-0.086360365,0
0.80998445,3.4875481,0.39792603,0.024880886,0.99595332,0.086360365,0
-1.5062976,-0.66170567,-3.2150831,-0.29662898,0.089851715,-0.95075667,0
0.1580441,3.5001166,-1.3443964,0.024880886,0.99595332,0.086360365,0
-2.5708835,-1.0346085,-2.8887837,-0.29662898,0.089851715,-0.95075667,0
0.96324849,-3.469738,0.52801442,-0.024880886,-0.99595332,-0.086360365,0
-1.3509302,-3.2245126,-3.0024695,-0.024880886,-0.99595332,-0.086360365,0
-1.0507662,-3.032449,-3.7324026,-0.29662898,0.089851715,-0.95075667,0
1.7279757,1.4670479,-0.014295042,0.95466876,0.0019610524,-0.2976642,0
-0.33917761,2.8643761,4.056344,-0.95466876,-0.0019610524,0.2976642,0
-2.437485,0.0061448812,-2.4583619,-0.95466876,-0.0019610524,0.2976642,0
-0.35007405,-3.5980511,0.4143132,-0.024880886,-0.99595332,-0.086360365,0
-0.97461724,3.0780458,1.8672293,-0.95466876,-0.0019610524,0.2976642,0
1.75538,-0.37460661,1.1176418,0.95466876,0.0019610524,-0.2976642,0
1.0548859,-3.9132712,1.9886065,-0.024880886,-0.99595332,-0.086360365,0
-0.27430177,-3.9323184,3.1498001,-0.024880886,-0.99595332,-0.086360365,0
0.48444438,3.6156974,-0.59633803,0.024880886,0.99595332,0.086360365,0
0.7051537,-3.6261082,0.089290619,-0.024880886,-0.99595332,-0.086360365,0
-1.0895666,0.68604207,1.0153799,-0.95466876,-0.0019610524,0.2976642,0
1.9662573,3.2768636,1.9955122,0.024880886,0.99595332,0.086360365,0
1.0527725,-3.3036923,-1.2341154,0.95466876,0.0019610524,-0.2976642,0
-0.94427085,-3.1723523,-1.3907754,-0.024880886,-0.99595332,-0.086360365,0
1.3617024,-3.3165092,-0.41972047,0.95466876,0.0019610524,-0.2976642,0
0.46004152,-2.2553396,-3.3262217,0.95466876,0.0019610524,-0.2976642,0
-1.8990595,1.2389252,-0.51287687,-0.95466876,-0.0019610524,0.2976642,0
1.0854558,-2.7144315,2.9802234,0.29662898,-0.089851715,0.95075667,0
1.1383884,3.2234757,2.6750097,0.024880886,0.99595332,0.086360365,0
2.2243752,3.2402005,1.7592976,0.95466876,0.0019610524,-0.2976642,0
1.5018964,-0.24933748,2.9885681,0.29662898,-0.089851715,0.95075667,0
-1.121469,-3.4888659,-0.95724618,-0.024880886,-0.99595332,-0.086360365,0
-2.2283022,-0.34631085,-1.8044233,-0.95466876,-0.0019610524,0.2976642,0
-1.5842581,3.4986145,-0.21417403,0.024880886,0.99595332,0.086360365,0
1.9429264,1.1207161,1.3854837,0.95466876,0.0019610524,-0.2976642,0
-0.46461725,3.6058779,0.88280356,0.024880886,0.99595332,0.086360365,0
-1.506544,2.2276077,-3.0065515,-0.29662898,0.089851715,-0.95075667,0
0.083275318,-3.3885708,-3.4579198,-0.024880886,-0.99595332,-0.086360365,0
2.0660877,-0.18030894,1.1884186,0.95466876,0.0019610524,-0.2976642,0
-1.3810917,-1.516724,1.2313461,-0.95466876,-0.0019610524,0.2976642,0
-0.60343826,-1.9334598,3.5678182,-0.95466876,-0.0019610524,0.2976642,0
0.44155121,-3.2570643,-3.642467,0.95466876,0.0019610524,-0.2976642,0
0.33137172,1.8225846,-3.4972889,-0.29662898,0.089851715,-0.95075667,0
0.76982236,-3.5227697,-2.0890179,-0.024880886,-0.99595332,-0.086360365,0
0.040141225,1.9139671,-3.656179,-0.29662898,0.089851715,-0.95075667,0
0.031137228,-2.0723214,3.5846198,0.29662898,-0.089851715,0.95075667,0
-0.76470733,1.2066878,2.0647912,-0.95466876,-0.0019610524,0.2976642,0
0.3211956,3.6380782,0.63366687,0.024880886,0.99595332,0.086360365,0
-0.88225555,-3.5279272,2.2525501,-0.024880886,-0.99595332,-0.086360365,0
1.2708269,2.2496214,3.4438019,0.29662898,-0.089851715,0.95075667,0
0.80572772,2.5412045,-2.7458704,0.95466876,0.0019610524,-0.2976642,0
1.0524359,3.5427074,0.016800582,0.024880886,0.99595332,0.086360365,0
0.13860035,-3.0523825,-3.7300327,-0.024880886,-0.99595332,-0.086360365,0
-0.77802587,-3.5879331,1.953455,-0.95466876,-0.0019610524,0.2976642,0
-0.0021533966,-3.5554433,1.7354462,-0.024880886,-0.99595332,-0.086360365,0
1.2111552,3.1430886,2.7943256,0.024880886,0.99595332,0.086360365,0
-1.3257308,-3.4025877,-0.71194983,-0.024880886,-0.99595332,-0.086360365,0
-1.4361827,-2.0114381,-3.2687323,-0.29662898,0.089851715,-0.95075667,0
-2.0978611,-2.5973878,-3.0950935,-0.29662898,0.089851715,-0.95075667,0
-1.4609098,0.47597659,-3.3613803,-0.29662898,0.089851715,-0.95075667,0
-0.7898683,1.3795074,-3.1933651,-0.29662898,0.089851715,-0.95075667,0
1.7691844,3.452529,1.0556805,0.024880886,0.99595332,0.086360365,0
-0.9374851,-0.60673523,2.2134285,-0.95466876,-0.0019610524,0.2976642,0
-1.0051364,-0.23630214,1.4047691,-0.95466876,-0.0019610524,0.2976642,0
-1.9604654,0.11964864,-3.0410373,-0.29662898,0.089851715,-0.95075667,0
0.16011333,0.20645475,3.8401408,0.29662898,-0.089851715,0.95075667,0
-0.27087951,2.3050482,3.9784577,0.29662898,-0.089851715,0.95075667,0
-0.43066597,3.788588,-2.7788572,0.024880886,0.99595332,0.086360365,0
-2.0640533,1.1338878,-1.3892179,-0.95466876,-0.0019610524,0.2976642,0
-2.3683598,-2.3356137,-3.1592548,-0.29662898,0.089851715,-0.95075667,0
-0.43658102,-0.63623691,3.5964217,0.29662898,-0.089851715,0.95075667,0
0.45602989,-3.2492704,-2.4138024,-0.024880886,-0.99595332,-0.086360365,0
0.56164026,-3.9305418,2.9440935,-0.024880886,-0.99595332,-0.086360365,0
-1.8216246,2.2122197,-1.3850739,-0.95466876,-0.0019610524,0.2976642,0
1.3388515,3.5443263,1.1544144,0.024880886,0.99595332,0.086360365,0
-2.0353663,-1.2885642,-3.0299292,-0.29662898,0.089851715,-0.95075667,0
-0.68567342,-0.15292501,3.2361948,-0.95466876,-0.0019610524,0.2976642,0
1.5501658,-1.1106703,3.0094252,0.29662898,-0.089851715,0.95075667,0
1.3149607,3.4819632,-0.089605302,0.024880886,0.99595332,0.086360365,0
-0.70735824,-3.2630377,2.1580157,-0.95466876,-0.0019610524,0.2976642,0
-0.87324166,-1.1789312,1.8308504,-0.95466876,-0.0019610524,0.2976642,0
-2.0787413,-2.5632176,-1.3178123,-0.95466876,-0.0019610524,0.2976642,0
0.8473587,-3.4228797,0.76084995,-0.024880886,-0.99595332,-0.086360365,0
0.80877113,2.9273062,-2.282995,0.95466876,0.0019610524,-0.2976642,0
-0.75098646,-3.2899942,3.2382882,-0.95466876,-0.0019610524,0.2976642,0
1.8810053,0.88198245,1.1277252,0.95466876,0.0019610524,-0.2976642,0
-0.15068722,-3.8469644,1.6100304,-0.024880886,-0.99595332,-0.086360365,0
-0.83110964,0.2479167,2.3464746,-0.95466876,-0.0019610524,0.2976642,0
1.5324321,-2.2809319,0.11566842,0.95466876,0.0019610524,-0.2976642,0
-0.006759882,3.2851348,-3.5164042,-0.29662898,0.089851715,-0.95075667,0
0.22504473,3.3553724,-0.067195952,0.024880886,0.99595332,0.086360365,0
2.0207169,-3.6696718,0.93984056,-0.024880886,-0.99595332,-0.086360365,0
1.872288,3.1297784,2.3136413,0.024880886,0.99595332,0.086360365,0
1.7662129,-2.3612323,3.0615335,0.29662898,-0.089851715,0.95075667,0
1.8243921,-3.7317555,2.3743424,-0.024880886,-0.99595332,-0.086360365,0
0.47372907,-0.37326461,3.2887747,0.29662898,-0.089851715,0.95075667,0
-2.5507216,2.044682,-2.7405496,-0.95466876,-0.0019610524,0.2976642,0
-2.3122377,-2.1017933,-2.1316409,-0.95466876,-0.0019610524,0.2976642,0
2.1204896,3.2115295,1.920156,0.024880886,0.99595332,0.086360365,0
1.3218515,-3.7862473,2.5857916,-0.024880886,-0.99595332,-0.086360365,0
-0.64578378,1.2787274,2.7541132,-0.95466876,-0.0019610524,0.2976642,0
-1.0121998,0.62395775,-3.3931513,-0.29662898,0.089851715,-0.95075667,0
-1.411195,-3.3265581,-2.3426328,-0.024880886,-0.99595332,-0.086360365,0
1.4632666,3.2556138,3.0612781,0.024880886,0.99595332,0.086360365,0
-0.95481086,-3.1967993,-1.7499341,-0.024880886,-0.99595332,-0.086360365,0
-1.8871015,-3.1894622,-1.1036429,-0.95466876,-0.0019610524,0.2976642,0
2.1614914,-3.020534,2.6960654,0.29662898,-0.089851715,0.95075667,0
2.1230879,-3.207139,2.9136486,0.29662898,-0.089851715,0.95075667,0
1.4885724,2.3120229,3.4172215,0.29662898,-0.089851715,0.95075667,0
0.46774673,-1.2292889,-3.0689604,0.95466876,0.0019610524,-0.2976642,0
0.078430176,-3.5237203,-1.5548519,-0.024880886,-0.99595332,-0.086360365,0
0.61279225,1.9134922,3.4946866,0.29662898,-0.089851715,0.95075667,0
-2.3291817,-0.43317676,-2.9824762,-0.29662898,0.089851715,-0.95075667,0
0.42020738,-0.29356998,3.3950255,0.29662898,-0.089851715,0.95075667,0
-0.022012234,3.2676492,4.1072054,0.29662898,-0.089851715,0.95075667,0
-2.4064946,2.9795189,-2.0513756,-0.95466876,-0.0019610524,0.2976642,0
-1.9061992,0.84731811,-3.1708863,-0.29662898,0.089851715,-0.95075667,0
2.0051322,3.4303985,1.6014452,0.024880886,0.99595332,0.086360365,0
1.0750775,1.4781706,-1.2156454,0.95466876,0.0019610524,-0.2976642,0
1.9177988,-1.7094181,3.0065699,0.29662898,-0.089851715,0.95075667,0
2.0162034,2.372812,1.9128162,0.95466876,0.0019610524,-0.2976642,0
-0.26581717,-3.4456291,-2.5858674,-0.024880886,-0.99595332,-0.086360365,0
1.415827,-2.0890632,3.0357311,0.29662898,-0.089851715,0.95075667,0
-0.74229562,-1.7215343,2.2243602,-0.95466876,-0.0019610524,0.2976642,0
0.87154269,-1.9836763,-2.4444203,0.95466876,0.0019610524,-0.2976642,0
-1.9605829,-1.063931,-1.8776588,-0.95466876,-0.0019610524,0.2976642,0
0.58512664,-3.4936872,-1.6442311,-0.024880886,-0.99595332,-0.086360365,0
1.5472491,3.5328338,0.33616084,0.024880886,0.99595332,0.086360365,0
1.6941578,0.45871216,3.1857402,0.29662898,-0.089851715,0.95075667,0
-1.989738,-0.23670137,-0.84282351,-0.95466876,-0.0019610524,0.2976642,0
0.89223599,-2.6111884,-1.9159302,0.95466876,0.0019610524,-0.2976642,0
-1.3473544,1.4409449,0.11644334,-0.95466876,-0.0019610524,0.2976642,0
1.419862,3.3466885,-0.69621295,0.95466876,0.0019610524,-0.2976642,0
0.87899375,2.6496475,3.8593652,0.29662898,-0.089851715,0.95075667,0
-0.5056541,3.3248756,0.71430129,0.024880886,0.99595332,0.086360365,0
1.1115437,-0.27378762,-2.0457754,0.95466876,0.0019610524,-0.2976642,0
-0.67266774,3.5762048,-1.0969474,0.024880886,0.99595332,0.086360365,0
-0.55034947,2.7578387,-3.164726,-0.29662898,0.089851715,-0.95075667,0
-0.67261267,2.1188807,2.5733507,-0.95466876,-0.0019610524,0.2976642,0
-2.1310863,-2.1281469,-1.5920022,-0.95466876,-0.0019610524,0.2976642,0
-2.321929,2.6163485,-2.4992919,-0.29662898,0.089851715,-0.95075667,0
1.0859487,3.3160801,0.58462429,0.024880886,0.99595332,0.086360365,0
-1.6109786,-3.3191562,-1.8063633,-0.024880886,-0.99595332,-0.086360365,0
2.0174143,3.5153878,1.7153629,0.024880886,0.99595332,0.086360365,0
0.010294866,-0.94660425,3.6027708,0.29662898,-0.089851715,0.95075667,0
-0.8523851,-0.86764413,1.7382683,-0.95466876,-0.0019610524,0.2976642,0
-0.64009649,-0.93912768,2.8391654,-0.95466876,-0.0019610524,0.2976642,0
0.25538492,3.3102438,0.47416836,0.024880886,0.99595332,0.086360365,0
-2.1113935,2.2441206,-2.9196496,-0.29662898,0.089851715,-0.95075667,0
-0.7841289,-1.4106531,2.340909,-0.95466876,-0.0019610524,0.2976642,0
2.0786633,0.29898494,1.5213556,0.95466876,0.0019610524,-0.2976642,0
-0.070083857,-3.2747989,-0.52299726,-0.024880886,-0.99595332,-0.086360365,0
1.3520769,-1.3495953,3.0899897,0.29662898,-0.089851715,0.95075667,0
0.81563091,2.5325263,3.8228328,0.29662898,-0.089851715,0.95075667,0
-0.74040151,-3.3561606,0.55364966,-0.024880886,-0.99595332,-0.086360365,0
1.5244263,-2.1550972,3.1220036,0.29662898,-0.089851715,0.95075667,0
1.9562517,0.7361238,3.0103877,0.29662898,-0.089851715,0.95075667,0
1.9948397,-3.7094822,1.6231949,-0.024880886,-0.99595332,-0.086360365,0
1.5412189,1.3258505,-0.38309079,0.95466876,0.0019610524,-0.2976642,0
-1.26056,0.17154771,-3.2548282,-0.29662898,0.089851715,-0.95075667,0
-2.0396149,-1.5306022,-1.1773601,-0.95466876,-0.0019610524,0.2976642,0
-2.2126153,-0.27344298,-3.1328213,-0.29662898,0.089851715,-0.95075667,0
-0.35845447,3.6008987,-3.2133205,-0.29662898,0.089851715,-0.95075667,0
1.054549,3.403765,2.3787003,0.024880886,0.99595332,0.086360365,0
0.70118916,0.13010663,3.3249519,0.29662898,-0.089851715,0.95075667,0
-0.089692831,0.89926326,3.8553104,0.29662898,-0.089851715,0.95075667,0
-0.5468576,-0.99267054,-3.755012,-0.29662898,0.089851715,-0.95075667,0
-0.44515038,-3.1971059,-2.4071066,-0.024880886,-0.99595332,-0.086360365,0
-0.22728527,0.93469572,-3.6449511,-0.29662898,0.089851715,-0.95075667,0
1.7384011,-1.0017563,0.20034194,0.95466876,0.0019610524,-0.2976642,0
-0.75492698,0.95601654,-3.1486371,-0.29662898,0.089851715,-0.95075667,0
-1.5429084,-1.3335053,-3.2841802,-0.29662898,0.089851715,-0.95075667,0
2.3662837,-0.12029928,2.8494213,0.95466876,0.0019610524,-0.2976642,0
-2.1794794,0.10324842,-2.4073212,-0.95466876,-0.0019610524,0.2976642,0
-0.48934865,-2.6237559,-3.7489216,-0.29662898,0.089851715,-0.95075667,0
0.22757196,3.0341671,3.8493936,0.024880886,0.99595332,0.086360365,0
0.7833333,0.86380631,3.3313248,0.29662898,-0.089851715,0.95075667,0
-1.4378381,2.9281492,0.77031559,-0.95466876,-0.0019610524,0.2976642,0
1.5496213,-3.7924178,1.2729833,-0.024880886,-0.99595332,-0.086360365,0
0.58104253,-3.8136024,1.8846896,-0.024880886,-0.99595332,-0.086360365,0
-2.3462782,1.5102654,-2.9065909,-0.29662898,0.089851715,-0.95075667,0
1.4092925,-3.6209731,-0.19189882,-0.024880886,-0.99595332,-0.086360365,0
-0.75304377,-0.60348046,-3.6781332,-0.29662898,0.089851715,-0.95075667,0
-0.37800908,3.7421978,-1.6061065,0.024880886,0.99595332,0.086360365,0
0.96017647,-1.784704,-1.8373132,0.95466876,0.0019610524,-0.2976642,0
-1.0693521,3.5565207,1.0568384,0.024880886,0.99595332,0.086360365,0
0.80637264,3.4948578,1.8895634,0.024880886,0.99595332,0.086360365,0
-0.38943052,-3.8421779,3.0807996,-0.024880886,-0.99595332,-0.086360365,0
-1.3358569,3.5187395,-1.7819748,0.024880886,0.99595332,0.086360365,0
-0.24145675,1.6415937,-3.2987459,-0.29662898,0.089851715,-0.95075667,0
-2.1927443,-0.7834655,-3.2222552,-0.29662898,0.089851715,-0.95075667,0
0.76083755,3.4499478,1.0319539,0.024880886,0.99595332,0.086360365,0
0.18737638,-2.3419678,3.2013209,0.29662898,-0.089851715,0.95075667,0
1.5549901,-3.686264,1.7257013,-0.024880886,-0.99595332,-0.086360365,0
-1.7154224,3.684237,-0.87586141,-0.95466876,-0.0019610524,0.2976642,0
-1.8978363,-0.28119868,-1.1251371,-0.95466876,-0.0019610524,0.2976642,0
-1.2421312,2.8715296,1.028429,-0.95466876,-0.0019610524,0.2976642,0
1.3213058,-3.5170217,1.0753675,-0.024880886,-0.99595332,-0.086360365,0
-1.4659114,3.1435661,0.40984941,-0.95466876,-0.0019610524,0.2976642,0
-1.1610079,0.28282332,1.5137783,-0.95466876,-0.0019610524,0.2976642,0
-0.62580764,-0.90004551,-3.4481642,-0.29662898,0.089851715,-0.95075667,0
0.52313375,-3.8482785,2.1131663,-0.024880886,-0.99595332,-0.086360365,0
1.221446,-0.9853431,-0.68199331,0.95466876,0.0019610524,-0.2976642,0
-0.30487084,3.544734,-3.090857,-0.29662898,0.089851715,-0.95075667,0
1.7122154,2.7713046,3.6144817,0.29662898,-0.089851715,0.95075667,0
0.62618756,2.1135991,3.5797722,0.29662898,-0.089851715,0.95075667,0
-2.0520937,-0.47143549,-3.2774098,-0.29662898,0.089851715,-0.95075667,0
1.7140293,1.506906,0.96599448,0.95466876,0.0019610524,-0.2976642,0
