-4.5683265,-1.3242873,0.41053677,-0.24149778,-0.019430161,0.97020686,0
3.7902198,1.633635,2.6750779,-0.24149778,-0.019430161,0.97020686,0
-2.3309369,-3.7593055,-2.3568094,0.24149778,0.019430161,-0.97020686,0
3.0689359,4.323554,0.44339371,0.77472579,0.59820461,0.20482004,0
4.4091644,2.6241748,0.19939899,0.77472579,0.59820461,0.20482004,0
-1.5038248,1.0496026,-1.7686164,0.24149778,0.019430161,-0.97020686,0
-4.2205071,-0.91116571,-2.5657506,0.24149778,0.019430161,-0.97020686,0
3.3930752,3.4099705,1.2565336,0.77472579,0.59820461,0.20482004,0
-3.8451777,-0.011725664,-1.659157,-0.58436185,0.80110788,-0.12941206,0
-4.5361967,-0.45929122,-2.5200431,-0.58436185,0.80110788,-0.12941206,0
-2.948416,-4.1977549,-1.8660383,-0.77472579,-0.59820461,-0.20482004,0
1.601523,4.5616407,1.249351,-0.58436185,0.80110788,-0.12941206,0
-3.7277651,-2.9585655,-2.5044768,-0.77472579,-0.59820461,-0.20482004,0
3.783108,3.52598,0.038421631,0.77472579,0.59820461,0.20482004,0
2.6355574,5.0668144,0.33820724,0.77472579,0.59820461,0.20482004,0
-5.1526089,-0.79096937,-0.23570585,-0.58436185,0.80110788,-0.12941206,0
-0.75866473,2.497637,0.32348239,-0.58436185,0.80110788,-0.12941206,0
2.5276678,4.5365167,1.1367936,0.77472579,0.59820461,0.20482004,0
3.4387288,4.2049694,-0.20414734,0.77472579,0.59820461,0.20482004,0
4.4618807,0.12108427,-0.24499583,0.58436185,-0.80110788,0.12941206,0
3.4082816,-0.6369195,0.092372537,0.58436185,-0.80110788,0.12941206,0
3.5815389,2.261905,2.421319,-0.24149778,-0.019430161,0.97020686,0
1.5769759,4.5342813,1.2677746,-0.58436185,0.80110788,-0.12941206,0
-3.0705352,-3.6587524,-2.1745968,-0.77472579,-0.59820461,-0.20482004,0
-1.927319,1.5818149,-0.60574478,-0.58436185,0.80110788,-0.12941206,0
-0.54065478,2.8502002,-0.065766335,-0.58436185,0.80110788,-0.12941206,0
-3.6529031,-1.3250437,-2.3319449,0.24149778,0.019430161,-0.97020686,0
3.6895714,2.0033174,2.3133039,-0.24149778,-0.019430161,0.97020686,0
5.532259,0.87566602,0.29824781,0.58436185,-0.80110788,0.12941206,0
4.6704865,1.5380704,2.0076497,0.77472579,0.59820461,0.20482004,0
5.0237031,0.7583257,0.8504405,0.58436185,-0.80110788,0.12941206,0
-4.3437676,-1.8901484,-1.7107661,-0.77472579,-0.59820461,-0.20482004,0
-3.5745835,0.18949318,-0.76397216,-0.58436185,0.80110788,-0.12941206,0
-2.891279,-4.1555858,0.76076508,-0.24149778,-0.019430161,0.97020686,0
4.7575521,2.0152016,0.32784176,0.77472579,0.59820461,0.20482004,0
3.4052188,3.0738354,2.4695423,0.77472579,0.59820461,0.20482004,0
-3.7483521,0.26983798,-1.081218,-0.58436185,0.80110788,-0.12941206,0
2.4944081,-0.38173485,2.2961147,-0.24149778,-0.019430161,0.97020686,0
-1.3226275,2.2008491,1.1814101,-0.24149778,-0.019430161,0.97020686,0
-3.3583291,0.68178773,0.42992234,-0.58436185,0.80110788,-0.12941206,0
3.1445212,3.6551433,1.6331253,0.77472579,0.59820461,0.20482004,0
4.4600859,0.37390971,1.5264423,0.58436185,-0.80110788,0.12941206,0
4.2210217,0.11964321,1.0056789,0.58436185,-0.80110788,0.12941206,0
4.9747715,1.7566193,-0.13532114,0.24149778,0.019430161,-0.97020686,0
3.1726899,4.1056938,0.26251554,0.77472579,0.59820461,0.20482004,0
2.3388236,4.7619228,1.9107227,0.77472579,0.59820461,0.20482004,0
4.9496675,0.7881186,2.612556,0.77472579,0.59820461,0.20482004,0
-0.37447786,3.0629115,0.53138709,-0.58436185,0.80110788,-0.12941206,0
-4.9314651,-2.1076033,-0.0045647621,-0.77472579,-0.59820461,-0.20482004,0
-4.7807808,-0.84952712,-2.0639558,-0.58436185,0.80110788,-0.12941206,0
-1.5837151,-3.6183944,-2.1981573,0.24149778,0.019430161,-0.97020686,0
4.0846977,0.63955265,-0.40434527,0.24149778,0.019430161,-0.97020686,0
-0.59238291,2.6558053,0.94436693,-0.58436185,0.80110788,-0.12941206,0
3.1220486,3.5315111,2.0086083,0.77472579,0.59820461,0.20482004,0
-3.7421598,-0.52737737,-2.3280435,0.24149778,0.019430161,-0.97020686,0
2.4459293,3.2516966,-0.83977461,0.24149778,0.019430161,-0.97020686,0
2.2798681,3.547611,2.3417673,-0.24149778,-0.019430161,0.97020686,0
-0.15942693,-3.3217728,-0.50811267,0.58436185,-0.80110788,0.12941206,0
1.4675987,3.8610542,-0.61956739,-0.58436185,0.80110788,-0.12941206,0
-0.86731696,-3.790936,-0.29003334,0.58436185,-0.80110788,0.12941206,0
-4.6153817,-2.4666224,0.19626808,-0.77472579,-0.59820461,-0.20482004,0
-1.637748,-3.1282263,1.017693,-0.24149778,-0.019430161,0.97020686,0
4.94945,0.56007409,1.0405989,0.58436185,-0.80110788,0.12941206,0
-5.0353589,-1.4606154,-1.2857761,-0.77472579,-0.59820461,-0.20482004,0
4.6502142,2.5388348,0.0022039413,0.77472579,0.59820461,0.20482004,0
1.1672547,-2.1564095,1.6761786,0.58436185,-0.80110788,0.12941206,0
4.9277534,1.3387761,2.3325765,0.77472579,0.59820461,0.20482004,0
2.503078,4.3785405,1.6372523,0.77472579,0.59820461,0.20482004,0
-4.1685061,-0.33748484,-1.768918,-0.58436185,0.80110788,-0.12941206,0
0.8109957,-2.5496988,-0.076156259,0.58436185,-0.80110788,0.12941206,0
-2.5776997,1.2422676,-0.80821747,-0.58436185,0.80110788,-0.12941206,0
-3.5680203,-3.404448,-1.0647054,-0.77472579,-0.59820461,-0.20482004,0
-3.8707891,-3.1104095,-0.59044027,-0.77472579,-0.59820461,-0.20482004,0
-2.1727877,-2.3919435,0.91246819,-0.24149778,-0.019430161,0.97020686,0
-3.0509939,-3.9930515,-1.8210154,-0.77472579,-0.59820461,-0.20482004,0
5.4845982,1.0114684,0.58803082,0.77472579,0.59820461,0.20482004,0
3.9251473,2.9258504,0.14436245,0.77472579,0.59820461,0.20482004,0
2.6300981,4.440568,0.66401243,0.77472579,0.59820461,0.20482004,0
-1.0172731,0.81713605,-1.9659539,0.24149778,0.019430161,-0.97020686,0
-3.3631196,-4.1472955,-0.47816753,-0.77472579,-0.59820461,-0.20482004,0
-4.6372504,-0.41270566,-2.0535274,-0.58436185,0.80110788,-0.12941206,0
-2.0525694,1.1193155,-1.9094152,-0.58436185,0.80110788,-0.12941206,0
4.652894,1.9218575,0.87375402,0.77472579,0.59820461,0.20482004,0
-3.3358285,-4.5067258,0.47099924,-0.77472579,-0.59820461,-0.20482004,0
4.0656757,2.1809213,1.9364805,0.77472579,0.59820461,0.20482004,0
-3.4782858,-3.3367195,-2.2745457,-0.77472579,-0.59820461,-0.20482004,0
-1.7750198,-4.3803563,-0.85711622,0.58436185,-0.80110788,0.12941206,0
2.9532046,4.2006989,0.23087883,0.77472579,0.59820461,0.20482004,0
4.4549541,1.9421165,1.7964315,0.77472579,0.59820461,0.20482004,0
-4.3731527,-2.3603179,-1.8547068,-0.77472579,-0.59820461,-0.20482004,0
1.3851485,-1.9563677,-0.49990314,0.58436185,-0.80110788,0.12941206,0
-5.2077308,-1.6211807,-0.91317511,-0.77472579,-0.59820461,-0.20482004,0
3.8238258,1.3434672,-0.5515871,0.24149778,0.019430161,-0.97020686,0
-1.0330707,2.4428134,1.3158729,-0.24149778,-0.019430161,0.97020686,0
4.8799562,1.9833472,0.88280821,0.77472579,0.59820461,0.20482004,0
-2.703882,-4.8052454,-1.0199866,-0.77472579,-0.59820461,-0.20482004,0
-2.4153872,-4.409317,-2.0048351,-0.77472579,-0.59820461,-0.20482004,0
2.2772837,4.566308,2.3190217,-0.24149778,-0.019430161,0.97020686,0
-1.8217803,1.6263089,-0.85534328,-0.58436185,0.80110788,-0.12941206,0
-2.4918993,-1.8669705,-2.2196488,0.24149778,0.019430161,-0.97020686,0
-3.0917323,0.8308841,-0.7150616,-0.58436185,0.80110788,-0.12941206,0
-1.807339,1.9163146,0.1781925,-0.58436185,0.80110788,-0.12941206,0
2.8450117,-0.98343843,0.78423339,0.58436185,-0.80110788,0.12941206,0
2.0758362,-1.7351446,-0.025383115,0.58436185,-0.80110788,0.12941206,0
-1.4022813,1.9073021,-0.82128972,-0.58436185,0.80110788,-0.12941206,0
3.0091019,4.3558741,0.55663013,0.77472579,0.59820461,0.20482004,0
-2.5972221,-4.1307888,-2.08636,-0.77472579,-0.59820461,-0.20482004,0
-1.6457227,-3.4602027,-2.0622089,0.24149778,0.019430161,-0.97020686,0
4.3905187,2.8028812,0.36947489,0.77472579,0.59820461,0.20482004,0
-1.0477257,1.8895078,-1.3535858,-0.58436185,0.80110788,-0.12941206,0
2.4448459,4.5946379,1.8436055,0.77472579,0.59820461,0.20482004,0
5.4427314,1.171236,0.55278683,0.77472579,0.59820461,0.20482004,0
0.7345233,3.5821409,0.99276209,-0.58436185,0.80110788,-0.12941206,0
-3.603476,-3.1208949,-1.707756,-0.77472579,-0.59820461,-0.20482004,0
-1.2306888,-0.82714438,1.2196542,-0.24149778,-0.019430161,0.97020686,0
0.45240712,0.50228328,-1.2999811,0.24149778,0.019430161,-0.97020686,0
-2.3081977,1.5212063,-0.51317102,-0.58436185,0.80110788,-0.12941206,0
-0.40803048,-0.070185781,1.421223,-0.24149778,-0.019430161,0.97020686,0
-2.6910632,0.95992726,-0.91732365,-0.58436185,0.80110788,-0.12941206,0
5.4495344,1.0682276,0.40614319,0.77472579,0.59820461,0.20482004,0
2.9196033,3.1566391,-0.64946222,0.24149778,0.019430161,-0.97020686,0
-3.4134564,-3.7546301,-1.0710444,-0.77472579,-0.59820461,-0.20482004,0
0.4056282,3.5758348,-0.24069357,-0.58436185,0.80110788,-0.12941206,0
3.8477664,1.8491871,-0.67270899,0.24149778,0.019430161,-0.97020686,0
-2.5738297,0.93948948,-1.3368421,-0.58436185,0.80110788,-0.12941206,0
-2.7476432,-0.21073055,-2.1460776,0.24149778,0.019430161,-0.97020686,0
3.2023015,0.054664612,2.4262018,-0.24149778,-0.019430161,0.97020686,0
3.3301983,3.7866969,0.55598307,0.77472579,0.59820461,0.20482004,0
2.9244776,1.4198202,-0.80368161,0.24149778,0.019430161,-0.97020686,0
-0.77265453,-3.6696353,1.3302317,0.58436185,-0.80110788,0.12941206,0
-5.6439357,-0.80307066,0.03042841,-0.58436185,0.80110788,-0.12941206,0
-2.2320135,1.3151954,-0.080745339,-0.58436185,0.80110788,-0.12941206,0
0.4550128,-1.7741491,-1.4521527,0.24149778,0.019430161,-0.97020686,0
-2.1905003,1.8964626,0.88816857,-0.58436185,0.80110788,-0.12941206,0
4.5420098,2.1847026,-0.33140087,0.24149778,0.019430161,-0.97020686,0
0.099466801,-3.0967951,1.186739,0.58436185,-0.80110788,0.12941206,0
-3.2450843,0.85391366,-0.071184278,-0.58436185,0.80110788,-0.12941206,0
3.1664562,3.5719867,2.1287289,0.77472579,0.59820461,0.20482004,0
-4.0390778,-2.8846154,-1.4100795,-0.77472579,-0.59820461,-0.20482004,0
0.66069806,-2.0745664,1.5137739,-0.24149778,-0.019430161,0.97020686,0
-4.6371078,-1.2638397,-2.5586882,-0.77472579,-0.59820461,-0.20482004,0
-2.5545566,-3.6915455,0.6538825,-0.24149778,-0.019430161,0.97020686,0
4.0866871,2.331707,2.2419312,0.77472579,0.59820461,0.20482004,0
4.8912082,1.2609305,2.4880505,0.77472579,0.59820461,0.20482004,0
3.1318142,-0.62050623,-0.012886763,0.58436185,-0.80110788,0.12941206,0
1.0284197,-2.2765279,0.03628087,0.58436185,-0.80110788,0.12941206,0
1.7899808,-1.6265678,0.89407372,0.58436185,-0.80110788,0.12941206,0
2.220824,2.2504206,2.0441208,-0.24149778,-0.019430161,0.97020686,0
3.6065292,3.0609398,1.9129815,0.77472579,0.59820461,0.20482004,0
-0.80368388,-3.7577682,0.35915232,0.58436185,-0.80110788,0.12941206,0
3.6814835,-0.36533356,-0.72838759,0.24149778,0.019430161,-0.97020686,0
4.7277355,1.6695836,0.82549477,0.77472579,0.59820461,0.20482004,0
2.788507,-1.1350532,-0.54605573,0.58436185,-0.80110788,0.12941206,0
4.0242572,0.3155272,2.1863642,0.58436185,-0.80110788,0.12941206,0
-4.4924269,-2.726846,0.13672066,-0.77472579,-0.59820461,-0.20482004,0
-2.7588263,0.93535137,-1.1600285,-0.58436185,0.80110788,-0.12941206,0
3.1128292,3.5729897,1.3802752,0.77472579,0.59820461,0.20482004,0
3.1821852,3.1999841,2.4969385,0.77472579,0.59820461,0.20482004,0
-2.3472037,-0.039653063,-2.1865482,0.24149778,0.019430161,-0.97020686,0
4.7533269,0.074669719,-0.29355025,0.58436185,-0.80110788,0.12941206,0
-0.29382986,-1.083245,1.3103752,-0.24149778,-0.019430161,0.97020686,0
3.3281703,3.1475875,1.7600021,0.77472579,0.59820461,0.20482004,0
2.8585751,-1.0649464,1.0554738,0.58436185,-0.80110788,0.12941206,0
2.7139325,4.6337605,0.27863073,0.77472579,0.59820461,0.20482004,0
-0.42107221,-1.995769,-1.6091903,0.24149778,0.019430161,-0.97020686,0
-3.9751399,0.20347476,-1.3545932,-0.58436185,0.80110788,-0.12941206,0
-0.98104978,2.6416631,1.3604077,-0.58436185,0.80110788,-0.12941206,0
4.1781931,1.2075257,2.7115619,-0.24149778,-0.019430161,0.97020686,0
-1.345811,-0.60774469,-1.7646797,0.24149778,0.019430161,-0.97020686,0
5.2608519,1.1890297,0.26723957,0.77472579,0.59820461,0.20482004,0
4.5453119,1.9996256,0.53614616,0.77472579,0.59820461,0.20482004,0
-4.354424,-0.4649694,-1.1098578,-0.58436185,0.80110788,-0.12941206,0
-2.4718776,1.1329439,-1.3334057,-0.58436185,0.80110788,-0.12941206,0
-0.73859167,-3.8032494,-1.9491944,0.24149778,0.019430161,-0.97020686,0
-1.5979599,1.5967741,-1.8758862,0.24149778,0.019430161,-0.97020686,0
3.3814869,3.8058302,0.94518089,0.77472579,0.59820461,0.20482004,0
-0.24114406,-3.2549887,-0.337852,0.58436185,-0.80110788,0.12941206,0
4.6677508,1.8044825,2.4514744,0.77472579,0.59820461,0.20482004,0
-4.7108402,-2.138464,0.40537977,-0.77472579,-0.59820461,-0.20482004,0
2.8961017,4.5704098,-0.32560825,0.77472579,0.59820461,0.20482004,0
-3.0098052,-3.9158654,-2.3876925,-0.77472579,-0.59820461,-0.20482004,0
-3.4664097,-3.6294355,-1.2015471,-0.77472579,-0.59820461,-0.20482004,0
-1.6064082,1.4874225,-1.5226167,-0.58436185,0.80110788,-0.12941206,0
3.0967112,4.908597,-0.7068243,0.77472579,0.59820461,0.20482004,0
3.360708,1.6591554,-0.54372954,0.24149778,0.019430161,-0.97020686,0
4.8001146,1.8900381,0.59919119,0.77472579,0.59820461,0.20482004,0
3.4422002,-0.19129014,1.5514221,0.58436185,-0.80110788,0.12941206,0
-4.6229081,-1.4083552,-2.0727704,-0.77472579,-0.59820461,-0.20482004,0
-5.0477047,-0.84296393,-2.2008302,-0.77472579,-0.59820461,-0.20482004,0
4.8650861,1.2882166,1.9999425,0.77472579,0.59820461,0.20482004,0
-2.5476329,-4.7094326,-0.99735355,-0.77472579,-0.59820461,-0.20482004,0
4.4241009,2.5069652,0.54302788,0.77472579,0.59820461,0.20482004,0
4.5743194,1.9631174,1.1747203,0.77472579,0.59820461,0.20482004,0
-1.166768,-0.72282022,1.364092,-0.24149778,-0.019430161,0.97020686,0
-0.4958477,2.3531063,-1.1235014,-0.58436185,0.80110788,-0.12941206,0
-2.8793499,-4.0658612,-1.1695514,-0.77472579,-0.59820461,-0.20482004,0
-4.287416,-1.5197734,0.44571924,-0.24149778,-0.019430161,0.97020686,0
1.9820913,-1.5142328,-1.0214016,0.24149778,0.019430161,-0.97020686,0
-3.7107058,-3.1165786,-2.1235271,-0.77472579,-0.59820461,-0.20482004,0
1.718268,4.3792768,0.87243223,-0.58436185,0.80110788,-0.12941206,0
2.0439169,-1.8522805,-0.83665174,0.58436185,-0.80110788,0.12941206,0
-4.5080447,-0.53373909,-1.2263467,-0.58436185,0.80110788,-0.12941206,0
3.0971031,3.8366432,0.5345521,0.77472579,0.59820461,0.20482004,0
-0.39929152,1.2952909,-1.8181049,0.24149778,0.019430161,-0.97020686,0
-0.13374412,0.28457522,-1.7218165,0.24149778,0.019430161,-0.97020686,0
-3.7679429,-2.6726091,-1.9872932,-0.77472579,-0.59820461,-0.20482004,0
-4.1741543,0.12410736,0.6494801,-0.24149778,-0.019430161,0.97020686,0
1.447529,1.6156418,-1.1947284,0.24149778,0.019430161,-0.97020686,0
-0.60403669,2.3301175,-1.2920638,-0.58436185,0.80110788,-0.12941206,0
-2.7372746,-2.4307411,0.78554368,-0.24149778,-0.019430161,0.97020686,0
2.2125115,-1.2138593,2.1250362,0.58436185,-0.80110788,0.12941206,0
-3.3338051,-3.4701943,-1.2265806,-0.77472579,-0.59820461,-0.20482004,0
0.43146342,-2.7554996,-0.97136867,0.58436185,-0.80110788,0.12941206,0
5.2249274,1.8400947,0.2417264,0.77472579,0.59820461,0.20482004,0
0.75918078,-2.4182897,-0.44462454,0.58436185,-0.80110788,0.12941206,0
-2.8664265,-5.0665808,0.53398561,0.58436185,-0.80110788,0.12941206,0
0.90788603,-2.3529723,-0.11995447,0.58436185,-0.80110788,0.12941206,0
-2.1445572,-4.4442239,0.54258633,0.58436185,-0.80110788,0.12941206,0
1.3953642,2.1652737,1.7934949,-0.24149778,-0.019430161,0.97020686,0
2.989651,2.9976583,-0.76382875,0.24149778,0.019430161,-0.97020686,0
0.71529186,-2.345324,0.17908216,0.58436185,-0.80110788,0.12941206,0
-2.2653823,1.4625514,0.1493312,-0.58436185,0.80110788,-0.12941206,0
3.4153299,3.2481754,1.5755973,0.77472579,0.59820461,0.20482004,0
4.8669295,0.83432484,-0.40378857,0.24149778,0.019430161,-0.97020686,0
-2.4539239,1.215953,0.094422996,-0.58436185,0.80110788,-0.12941206,0
0.79171157,-2.1279612,1.0884135,0.58436185,-0.80110788,0.12941206,0
4.5508876,1.216117,-0.44365263,0.24149778,0.019430161,-0.97020686,0
-3.2659159,-3.5037277,-0.95539188,-0.77472579,-0.59820461,-0.20482004,0
-4.798172,-0.78691816,-1.0161717,-0.58436185,0.80110788,-0.12941206,0
-4.8907595,-1.1749802,0.45341444,-0.24149778,-0.019430161,0.97020686,0
-4.3274689,-2.0472333,-1.502387,-0.77472579,-0.59820461,-0.20482004,0
-3.4880524,-2.8950312,-2.5428774,-0.77472579,-0.59820461,-0.20482004,0
-3.316844,-3.670583,-2.096756,-0.77472579,-0.59820461,-0.20482004,0
4.2937984,1.9943939,1.3782248,0.77472579,0.59820461,0.20482004,0
4.1138463,0.27352142,2.544838,0.58436185,-0.80110788,0.12941206,0
-2.9086058,-4.0318232,-1.7185154,-0.77472579,-0.59820461,-0.20482004,0
-4.8348222,-0.96830916,-2.5194943,-0.58436185,0.80110788,-0.12941206,0
-5.6008368,-1.0667347,-0.4356761,-0.77472579,-0.59820461,-0.20482004,0
2.2427118,-0.50470537,-1.1430489,0.24149778,0.019430161,-0.97020686,0
4.4940381,1.4432431,-0.48729944,0.24149778,0.019430161,-0.97020686,0
0.32930577,-2.7235665,-0.28192639,0.58436185,-0.80110788,0.12941206,0
5.2697878,1.6902902,-0.14211941,0.24149778,0.019430161,-0.97020686,0
1.2866838,4.1967344,1.2929778,-0.58436185,0.80110788,-0.12941206,0
0.36631584,3.2192204,-0.41200948,-0.58436185,0.80110788,-0.12941206,0
5.5610576,0.9718312,0.59368134,0.77472579,0.59820461,0.20482004,0
4.0467916,1.9374585,2.522558,0.77472579,0.59820461,0.20482004,0
3.5647366,3.1871839,1.7266946,0.77472579,0.59820461,0.20482004,0
2.8506541,-0.71013618,1.9999062,0.58436185,-0.80110788,0.12941206,0
-3.8660164,0.44654128,0.20863366,-0.58436185,0.80110788,-0.12941206,0
-4.4740691,-0.59655905,-1.5705402,-0.58436185,0.80110788,-0.12941206,0
-5.2971392,-0.950809,-1.3135467,-0.77472579,-0.59820461,-0.20482004,0
3.794884,2.41697,2.1623747,0.77472579,0.59820461,0.20482004,0
-3.8666708,-0.11021137,-1.5753093,-0.58436185,0.80110788,-0.12941206,0
3.1504333,-0.83951592,1.3025374,0.58436185,-0.80110788,0.12941206,0
0.56776762,3.5499482,0.96527386,-0.58436185,0.80110788,-0.12941206,0
1.5913531,-1.9554738,-1.2695456,0.24149778,0.019430161,-0.97020686,0
0.22045243,-0.47462285,-1.432463,0.24149778,0.019430161,-0.97020686,0
-3.0101626,0.049220916,0.59367359,-0.24149778,-0.019430161,0.97020686,0
-4.349123,-1.803035,-2.1544778,-0.77472579,-0.59820461,-0.20482004,0
-1.6848242,-4.7713223,-1.7947545,0.58436185,-0.80110788,0.12941206,0
-2.0270855,1.3812003,-0.82137346,-0.58436185,0.80110788,-0.12941206,0
1.9464846,-1.2611779,-1.2151008,0.24149778,0.019430161,-0.97020686,0
3.6913836,3.5531769,0.40849113,0.77472579,0.59820461,0.20482004,0
4.717433,1.6550884,1.3436804,0.77472579,0.59820461,0.20482004,0
-0.25095963,-3.3610213,-1.2190394,0.58436185,-0.80110788,0.12941206,0
-4.3614597,-1.1251996,-2.5005891,0.24149778,0.019430161,-0.97020686,0
0.80487937,0.6131053,1.850433,-0.24149778,-0.019430161,0.97020686,0
-3.4314959,-1.9003975,-2.3413527,0.24149778,0.019430161,-0.97020686,0
0.52156734,3.8113918,0.48094177,-0.58436185,0.80110788,-0.12941206,0
-4.6510162,-0.27891958,-0.11424708,-0.58436185,0.80110788,-0.12941206,0
-1.3132498,-3.587554,-2.0349362,0.24149778,0.019430161,-0.97020686,0
3.3359487,-0.7056067,0.82365048,0.58436185,-0.80110788,0.12941206,0
2.9294205,4.7681856,0.23536491,0.77472579,0.59820461,0.20482004,0
-0.59198511,-2.0546935,1.4831165,-0.24149778,-0.019430161,0.97020686,0
2.5076017,1.9160218,2.0089374,-0.24149778,-0.019430161,0.97020686,0
-4.971025,-1.0614252,-2.431324,-0.77472579,-0.59820461,-0.20482004,0
-5.3145599,-0.75432777,-1.3991096,-0.58436185,0.80110788,-0.12941206,0
-3.4077458,-3.6170924,-1.1976843,-0.77472579,-0.59820461,-0.20482004,0
-3.5371022,-3.1308026,-1.2983966,-0.77472579,-0.59820461,-0.20482004,0
2.3384078,4.672163,1.4286489,0.77472579,0.59820461,0.20482004,0
-4.1268368,-0.12002724,-0.024211645,-0.58436185,0.80110788,-0.12941206,0
1.6131696,0.12474602,-1.0627382,0.24149778,0.019430161,-0.97020686,0
2.4432545,-0.92398643,1.0486858,0.58436185,-0.80110788,0.12941206,0
3.4998102,3.1984174,2.1666722,0.77472579,0.59820461,0.20482004,0
2.396817,-1.2191908,-1.0081838,0.24149778,0.019430161,-0.97020686,0
-4.9185252,-1.7907882,-0.72148561,-0.77472579,-0.59820461,-0.20482004,0
1.8551466,1.2034471,2.2251077,-0.24149778,-0.019430161,0.97020686,0
0.43454957,-2.8850603,0.49950099,0.58436185,-0.80110788,0.12941206,0
1.3229413,2.9524126,1.8493359,-0.24149778,-0.019430161,0.97020686,0
-2.4726217,1.1111588,-0.55266559,-0.58436185,0.80110788,-0.12941206,0
1.2775218,2.7598579,-1.0858266,0.24149778,0.019430161,-0.97020686,0
-5.5926428,-1.4681652,0.18147421,-0.77472579,-0.59820461,-0.20482004,0
-4.1372871,-2.4502745,-1.0163164,-0.77472579,-0.59820461,-0.20482004,0
-4.4357939,-2.3333287,-1.3258123,-0.77472579,-0.59820461,-0.20482004,0
0.19272935,3.1187024,0.60387325,-0.58436185,0.80110788,-0.12941206,0
-5.0704103,-0.95845592,0.25692749,-0.24149778,-0.019430161,0.97020686,0
3.530066,3.0657837,1.8067455,0.77472579,0.59820461,0.20482004,0
2.1119583,5.0481324,1.4142075,-0.58436185,0.80110788,-0.12941206,0
0.62242675,-1.9455717,1.6562173,-0.24149778,-0.019430161,0.97020686,0
0.99839532,-2.3749835,1.2906401,0.58436185,-0.80110788,0.12941206,0
-2.456095,-4.364327,-2.3563066,-0.77472579,-0.59820461,-0.20482004,0
-2.1721807,-4.8562603,0.55989838,0.58436185,-0.80110788,0.12941206,0
-0.10850191,2.8038199,-0.99609852,-0.58436185,0.80110788,-0.12941206,0
4.4819369,2.0836911,1.9203236,0.77472579,0.59820461,0.20482004,0
3.3406136,4.0536461,-0.70215368,0.77472579,0.59820461,0.20482004,0
4.3520279,1.9630103,1.5706131,0.77472579,0.59820461,0.20482004,0
3.75053,3.0888729,1.6438913,0.77472579,0.59820461,0.20482004,0
-5.1396213,-1.4735214,-1.3106656,-0.77472579,-0.59820461,-0.20482004,0
4.4322901,2.4244313,1.2011232,0.77472579,0.59820461,0.20482004,0
-0.18924499,2.640696,-0.93890071,-0.58436185,0.80110788,-0.12941206,0
-3.1039002,-3.6788387,-1.8794007,-0.77472579,-0.59820461,-0.20482004,0
-5.2263002,-1.0783274,-1.0915933,-0.58436185,0.80110788,-0.12941206,0
-4.2365618,-2.5676315,-0.73037481,-0.77472579,-0.59820461,-0.20482004,0
3.6918812,3.8925414,-0.14087772,0.77472579,0.59820461,0.20482004,0
1.6911333,-0.46279407,2.0386682,-0.24149778,-0.019430161,0.97020686,0
3.4460044,3.1466551,-0.50773573,0.24149778,0.019430161,-0.97020686,0
-5.6052985,-1.035633,0.29246759,-0.58436185,0.80110788,-0.12941206,0
2.8483264,4.2068787,-0.64112234,0.24149778,0.019430161,-0.97020686,0
-0.9923178,-3.9505975,-1.1511836,0.58436185,-0.80110788,0.12941206,0
0.74608266,-2.6962988,0.18668413,0.58436185,-0.80110788,0.12941206,0
-2.7493107,-0.21302265,0.8652972,-0.24149778,-0.019430161,0.97020686,0
-0.98110723,0.97515464,1.5220996,-0.24149778,-0.019430161,0.97020686,0
-1.3543612,1.9885067,-1.3787528,-0.58436185,0.80110788,-0.12941206,0
1.0979871,-2.433897,-0.23053741,0.58436185,-0.80110788,0.12941206,0
-0.43264246,2.1054499,-1.4421866,0.24149778,0.019430161,-0.97020686,0
-3.7517171,-0.32301474,-2.5646029,0.24149778,0.019430161,-0.97020686,0
-2.757143,-4.774477,-0.29190922,-0.77472579,-0.59820461,-0.20482004,0
-1.4543101,-4.3010583,0.74431276,0.58436185,-0.80110788,0.12941206,0
0.86654592,3.4480548,-0.88481569,-0.58436185,0.80110788,-0.12941206,0
5.2944822,0.97066677,0.27176571,0.58436185,-0.80110788,0.12941206,0
3.8587179,2.5555537,2.6265538,-0.24149778,-0.019430161,0.97020686,0
0.34483588,3.1773119,-0.78952956,-0.58436185,0.80110788,-0.12941206,0
-1.147454,-3.6869354,0.45050764,0.58436185,-0.80110788,0.12941206,0
0.54699892,3.9529757,1.850534,-0.58436185,0.80110788,-0.12941206,0
-3.6112955,-2.8447413,-2.1373796,-0.77472579,-0.59820461,-0.20482004,0
-2.073293,-4.5426688,-0.79640913,0.58436185,-0.80110788,0.12941206,0
5.1558437,1.1203334,2.3933506,0.77472579,0.59820461,0.20482004,0
-1.5876881,-4.075171,0.8699255,0.58436185,-0.80110788,0.12941206,0
1.4892598,-2.1708803,-1.3389397,0.24149778,0.019430161,-0.97020686,0
-2.914887,-1.5557942,-2.3119528,0.24149778,0.019430161,-0.97020686,0
-4.0610061,-3.3814132,0.12706947,-0.77472579,-0.59820461,-0.20482004,0
-2.757827,-4.8437743,0.2894001,-0.77472579,-0.59820461,-0.20482004,0
0.21660283,2.4788578,1.6740304,-0.24149778,-0.019430161,0.97020686,0
2.5953412,4.9940276,0.065069675,0.77472579,0.59820461,0.20482004,0
-3.5379367,0.16749072,-1.8222152,-0.58436185,0.80110788,-0.12941206,0
4.2835054,2.1144278,2.183496,0.77472579,0.59820461,0.20482004,0
-4.4887066,-1.7309331,-1.4495654,-0.77472579,-0.59820461,-0.20482004,0
0.45616639,3.4997554,1.6727855,-0.24149778,-0.019430161,0.97020686,0
-3.5462422,0.51934958,-1.5853693,-0.58436185,0.80110788,-0.12941206,0
-3.9799082,-2.7603006,-1.001164,-0.77472579,-0.59820461,-0.20482004,0
3.4353054,3.8503218,-0.36566162,0.77472579,0.59820461,0.20482004,0
-4.2642493,-1.5634418,-2.4605236,0.24149778,0.019430161,-0.97020686,0
-1.8769544,1.4991071,-1.6742771,-0.58436185,0.80110788,-0.12941206,0
0.94179046,3.9973679,-0.33033895,-0.58436185,0.80110788,-0.12941206,0
2.8140314,-0.33743078,-1.0109401,0.24149778,0.019430161,-0.97020686,0
-3.233098,0.7390669,-0.33061612,-0.58436185,0.80110788,-0.12941206,0
2.8576598,-0.18765664,2.1187217,-0.24149778,-0.019430161,0.97020686,0
0.91143715,1.5436504,1.9647841,-0.24149778,-0.019430161,0.97020686,0
-4.7072744,-1.4293351,-2.4085305,-0.77472579,-0.59820461,-0.20482004,0
-3.5211017,-3.2241225,-1.5229869,-0.77472579,-0.59820461,-0.20482004,0
4.564641,0.75095582,-0.46951056,0.24149778,0.019430161,-0.97020686,0
2.1736429,1.9418361,2.2175052,-0.24149778,-0.019430161,0.97020686,0
-2.7201629,-1.5115876,0.93729734,-0.24149778,-0.019430161,0.97020686,0
-1.3426366,-3.756505,1.0865636,-0.24149778,-0.019430161,0.97020686,0
4.4473591,2.570313,1.0029454,0.77472579,0.59820461,0.20482004,0
-1.3208513,-4.4876142,-1.2854452,0.58436185,-0.80110788,0.12941206,0
-0.65481943,-2.9586792,-1.5818725,0.24149778,0.019430161,-0.97020686,0
-3.8506088,-1.4336021,-2.4190309,0.24149778,0.019430161,-0.97020686,0
-1.4154556,0.51946366,-1.7932627,0.24149778,0.019430161,-0.97020686,0
-0.21025747,-2.0424056,-1.7951289,0.24149778,0.019430161,-0.97020686,0
3.2785773,0.48053312,2.4890809,-0.24149778,-0.019430161,0.97020686,0
1.4313884,4.5642047,1.5922399,-0.58436185,0.80110788,-0.12941206,0
0.1984148,3.3866684,1.1368141,-0.58436185,0.80110788,-0.12941206,0
0.71799958,3.3920846,-0.24580455,-0.58436185,0.80110788,-0.12941206,0
-3.002264,0.53249788,-2.1605303,-0.58436185,0.80110788,-0.12941206,0
-3.5627339,-3.7507012,-0.039623737,-0.77472579,-0.59820461,-0.20482004,0
0.23463631,1.1130924,-1.437824,0.24149778,0.019430161,-0.97020686,0
-4.7322297,-2.0682719,-1.037858,-0.77472579,-0.59820461,-0.20482004,0
-4.4719748,-1.7067857,-2.3495994,-0.77472579,-0.59820461,-0.20482004,0
-1.1107515,2.1532803,-1.5783124,-0.58436185,0.80110788,-0.12941206,0
-1.287649,1.3268431,1.3814902,-0.24149778,-0.019430161,0.97020686,0
-0.4708159,-3.5573578,0.56946659,0.58436185,-0.80110788,0.12941206,0
-3.184927,-3.9388199,-0.79535389,-0.77472579,-0.59820461,-0.20482004,0
0.39365613,-3.0944791,-0.13343048,0.58436185,-0.80110788,0.12941206,0
-3.4914088,-3.8614559,0.1819067,-0.77472579,-0.59820461,-0.20482004,0
-2.0443561,1.0063647,0.87143898,-0.24149778,-0.019430161,0.97020686,0
-3.7763219,-2.9192715,-2.2527084,-0.77472579,-0.59820461,-0.20482004,0
4.7083683,1.5301771,1.705086,0.77472579,0.59820461,0.20482004,0
4.6980982,2.2461505,0.41614962,0.77472579,0.59820461,0.20482004,0
2.4028471,4.5151792,2.425024,-0.24149778,-0.019430161,0.97020686,0
4.7555161,2.2992849,0.295825,0.77472579,0.59820461,0.20482004,0
-1.0906348,-0.7079978,-1.7155458,0.24149778,0.019430161,-0.97020686,0
3.3507376,3.0611815,2.208159,0.77472579,0.59820461,0.20482004,0
-0.067712545,0.54681349,-1.4784081,0.24149778,0.019430161,-0.97020686,0
-0.096769214,3.3761466,0.94161844,-0.58436185,0.80110788,-0.12941206,0
-2.3171582,-4.5475426,1.0291762,0.58436185,-0.80110788,0.12941206,0
1.7736206,2.9816828,-0.97877288,0.24149778,0.019430161,-0.97020686,0
1.3994253,-1.118643,1.9950246,-0.24149778,-0.019430161,0.97020686,0
2.2388396,-1.4458398,0.069464184,0.58436185,-0.80110788,0.12941206,0
-3.6457114,-1.7750158,0.59896374,-0.24149778,-0.019430161,0.97020686,0
0.45304239,-0.58967566,-1.259241,0.24149778,0.019430161,-0.97020686,0
0.12432623,-2.8572564,-0.10510993,0.58436185,-0.80110788,0.12941206,0
3.4160221,0.13696863,-0.49408627,0.24149778,0.019430161,-0.97020686,0
4.9722576,1.4674684,1.0335417,0.77472579,0.59820461,0.20482004,0
-2.0912921,-4.6916261,-1.9818544,0.24149778,0.019430161,-0.97020686,0
4.7404957,0.52102649,-0.046112537,0.58436185,-0.80110788,0.12941206,0
2.8886857,4.5671353,0.79592705,0.77472579,0.59820461,0.20482004,0
5.3827553,0.84561515,1.2166336,0.58436185,-0.80110788,0.12941206,0
3.8775778,2.6812027,2.3783038,0.77472579,0.59820461,0.20482004,0
5.2434306,1.5224426,0.74251461,0.77472579,0.59820461,0.20482004,0
3.9656618,2.9894414,0.53850985,0.77472579,0.59820461,0.20482004,0
-3.1615317,0.70137906,-1.8340881,-0.58436185,0.80110788,-0.12941206,0
-0.90436763,2.7659185,1.3550591,-0.58436185,0.80110788,-0.12941206,0
-3.4854014,-3.1516175,0.80105877,-0.24149778,-0.019430161,0.97020686,0
-1.4082404,2.1363313,1.1001266,-0.58436185,0.80110788,-0.12941206,0
-3.9533992,-1.2164595,0.66310525,-0.24149778,-0.019430161,0.97020686,0
-4.0881004,-2.5596757,-0.58917236,-0.77472579,-0.59820461,-0.20482004,0
5.0988159,0.73478961,2.2163448,0.58436185,-0.80110788,0.12941206,0
3.9173806,3.0755491,0.87778902,0.77472579,0.59820461,0.20482004,0
-4.2387486,-1.937763,-1.9834504,-0.77472579,-0.59820461,-0.20482004,0
2.6366062,5.0338459,0.33176517,0.77472579,0.59820461,0.20482004,0
-1.8985778,1.4164658,-1.4825597,-0.58436185,0.80110788,-0.12941206,0
-3.9782982,-2.0023367,-2.6945429,0.24149778,0.019430161,-0.97020686,0
-3.9268827,-3.0994272,-0.395854,-0.77472579,-0.59820461,-0.20482004,0
-0.41465473,-3.4238334,0.10980225,0.58436185,-0.80110788,0.12941206,0
3.7607656,3.201848,1.6803741,0.77472579,0.59820461,0.20482004,0
0.54865062,3.3388078,1.8353629,-0.24149778,-0.019430161,0.97020686,0
1.0231774,4.1038132,-0.07716465,-0.58436185,0.80110788,-0.12941206,0
-1.5952122,-4.4788609,-0.12381935,0.58436185,-0.80110788,0.12941206,0
-3.0476341,-4.0562062,-1.9959517,-0.77472579,-0.59820461,-0.20482004,0
-2.4236631,-4.9322562,-0.90631866,-0.77472579,-0.59820461,-0.20482004,0
-0.75564039,0.37544203,-1.8797643,0.24149778,0.019430161,-0.97020686,0
0.15724266,-3.4363554,-1.3155458,0.58436185,-0.80110788,0.12941206,0
-0.72388518,1.0363592,1.2437764,-0.24149778,-0.019430161,0.97020686,0
3.7888486,3.1422317,1.7539749,0.77472579,0.59820461,0.20482004,0
3.2852705,3.8638067,-0.51615763,0.24149778,0.019430161,-0.97020686,0
3.9323704,3.1152678,0.48791838,0.77472579,0.59820461,0.20482004,0
-5.2302413,-1.3354043,-1.200304,-0.77472579,-0.59820461,-0.20482004,0
3.5660901,3.3733315,-0.56893301,0.24149778,0.019430161,-0.97020686,0
0.57223272,-2.7978497,-0.34886265,0.58436185,-0.80110788,0.12941206,0
-0.16559649,2.8407214,-0.4197247,-0.58436185,0.80110788,-0.12941206,0
4.3604894,1.8668317,1.5531499,0.77472579,0.59820461,0.20482004,0
-4.2673316,-1.6947629,-2.4113615,-0.77472579,-0.59820461,-0.20482004,0
0.62063444,1.6650951,-1.5262922,0.24149778,0.019430161,-0.97020686,0
2.4581656,-0.65305901,2.1443348,-0.24149778,-0.019430161,0.97020686,0
-4.5262156,-1.361681,-2.5669627,0.24149778,0.019430161,-0.97020686,0
3.8395908,2.6998386,1.2117343,0.77472579,0.59820461,0.20482004,0
3.1899817,4.0119863,-0.26211834,0.77472579,0.59820461,0.20482004,0
1.7694495,2.4595757,1.9661655,-0.24149778,-0.019430161,0.97020686,0
1.9890037,1.6395912,1.9983397,-0.24149778,-0.019430161,0.97020686,0
-3.9668369,-0.0016379356,-1.7743129,-0.58436185,0.80110788,-0.12941206,0
0.92048645,3.4128146,-1.3941834,0.24149778,0.019430161,-0.97020686,0
2.2583058,2.9277053,-0.97138119,0.24149778,0.019430161,-0.97020686,0
3.9029093,2.6590679,2.287009,0.77472579,0.59820461,0.20482004,0
-3.8206477,-3.087851,-0.18108082,-0.77472579,-0.59820461,-0.20482004,0
2.4554729,-1.341342,1.1088068,0.58436185,-0.80110788,0.12941206,0
-1.2299826,-4.3168631,-0.98887396,0.58436185,-0.80110788,0.12941206,0
0.19813001,3.1002135,0.08549881,-0.58436185,0.80110788,-0.12941206,0
2.9614415,-0.1727159,2.4091632,-0.24149778,-0.019430161,0.97020686,0
-4.7171278,-0.29682356,0.17041826,-0.58436185,0.80110788,-0.12941206,0
-4.3758068,-0.57438874,-1.6594191,-0.58436185,0.80110788,-0.12941206,0
2.2854893,0.14882803,2.1418173,-0.24149778,-0.019430161,0.97020686,0
-3.3534055,0.60317302,-1.7562525,-0.58436185,0.80110788,-0.12941206,0
-2.8412523,-3.0823174,-2.1133978,0.24149778,0.019430161,-0.97020686,0
-3.154717,0.91838586,-0.25694203,-0.58436185,0.80110788,-0.12941206,0
2.1760969,-0.54411161,-0.89103806,0.24149778,0.019430161,-0.97020686,0
4.3102331,2.2187581,0.74662542,0.77472579,0.59820461,0.20482004,0
1.1886818,3.8152487,-0.70274305,-0.58436185,0.80110788,-0.12941206,0
-5.6254439,-1.1608182,-0.4597187,-0.77472579,-0.59820461,-0.20482004,0
-4.6227479,-2.2320962,-0.95763779,-0.77472579,-0.59820461,-0.20482004,0
5.1982994,1.1390414,1.590836,0.77472579,0.59820461,0.20482004,0
4.6631842,0.59988499,1.7440252,0.58436185,-0.80110788,0.12941206,0
-2.6031296,0.97722363,-1.2721529,-0.58436185,0.80110788,-0.12941206,0
3.4685526,2.8817616,2.038512,0.77472579,0.59820461,0.20482004,0
-4.3495708,-2.2700782,-1.9345803,-0.77472579,-0.59820461,-0.20482004,0
-0.52971923,-3.6259089,-0.43395567,0.58436185,-0.80110788,0.12941206,0
-1.0118911,-2.9329648,-1.9556463,0.24149778,0.019430161,-0.97020686,0
1.4394433,0.13624918,-1.3025556,0.24149778,0.019430161,-0.97020686,0
-3.3617907,0.59260273,-1.8990645,-0.58436185,0.80110788,-0.12941206,0
-3.6515758,-2.8813682,-2.09374,-0.77472579,-0.59820461,-0.20482004,0
-1.655306,-2.8987465,-2.1032696,0.24149778,0.019430161,-0.97020686,0
-1.1423985,2.025481,-0.91147095,-0.58436185,0.80110788,-0.12941206,0
1.8375093,-0.94440567,1.8315694,-0.24149778,-0.019430161,0.97020686,0
2.9478865,4.0493064,1.3157721,0.77472579,0.59820461,0.20482004,0
3.3034413,4.0566206,-0.45774078,0.77472579,0.59820461,0.20482004,0
1.7073679,-1.8346667,0.33751881,0.58436185,-0.80110788,0.12941206,0
3.4732568,3.9938145,-0.2521081,0.77472579,0.59820461,0.20482004,0
1.9450558,-0.77128029,1.8899198,-0.24149778,-0.019430161,0.97020686,0
-3.1052802,-3.9070063,-0.29358673,-0.77472579,-0.59820461,-0.20482004,0
3.3422062,3.8296986,0.14654255,0.77472579,0.59820461,0.20482004,0
0.89648616,3.4880304,-0.5683794,-0.58436185,0.80110788,-0.12941206,0
-1.6272786,-3.5388713,1.0850453,-0.24149778,-0.019430161,0.97020686,0
0.20532697,-2.6915178,-1.4767319,0.24149778,0.019430161,-0.97020686,0
-2.214869,0.92664719,-2.2625549,0.24149778,0.019430161,-0.97020686,0
1.9454185,4.4701695,0.96170378,-0.58436185,0.80110788,-0.12941206,0
-3.5202143,0.33827388,-0.073194027,-0.58436185,0.80110788,-0.12941206,0
3.075269,3.8971405,0.61439276,0.77472579,0.59820461,0.20482004,0
-4.0337176,-0.31183743,0.55696225,-0.24149778,-0.019430161,0.97020686,0
0.23466331,-0.029100657,-1.6108346,0.24149778,0.019430161,-0.97020686,0
-2.6447389,-4.4488688,-1.4721961,-0.77472579,-0.59820461,-0.20482004,0
0.16146004,3.319809,0.15686154,-0.58436185,0.80110788,-0.12941206,0
4.1589184,0.60675263,-0.63846183,0.24149778,0.019430161,-0.97020686,0
1.0287024,3.5829115,-0.39741611,-0.58436185,0.80110788,-0.12941206,0
1.491405,1.2685835,2.0274515,-0.24149778,-0.019430161,0.97020686,0
4.7137003,2.120153,0.934237,0.77472579,0.59820461,0.20482004,0
-2.431088,-1.1183289,1.0448716,-0.24149778,-0.019430161,0.97020686,0
4.2407031,1.9341643,-0.28814554,0.24149778,0.019430161,-0.97020686,0
2.34796,-1.7466581,-0.72266507,0.58436185,-0.80110788,0.12941206,0
-1.0784487,-4.2477846,-0.66087818,0.58436185,-0.80110788,0.12941206,0
5.4045281,1.408208,0.72303915,0.77472579,0.59820461,0.20482004,0
5.2496848,1.2817087,1.2386823,0.77472579,0.59820461,0.20482004,0
-2.8888557,-4.2780867,0.7486496,-0.24149778,-0.019430161,0.97020686,0
-3.2623153,-1.3790548,-2.5082073,0.24149778,0.019430161,-0.97020686,0
2.661242,-0.3994832,2.3533156,-0.24149778,-0.019430161,0.97020686,0
-4.2666278,-2.2286305,-1.1446161,-0.77472579,-0.59820461,-0.20482004,0
4.6934571,0.46099472,0.27263951,0.58436185,-0.80110788,0.12941206,0
1.5492005,-1.4330919,-1.0191524,0.24149778,0.019430161,-0.97020686,0
0.58860958,2.9104686,1.9069047,-0.24149778,-0.019430161,0.97020686,0
-0.60005015,2.9977155,1.435605,-0.58436185,0.80110788,-0.12941206,0
-0.36037755,0.49608088,-1.8025126,0.24149778,0.019430161,-0.97020686,0
-4.0089579,0.048209488,-0.0066735744,-0.58436185,0.80110788,-0.12941206,0
0.16476436,-1.513115,-1.6606141,0.24149778,0.019430161,-0.97020686,0
-0.25428772,-3.0613647,0.13190341,0.58436185,-0.80110788,0.12941206,0
1.3465029,-1.5388658,-1.3758671,0.24149778,0.019430161,-0.97020686,0
-3.1174452,0.014326543,0.83568263,-0.24149778,-0.019430161,0.97020686,0
0.22808695,-2.8237896,-0.60222292,0.58436185,-0.80110788,0.12941206,0
0.42524451,0.1026448,-1.5091944,0.24149778,0.019430161,-0.97020686,0
2.9089093,4.3127408,-0.15979671,0.77472579,0.59820461,0.20482004,0
-3.3765786,-3.7100923,0.14669132,-0.77472579,-0.59820461,-0.20482004,0
1.0936571,3.860646,0.54320288,-0.58436185,0.80110788,-0.12941206,0
4.0430474,0.099039197,0.83113241,0.58436185,-0.80110788,0.12941206,0
-3.4632077,-0.90465611,0.72365475,-0.24149778,-0.019430161,0.97020686,0
1.4471976,1.1088803,1.7826935,-0.24149778,-0.019430161,0.97020686,0
2.3845427,2.7890081,-1.0939057,0.24149778,0.019430161,-0.97020686,0
2.7954044,4.6231742,0.33494425,0.77472579,0.59820461,0.20482004,0
-1.97831,-4.617619,-0.60520172,0.58436185,-0.80110788,0.12941206,0
-0.083938122,-3.1334825,0.45949125,0.58436185,-0.80110788,0.12941206,0
-4.2034454,-2.6609361,0.19214296,-0.77472579,-0.59820461,-0.20482004,0
3.2487159,4.1015954,0.40284395,0.77472579,0.59820461,0.20482004,0
-3.0640306,-3.9269757,-1.0809832,-0.77472579,-0.59820461,-0.20482004,0
-2.6218154,-1.3892469,-2.0993447,0.24149778,0.019430161,-0.97020686,0
3.4587266,-0.31459117,0.80451477,0.58436185,-0.80110788,0.12941206,0
-1.6331508,-3.266113,-1.9033079,0.24149778,0.019430161,-0.97020686,0
-4.0729818,-1.3786398,0.65526581,-0.24149778,-0.019430161,0.97020686,0
1.9396482,3.6656358,2.2313774,-0.24149778,-0.019430161,0.97020686,0
-2.5699859,-4.8329029,-0.48721886,-0.77472579,-0.59820461,-0.20482004,0
-5.1661468,-0.86684775,-1.1919219,-0.58436185,0.80110788,-0.12941206,0
-3.3119328,-1.2694325,-2.3433435,0.24149778,0.019430161,-0.97020686,0
-1.3871603,-4.3647518,-1.6914082,0.58436185,-0.80110788,0.12941206,0
4.8826618,0.95645213,2.6417177,0.77472579,0.59820461,0.20482004,0
3.8250446,2.7384253,1.5451255,0.77472579,0.59820461,0.20482004,0
4.3181262,2.4490731,0.11248589,0.77472579,0.59820461,0.20482004,0
3.1307988,4.2668409,-0.4208312,0.77472579,0.59820461,0.20482004,0
-2.5425072,-2.3925304,0.66054797,-0.24149778,-0.019430161,0.97020686,0
-3.0427344,-4.0253496,-0.47606659,-0.77472579,-0.59820461,-0.20482004,0
-2.9461398,-4.1336346,-0.227108,-0.77472579,-0.59820461,-0.20482004,0
4.5006099,1.6915386,1.7976382,0.77472579,0.59820461,0.20482004,0
3.8372493,3.8121376,-0.4319725,0.77472579,0.59820461,0.20482004,0
-4.5962901,-2.2336931,-0.84825516,-0.77472579,-0.59820461,-0.20482004,0
1.8907621,-1.7361374,0.62531257,0.58436185,-0.80110788,0.12941206,0
-4.1982865,-0.35182023,-2.4393301,-0.58436185,0.80110788,-0.12941206,0
4.3623948,2.8061855,0.25626373,0.77472579,0.59820461,0.20482004,0
1.2738945,-2.0772769,-0.70996195,0.58436185,-0.80110788,0.12941206,0
1.7206559,0.67745352,1.8108077,-0.24149778,-0.019430161,0.97020686,0
-3.8596752,-0.83435881,0.71602607,-0.24149778,-0.019430161,0.97020686,0
-3.5258408,-4.0718069,0.084540367,-0.77472579,-0.59820461,-0.20482004,0
-1.5347121,2.047117,0.69496882,-0.58436185,0.80110788,-0.12941206,0
-2.7305946,-4.9774323,0.45332861,0.58436185,-0.80110788,0.12941206,0
1.0745718,-2.5375605,-0.7282393,0.58436185,-0.80110788,0.12941206,0
-3.801034,-0.0095012188,-1.2530019,-0.58436185,0.80110788,-0.12941206,0
-0.48926938,2.733958,-0.37652469,-0.58436185,0.80110788,-0.12941206,0
4.8879395,1.8324206,0.87728357,0.77472579,0.59820461,0.20482004,0
-4.342905,-2.0421441,-1.657176,-0.77472579,-0.59820461,-0.20482004,0
2.1412635,-1.5424197,-0.93010104,0.58436185,-0.80110788,0.12941206,0
4.2698898,2.3468833,2.0543184,0.77472579,0.59820461,0.20482004,0
2.3754599,4.65415,0.93982601,0.77472579,0.59820461,0.20482004,0
-1.1857275,-2.5862095,1.2294564,-0.24149778,-0.019430161,0.97020686,0
2.4047465,-1.3089006,-0.15587577,0.58436185,-0.80110788,0.12941206,0
3.8121133,3.3501711,-0.27644444,0.77472579,0.59820461,0.20482004,0
-0.85656917,2.498383,-0.61620998,-0.58436185,0.80110788,-0.12941206,0
-1.8083043,-4.4124455,-1.2246575,0.58436185,-0.80110788,0.12941206,0
0.87839937,3.626456,-0.086625576,-0.58436185,0.80110788,-0.12941206,0
-5.7561235,-1.1048124,0.031406403,-0.24149778,-0.019430161,0.97020686,0
-0.17694449,3.2352564,1.4023724,-0.24149778,-0.019430161,0.97020686,0
0.12938929,3.2565169,0.52828765,-0.58436185,0.80110788,-0.12941206,0
0.13769615,-3.0631645,-0.54068184,0.58436185,-0.80110788,0.12941206,0
5.429915,1.2256805,0.93182659,0.58436185,-0.80110788,0.12941206,0
2.1016767,4.6242867,2.0941925,-0.24149778,-0.019430161,0.97020686,0
-0.53576553,2.5755732,0.35907459,-0.58436185,0.80110788,-0.12941206,0
2.8159933,3.4474626,-0.61891556,0.24149778,0.019430161,-0.97020686,0
0.58448136,1.7981788,1.8391536,-0.24149778,-0.019430161,0.97020686,0
3.8596168,1.9947079,-0.49441671,0.24149778,0.019430161,-0.97020686,0
3.2634308,-0.8268587,0.47811735,0.58436185,-0.80110788,0.12941206,0
2.9657266,-0.40727338,-0.68723845,0.24149778,0.019430161,-0.97020686,0
3.9074838,2.610049,1.8030834,0.77472579,0.59820461,0.20482004,0
-5.3544788,-1.5691534,-0.035707474,-0.77472579,-0.59820461,-0.20482004,0
-0.049520731,3.0339351,-1.2578619,-0.58436185,0.80110788,-0.12941206,0
4.3893838,2.325722,0.77394199,0.77472579,0.59820461,0.20482004,0
-3.252362,-3.7042568,-0.94645929,-0.77472579,-0.59820461,-0.20482004,0
-4.6516438,-2.4764743,0.13379097,-0.77472579,-0.59820461,-0.20482004,0
-1.5250971,-1.7334565,-1.7717643,0.24149778,0.019430161,-0.97020686,0
2.2783008,4.6752706,-0.83583403,-0.58436185,0.80110788,-0.12941206,0
0.63632452,-1.0759335,-1.4459715,0.24149778,0.019430161,-0.97020686,0
-0.25962901,-2.2528229,-1.6941406,0.24149778,0.019430161,-0.97020686,0
2.0110838,1.5015731,-1.0977488,0.24149778,0.019430161,-0.97020686,0
-2.9656701,-3.8096662,-1.5965371,-0.77472579,-0.59820461,-0.20482004,0
0.99480224,2.2774122,-1.1901083,0.24149778,0.019430161,-0.97020686,0
0.69893873,3.6835446,-1.0052001,-0.58436185,0.80110788,-0.12941206,0
-0.53981698,2.4437916,-1.0222085,-0.58436185,0.80110788,-0.12941206,0
0.94927585,1.3677319,1.8447976,-0.24149778,-0.019430161,0.97020686,0
-3.8172715,-2.7483182,-1.771162,-0.77472579,-0.59820461,-0.20482004,0
-0.074888021,-1.1498996,-1.6744043,0.24149778,0.019430161,-0.97020686,0
2.7583477,-0.1017569,-0.6957401,0.24149778,0.019430161,-0.97020686,0
-1.0612001,2.6113091,1.3132844,-0.58436185,0.80110788,-0.12941206,0
-4.9491844,-0.77048302,-1.7130322,-0.58436185,0.80110788,-0.12941206,0
-2.6838229,-4.825758,0.97467947,-0.24149778,-0.019430161,0.97020686,0
2.7884121,4.0810246,1.1860776,0.77472579,0.59820461,0.20482004,0
4.6265635,1.6856823,1.7456584,0.77472579,0.59820461,0.20482004,0
1.0690079,-2.5092378,-0.73488832,0.58436185,-0.80110788,0.12941206,0
-1.0505354,-2.1554892,1.1554205,-0.24149778,-0.019430161,0.97020686,0
-2.2586796,-4.964313,-0.82457209,0.58436185,-0.80110788,0.12941206,0
3.918855,0.10862112,1.3537564,0.58436185,-0.80110788,0.12941206,0
-1.3672891,-3.1613431,1.3090086,-0.24149778,-0.019430161,0.97020686,0
-4.9448991,-1.2902284,-2.3329036,-0.77472579,-0.59820461,-0.20482004,0
0.80246055,-1.6165458,1.9130074,-0.24149778,-0.019430161,0.97020686,0
3.5695887,1.3206587,-0.72260737,0.24149778,0.019430161,-0.97020686,0
-0.11948213,-2.4763923,-1.8026726,0.24149778,0.019430161,-0.97020686,0
0.39483714,-3.0533476,-0.84164619,0.58436185,-0.80110788,0.12941206,0
-1.2267846,-0.64565253,-1.8999721,0.24149778,0.019430161,-0.97020686,0
3.1508851,0.55491376,-0.6638236,0.24149778,0.019430161,-0.97020686,0
-1.9172084,-2.9994855,-2.0388887,0.24149778,0.019430161,-0.97020686,0
-3.4512782,-2.8205318,-2.3497663,-0.77472579,-0.59820461,-0.20482004,0
3.3954141,-0.34818441,0.42825031,0.58436185,-0.80110788,0.12941206,0
-0.53984582,-1.3409857,1.3600086,-0.24149778,-0.019430161,0.97020686,0
-0.43003511,-3.1396656,-1.5923979,0.24149778,0.019430161,-0.97020686,0
-3.7913916,-2.8710468,-2.1682706,-0.77472579,-0.59820461,-0.20482004,0
-4.5389547,-1.9949133,-1.8700762,-0.77472579,-0.59820461,-0.20482004,0
2.3247056,3.286649,-1.001658,0.24149778,0.019430161,-0.97020686,0
-2.2368712,-4.6607323,0.36984158,0.58436185,-0.80110788,0.12941206,0
-2.6522515,-4.1694908,-1.3547435,-0.77472579,-0.59820461,-0.20482004,0
0.5531354,-2.6212428,1.5925457,0.58436185,-0.80110788,0.12941206,0
1.930493,3.1839242,-1.0428057,0.24149778,0.019430161,-0.97020686,0
4.8266358,1.9775571,0.38007021,0.77472579,0.59820461,0.20482004,0
3.0586698,4.1987042,0.49762535,0.77472579,0.59820461,0.20482004,0
-0.13962483,2.7735405,-1.4092245,-0.58436185,0.80110788,-0.12941206,0
4.9940372,0.86198026,-0.16569662,0.24149778,0.019430161,-0.97020686,0
0.82307994,3.772603,-0.28814602,-0.58436185,0.80110788,-0.12941206,0
1.2945685,-0.002579689,1.8180522,-0.24149778,-0.019430161,0.97020686,0
-3.0024443,-1.3717856,-2.4488411,0.24149778,0.019430161,-0.97020686,0
3.5518093,3.1128588,1.2605348,0.77472579,0.59820461,0.20482004,0
-3.7833998,0.21432793,-0.53502345,-0.58436185,0.80110788,-0.12941206,0
-1.7422082,-4.0884252,-2.1985984,0.24149778,0.019430161,-0.97020686,0
-0.59557378,-3.7912564,-0.38938117,0.58436185,-0.80110788,0.12941206,0
2.7996953,4.3536515,0.77181101,0.77472579,0.59820461,0.20482004,0
-3.2631793,-3.2562695,-1.8238831,-0.77472579,-0.59820461,-0.20482004,0
-2.080554,-1.2498834,0.85376406,-0.24149778,-0.019430161,0.97020686,0
-0.4853884,2.8990741,0.95848548,-0.58436185,0.80110788,-0.12941206,0
3.3404706,4.3450804,-0.82353067,0.24149778,0.019430161,-0.97020686,0
4.007515,2.7639279,0.4814477,0.77472579,0.59820461,0.20482004,0
5.0993056,1.4270709,1.0773973,0.77472579,0.59820461,0.20482004,0
3.7733891,2.9147203,2.421824,0.77472579,0.59820461,0.20482004,0
2.524045,4.3402176,2.0252624,0.77472579,0.59820461,0.20482004,0
-3.0706511,-0.88187593,0.8788197,-0.24149778,-0.019430161,0.97020686,0
3.6948643,3.4964561,0.5392952,0.77472579,0.59820461,0.20482004,0
2.0394835,2.7359173,-1.1294155,0.24149778,0.019430161,-0.97020686,0
2.3967872,4.3996425,2.3975682,-0.24149778,-0.019430161,0.97020686,0
-2.7268763,1.0325137,-1.7463117,-0.58436185,0.80110788,-0.12941206,0
-0.46940708,-3.3283882,0.7662704,0.58436185,-0.80110788,0.12941206,0
-3.946907,-0.43405867,-2.550951,0.24149778,0.019430161,-0.97020686,0
-3.3720279,-3.9914322,-0.52933311,-0.77472579,-0.59820461,-0.20482004,0
-5.0948887,-0.75405252,-0.53458023,-0.58436185,0.80110788,-0.12941206,0
-4.4122424,-1.2042463,-2.7886877,0.24149778,0.019430161,-0.97020686,0
1.7611159,-1.298864,1.9186057,-0.24149778,-0.019430161,0.97020686,0
-3.3263273,-3.6673918,-1.6270752,-0.77472579,-0.59820461,-0.20482004,0
-4.503931,-1.8206477,-1.1365805,-0.77472579,-0.59820461,-0.20482004,0
-2.8290482,0.59960103,-2.1575694,0.24149778,0.019430161,-0.97020686,0
-2.8627439,0.9391697,0.59691852,-0.58436185,0.80110788,-0.12941206,0
-3.0724747,0.32880354,-2.0412903,-0.58436185,0.80110788,-0.12941206,0
-2.2972558,-1.8395176,-2.0144374,0.24149778,0.019430161,-0.97020686,0
1.4711983,0.27372831,-0.9907853,0.24149778,0.019430161,-0.97020686,0
-4.172523,-0.38892081,0.35740137,-0.24149778,-0.019430161,0.97020686,0
-0.13437545,2.2516172,-1.3489152,0.24149778,0.019430161,-0.97020686,0
4.1075563,3.2062731,0.11151743,0.77472579,0.59820461,0.20482004,0
-3.6188326,-3.4674141,-0.60997868,-0.77472579,-0.59820461,-0.20482004,0
2.0908923,4.4699855,0.10170889,-0.58436185,0.80110788,-0.12941206,0
5.5781422,1.2146473,0.21607399,0.77472579,0.59820461,0.20482004,0
4.3134441,2.7229872,0.5556035,0.77472579,0.59820461,0.20482004,0
-2.7041159,-4.6397939,-0.033032894,-0.77472579,-0.59820461,-0.20482004,0
-1.2853301,-4.0977335,0.34003067,0.58436185,-0.80110788,0.12941206,0
1.4291521,0.42158175,1.9316673,-0.24149778,-0.019430161,0.97020686,0
-0.91877484,1.3237958,1.4398098,-0.24149778,-0.019430161,0.97020686,0
-3.2727156,-4.0272918,-0.93637657,-0.77472579,-0.59820461,-0.20482004,0
-1.4162737,-2.9436805,1.217046,-0.24149778,-0.019430161,0.97020686,0
4.1008644,2.1038468,1.8945973,0.77472579,0.59820461,0.20482004,0
-2.334219,1.4691617,-0.05802086,-0.58436185,0.80110788,-0.12941206,0
-4.5858083,-1.6557541,-1.4798245,-0.77472579,-0.59820461,-0.20482004,0
-4.4483576,-2.3483696,0.0033550262,-0.77472579,-0.59820461,-0.20482004,0
