2.9940677,2.8288386,1.5676317,-0.27961046,0.31778264,0.90599799,0
1.6098597,-2.2778628,2.5328047,0.31124955,-0.86267382,0.39864475,0
0.069376707,3.9372144,-0.62631607,-0.31124955,0.86267382,-0.39864475,0
4.9632883,-0.23626089,1.3847067,0.90826303,0.39345673,0.14230293,0
0.51885772,3.3435597,-2.3993011,-0.31124955,0.86267382,-0.39864475,0
0.094592094,-0.93964404,-1.1259136,0.27961046,-0.31778264,-0.90599799,0
-2.4556503,-3.2380564,-1.1223743,0.27961046,-0.31778264,-0.90599799,0
-4.9674149,1.0920695,-2.2284117,-0.31124955,0.86267382,-0.39864475,0
-4.3918571,1.675495,-0.46276307,-0.27961046,0.31778264,0.90599799,0
-5.3096061,1.2510138,-0.43401337,-0.90826303,-0.39345673,-0.14230293,0
-2.4006217,2.3957105,-1.403929,-0.31124955,0.86267382,-0.39864475,0
-1.3878605,-4.7030768,0.060901165,0.31124955,-0.86267382,0.39864475,0
-3.1141572,-3.7988467,-0.89888334,-0.90826303,-0.39345673,-0.14230293,0
2.5165825,-1.6370208,-0.3859939,0.27961046,-0.31778264,-0.90599799,0
0.66831875,2.1772983,1.0273439,-0.27961046,0.31778264,0.90599799,0
3.0468264,4.8032451,-0.041784763,0.90826303,0.39345673,0.14230293,0
4.4853225,0.78201485,0.40127993,0.90826303,0.39345673,0.14230293,0
-2.2868047,-3.8966494,1.8335395,0.31124955,-0.86267382,0.39864475,0
0.8154403,-1.4630189,-0.99426019,0.27961046,-0.31778264,-0.90599799,0
0.75589883,-2.34448,2.8189373,-0.27961046,0.31778264,0.90599799,0
-1.2834935,-3.9501102,1.5180392,0.31124955,-0.86267382,0.39864475,0
2.5660453,0.041862249,-0.91430235,0.27961046,-0.31778264,-0.90599799,0
0.35240531,-3.4371634,-0.16999507,0.27961046,-0.31778264,-0.90599799,0
3.7126684,-2.2672973,0.52632123,0.31124955,-0.86267382,0.39864475,0
-4.0019565,-1.7897872,-0.44723558,-0.90826303,-0.39345673,-0.14230293,0
-2.2426527,-4.7256842,0.020525932,0.31124955,-0.86267382,0.39864475,0
-1.4648898,0.800892,-2.4300711,0.27961046,-0.31778264,-0.90599799,0
1.9553554,2.7748642,1.4404883,-0.27961046,0.31778264,0.90599799,0
3.8298852,-0.41269159,-0.43498099,0.27961046,-0.31778264,-0.90599799,0
3.8772879,-2.5778346,0.3436043,0.31124955,-0.86267382,0.39864475,0
3.8849323,-2.2164369,0.91790581,0.31124955,-0.86267382,0.39864475,0
-0.58173966,3.5085487,-0.66814566,-0.31124955,0.86267382,-0.39864475,0
-0.83720493,2.9112756,-2.0281606,-0.31124955,0.86267382,-0.39864475,0
-4.7636886,-0.68796253,-0.49411774,-0.90826303,-0.39345673,-0.14230293,0
3.2415299,4.0116057,0.83391476,0.90826303,0.39345673,0.14230293,0
0.8740176,1.2786303,-1.9504945,0.27961046,-0.31778264,-0.90599799,0
4.4422216,-2.0480785,0.41578579,0.31124955,-0.86267382,0.39864475,0
2.4418929,4.8759613,0.77104759,-0.27961046,0.31778264,0.90599799,0
4.6913552,0.99474311,-0.061033964,0.90826303,0.39345673,0.14230293,0
-5.1721807,1.1432445,-0.49073195,-0.90826303,-0.39345673,-0.14230293,0
-4.3936176,-1.8100376,0.058021069,-0.90826303,-0.39345673,-0.14230293,0
-5.4720664,1.4055066,-0.3782084,-0.90826303,-0.39345673,-0.14230293,0
0.13154078,2.2960727,1.0914093,-0.27961046,0.31778264,0.90599799,0
3.7813993,2.218679,0.48134089,0.90826303,0.39345673,0.14230293,0
-1.2552055,-3.119204,2.2070656,-0.27961046,0.31778264,0.90599799,0
-3.3849971,-1.4747264,0.93713832,-0.27961046,0.31778264,0.90599799,0
3.3734729,-1.7398523,-0.077831209,0.27961046,-0.31778264,-0.90599799,0
-1.7110336,-4.6248507,0.2667985,0.31124955,-0.86267382,0.39864475,0
-4.5212202,-0.064728141,-1.7928669,-0.90826303,-0.39345673,-0.14230293,0
4.8510199,0.20075464,0.39486361,0.90826303,0.39345673,0.14230293,0
2.9115233,4.1843605,0.4109602,0.90826303,0.39345673,0.14230293,0
3.6324522,3.8792553,-1.8624687,0.90826303,0.39345673,0.14230293,0
-0.60703135,-1.5668623,-1.1821189,0.27961046,-0.31778264,-0.90599799,0
0.048795938,-3.189281,-0.73320818,0.27961046,-0.31778264,-0.90599799,0
1.595142,-2.3987601,1.8552659,0.31124955,-0.86267382,0.39864475,0
0.84348845,2.9897528,-2.3384156,0.27961046,-0.31778264,-0.90599799,0
-4.603857,0.0015585423,-1.1240704,-0.90826303,-0.39345673,-0.14230293,0
1.0171905,-3.0589349,1.8022511,0.31124955,-0.86267382,0.39864475,0
2.1465597,-2.8502147,0.035129011,0.27961046,-0.31778264,-0.90599799,0
4.9720116,0.12603164,0.20321727,0.90826303,0.39345673,0.14230293,0
0.57417989,4.2041049,-0.56541896,-0.31124955,0.86267382,-0.39864475,0
2.8499534,4.4702568,0.018422127,0.90826303,0.39345673,0.14230293,0
4.2329884,1.6110284,0.57394934,0.90826303,0.39345673,0.14230293,0
0.37211388,0.59830397,1.3801452,-0.27961046,0.31778264,0.90599799,0
2.7326076,-1.9227283,2.8378167,0.31124955,-0.86267382,0.39864475,0
3.3886852,-1.8029982,2.073281,0.31124955,-0.86267382,0.39864475,0
4.3322506,0.33500129,2.8649087,-0.27961046,0.31778264,0.90599799,0
3.4066401,4.1708426,-0.29860926,0.90826303,0.39345673,0.14230293,0
-5.0577259,0.83011723,-1.8717169,-0.90826303,-0.39345673,-0.14230293,0
1.0412927,0.053593159,-1.2779713,0.27961046,-0.31778264,-0.90599799,0
5.1932397,-1.2876384,0.50528622,0.27961046,-0.31778264,-0.90599799,0
-2.2252202,-1.0230091,1.4623891,-0.27961046,0.31778264,0.90599799,0
2.3855619,3.9120889,-1.8067441,-0.31124955,0.86267382,-0.39864475,0
-3.782515,2.1000524,-0.28322661,-0.27961046,0.31778264,0.90599799,0
-4.1703815,2.2358012,-0.82865924,-0.31124955,0.86267382,-0.39864475,0
0.22444487,-3.1673923,2.1795211,0.31124955,-0.86267382,0.39864475,0
-2.9753222,1.9208156,0.046647936,-0.27961046,0.31778264,0.90599799,0
-3.2899566,-4.0527387,0.68390751,-0.90826303,-0.39345673,-0.14230293,0
-0.20572352,3.115752,-1.7801434,-0.31124955,0.86267382,-0.39864475,0
-0.1714747,-3.812799,0.60800147,0.31124955,-0.86267382,0.39864475,0
2.9378014,3.6457222,-2.2440188,0.27961046,-0.31778264,-0.90599799,0
0.66945815,3.97718,-0.89072084,-0.31124955,0.86267382,-0.39864475,0
-3.7132373,2.2393203,-1.3702154,-0.31124955,0.86267382,-0.39864475,0
5.2163835,-1.1643283,1.7199029,0.90826303,0.39345673,0.14230293,0
-3.4611692,-3.8730657,0.98088551,-0.90826303,-0.39345673,-0.14230293,0
-4.6454015,-0.23702621,-1.3678396,-0.90826303,-0.39345673,-0.14230293,0
-3.3629506,-2.9145899,-1.301939,-0.90826303,-0.39345673,-0.14230293,0
-4.0788393,1.477375,-2.6373808,-0.31124955,0.86267382,-0.39864475,0
1.9950625,-0.51959825,-1.0258607,0.27961046,-0.31778264,-0.90599799,0
-3.0550029,-1.050148,-2.0817733,0.27961046,-0.31778264,-0.90599799,0
1.318946,-0.18849409,2.2773135,-0.27961046,0.31778264,0.90599799,0
1.960408,4.6128445,0.084021568,-0.31124955,0.86267382,-0.39864475,0
-4.9225893,0.42951,-1.6837456,-0.90826303,-0.39345673,-0.14230293,0
-3.4124601,-2.599014,-1.6602199,-0.90826303,-0.39345673,-0.14230293,0
-1.3841534,-2.9790244,-1.0030677,0.27961046,-0.31778264,-0.90599799,0
3.6819813,1.9738536,1.9703426,0.90826303,0.39345673,0.14230293,0
-1.4747066,3.2023768,-0.41661096,-0.31124955,0.86267382,-0.39864475,0
4.6524472,-0.16264725,1.0029559,0.90826303,0.39345673,0.14230293,0
1.7478442,-2.1424947,2.7601957,0.31124955,-0.86267382,0.39864475,0
2.5910389,-0.64006329,-0.49570042,0.27961046,-0.31778264,-0.90599799,0
2.4078066,-1.8416501,2.440949,0.31124955,-0.86267382,0.39864475,0
-2.8847799,-5.0541277,0.3606863,0.31124955,-0.86267382,0.39864475,0
4.226346,-1.1562756,3.3970666,0.31124955,-0.86267382,0.39864475,0
0.13512564,3.3922966,-1.5108995,-0.31124955,0.86267382,-0.39864475,0
-0.83612108,3.3368745,-1.1387893,-0.31124955,0.86267382,-0.39864475,0
3.7043726,-0.94703966,2.9115319,-0.27961046,0.31778264,0.90599799,0
-2.3763263,1.0822318,0.74428713,-0.27961046,0.31778264,0.90599799,0
3.5136447,-1.8910627,2.4329967,0.31124955,-0.86267382,0.39864475,0
-0.4979825,3.8121247,-0.50200486,-0.31124955,0.86267382,-0.39864475,0
-3.7519968,2.1976213,-1.0496008,-0.31124955,0.86267382,-0.39864475,0
-1.196188,-3.9695663,-0.43322515,0.27961046,-0.31778264,-0.90599799,0
1.3920481,-3.4243343,-0.1247648,0.31124955,-0.86267382,0.39864475,0
4.2945299,-2.2229476,0.24712008,0.27961046,-0.31778264,-0.90599799,0
-1.3082227,-0.95884597,-1.7751715,0.27961046,-0.31778264,-0.90599799,0
-2.4477959,-1.0994649,1.429629,-0.27961046,0.31778264,0.90599799,0
-3.9870353,-1.5908914,-1.2132478,-0.90826303,-0.39345673,-0.14230293,0
2.4190285,-2.1829388,1.9434756,0.31124955,-0.86267382,0.39864475,0
1.4921757,-2.7480516,1.8340542,0.31124955,-0.86267382,0.39864475,0
2.9870439,4.886683,-0.99378395,-0.31124955,0.86267382,-0.39864475,0
-1.4561005,-2.0934358,-1.480891,0.27961046,-0.31778264,-0.90599799,0
1.5616515,4.5885744,0.048641205,-0.31124955,0.86267382,-0.39864475,0
4.3486938,1.294641,-0.29954815,0.90826303,0.39345673,0.14230293,0
1.4025838,-0.37444746,-0.97624838,0.27961046,-0.31778264,-0.90599799,0
-4.7309127,2.0664444,-0.33158267,-0.27961046,0.31778264,0.90599799,0
0.0062987804,-2.9081068,2.4869604,0.31124955,-0.86267382,0.39864475,0
-0.49990034,-3.6197155,1.6205688,0.31124955,-0.86267382,0.39864475,0
0.53964424,-2.6730571,2.1274452,0.31124955,-0.86267382,0.39864475,0
3.9182978,-2.4506791,0.87209177,0.31124955,-0.86267382,0.39864475,0
-3.8861763,-1.7147825,1.1681638,-0.27961046,0.31778264,0.90599799,0
-2.8345401,-0.71385694,1.2437344,-0.27961046,0.31778264,0.90599799,0
4.0848684,-1.9257659,0.18215448,0.27961046,-0.31778264,-0.90599799,0
5.3277106,-1.4998493,0.86685646,0.90826303,0.39345673,0.14230293,0
3.3925753,3.0234549,1.7262607,-0.27961046,0.31778264,0.90599799,0
1.4739765,-2.4654508,-0.30634934,0.27961046,-0.31778264,-0.90599799,0
-2.612767,1.9486368,-2.7155659,-0.31124955,0.86267382,-0.39864475,0
-0.68263912,-4.0294971,0.7499547,0.31124955,-0.86267382,0.39864475,0
3.579052,2.2908008,-1.1806529,0.27961046,-0.31778264,-0.90599799,0
-3.0191875,2.5632446,-0.86556786,-0.31124955,0.86267382,-0.39864475,0
-1.1373515,2.1948183,-2.6815381,-0.31124955,0.86267382,-0.39864475,0
-5.1057172,1.1633788,-2.5704355,-0.90826303,-0.39345673,-0.14230293,0
-2.6676261,-4.2753363,1.6828036,0.31124955,-0.86267382,0.39864475,0
-1.7230208,2.0225616,0.3945086,-0.27961046,0.31778264,0.90599799,0
0.11170602,3.605253,0.38929343,-0.27961046,0.31778264,0.90599799,0
-0.72922993,3.6443839,-0.11485577,-0.31124955,0.86267382,-0.39864475,0
0.13890445,-0.6879673,1.838644,-0.27961046,0.31778264,0.90599799,0
2.6171951,4.7806573,0.73045635,-0.27961046,0.31778264,0.90599799,0
3.7621281,3.3880045,-1.6810541,0.90826303,0.39345673,0.14230293,0
-5.1274776,0.91722393,-2.3278356,-0.90826303,-0.39345673,-0.14230293,0
-4.0404005,2.2741113,-0.48134804,-0.27961046,0.31778264,0.90599799,0
-4.1894956,-0.8219794,-2.2926686,-0.90826303,-0.39345673,-0.14230293,0
0.25237274,2.8560224,0.5413053,-0.27961046,0.31778264,0.90599799,0
0.47785783,-2.174942,-0.53962791,0.27961046,-0.31778264,-0.90599799,0
-3.8162405,1.5048943,-2.6699007,-0.31124955,0.86267382,-0.39864475,0
2.9784091,1.3181443,-1.0235584,0.27961046,-0.31778264,-0.90599799,0
3.9595346,2.4950185,-0.93747759,0.90826303,0.39345673,0.14230293,0
0.84851062,-0.22092342,-1.529866,0.27961046,-0.31778264,-0.90599799,0
-4.8689528,-0.18105197,-0.63290191,-0.90826303,-0.39345673,-0.14230293,0
-4.5288301,1.9754894,-1.4015446,-0.31124955,0.86267382,-0.39864475,0
3.3918273,-1.8080696,2.4671342,0.31124955,-0.86267382,0.39864475,0
-1.302439,-4.4440713,-0.20267582,0.31124955,-0.86267382,0.39864475,0
0.008736372,4.2290268,-0.10352659,-0.31124955,0.86267382,-0.39864475,0
3.9963582,0.24765396,-0.48910213,0.27961046,-0.31778264,-0.90599799,0
1.5694005,0.85458493,-1.4571908,0.27961046,-0.31778264,-0.90599799,0
-0.52122605,1.422437,1.1619564,-0.27961046,0.31778264,0.90599799,0
-1.8293724,0.4461441,0.91720939,-0.27961046,0.31778264,0.90599799,0
-4.1334505,2.3889523,-0.26048887,-0.27961046,0.31778264,0.90599799,0
-4.2899065,-1.7965326,1.0310524,-0.27961046,0.31778264,0.90599799,0
1.7872107,4.198019,-0.65323114,-0.31124955,0.86267382,-0.39864475,0
2.635674,-2.0038891,2.6777687,0.31124955,-0.86267382,0.39864475,0
-0.66946912,-4.0911012,0.59413552,0.31124955,-0.86267382,0.39864475,0
3.9632046,-2.1929023,1.3386151,0.31124955,-0.86267382,0.39864475,0
-1.1423991,2.3951979,-2.8984294,-0.31124955,0.86267382,-0.39864475,0
2.9540942,4.6971817,0.53145552,0.90826303,0.39345673,0.14230293,0
2.0669241,4.6948962,-0.068223,-0.31124955,0.86267382,-0.39864475,0
-3.590734,0.030640364,0.3224287,-0.27961046,0.31778264,0.90599799,0
-2.3982744,-4.7409873,0.23559713,0.31124955,-0.86267382,0.39864475,0
-2.0304174,-4.2820997,-0.64763784,0.27961046,-0.31778264,-0.90599799,0
5.5212374,-1.5851371,0.56170034,0.27961046,-0.31778264,-0.90599799,0
-0.94613934,-3.8361962,0.99351335,0.31124955,-0.86267382,0.39864475,0
1.5034064,-0.32300198,2.2505918,-0.27961046,0.31778264,0.90599799,0
-1.8178664,2.1893225,-2.8938351,-0.31124955,0.86267382,-0.39864475,0
3.6250658,-1.8882331,1.7800146,0.31124955,-0.86267382,0.39864475,0
3.0416555,4.8273673,-0.91677189,-0.31124955,0.86267382,-0.39864475,0
-2.3377912,-2.0620396,-1.7964866,0.27961046,-0.31778264,-0.90599799,0
-2.9192338,-2.0225859,-1.7859271,0.27961046,-0.31778264,-0.90599799,0
-0.57026172,3.1634798,-1.4592317,-0.31124955,0.86267382,-0.39864475,0
-2.065227,3.2203143,-0.39805806,-0.31124955,0.86267382,-0.39864475,0
-1.5069978,-3.4110889,-0.7530098,0.27961046,-0.31778264,-0.90599799,0
2.359622,4.750248,-0.76475048,-0.31124955,0.86267382,-0.39864475,0
-1.6974819,-2.1089563,1.9492263,-0.27961046,0.31778264,0.90599799,0
-3.9012108,1.8247161,-1.6598206,-0.31124955,0.86267382,-0.39864475,0
5.0773864,-1.5208693,1.9506938,0.31124955,-0.86267382,0.39864475,0
-0.848948,-3.4649804,2.1636624,0.31124955,-0.86267382,0.39864475,0
-4.0318656,-1.2408483,-1.8041279,-0.90826303,-0.39345673,-0.14230293,0
5.106266,-0.61737359,1.7217565,0.90826303,0.39345673,0.14230293,0
-4.1391711,-2.0093756,0.047510147,-0.90826303,-0.39345673,-0.14230293,0
-3.2624805,-3.2590916,-1.221168,-0.90826303,-0.39345673,-0.14230293,0
3.5223272,-1.5151398,2.693249,0.31124955,-0.86267382,0.39864475,0
2.2140532,-1.623313,2.704375,-0.27961046,0.31778264,0.90599799,0
-2.1254683,-3.3701539,-1.2409725,0.27961046,-0.31778264,-0.90599799,0
-4.7632732,-0.68731737,0.13073587,-0.90826303,-0.39345673,-0.14230293,0
5.3373556,-0.92640114,0.35773015,0.90826303,0.39345673,0.14230293,0
2.5997109,-0.89982998,-0.37082398,0.27961046,-0.31778264,-0.90599799,0
1.5675826,-3.5276859,0.0051094294,0.27961046,-0.31778264,-0.90599799,0
2.9871418,5.0005436,-0.014931202,0.90826303,0.39345673,0.14230293,0
-2.0386133,2.0735323,-2.2132163,-0.31124955,0.86267382,-0.39864475,0
0.46806526,-3.0506094,1.5851872,0.31124955,-0.86267382,0.39864475,0
5.1642647,-0.66746569,1.2316928,0.90826303,0.39345673,0.14230293,0
0.54901695,3.737201,0.70430923,-0.27961046,0.31778264,0.90599799,0
-0.026676655,-3.0687208,1.9608488,0.31124955,-0.86267382,0.39864475,0
-2.4769337,-4.3923664,1.3048172,0.31124955,-0.86267382,0.39864475,0
-4.1193686,-2.5116763,0.25242186,-0.90826303,-0.39345673,-0.14230293,0
-3.1500955,-3.5952218,-0.94414568,-0.90826303,-0.39345673,-0.14230293,0
3.8097346,-1.8006508,2.0512164,0.31124955,-0.86267382,0.39864475,0
-2.2084587,-4.0580769,1.6375003,0.31124955,-0.86267382,0.39864475,0
-3.1144295,-4.0187616,-1.1034393,-0.90826303,-0.39345673,-0.14230293,0
3.5923693,2.0381236,2.2412529,-0.27961046,0.31778264,0.90599799,0
1.2310101,0.45252097,1.7766232,-0.27961046,0.31778264,0.90599799,0
-3.8238821,-2.4807498,-0.11092806,-0.90826303,-0.39345673,-0.14230293,0
-4.3237953,-0.83229709,-2.1712825,-0.90826303,-0.39345673,-0.14230293,0
3.6127155,2.5074356,1.5972936,0.90826303,0.39345673,0.14230293,0
-4.852201,0.61135513,-3.5728478,-0.90826303,-0.39345673,-0.14230293,0
1.8082767,-2.0944426,2.7904811,-0.27961046,0.31778264,0.90599799,0
-4.6393013,-1.112045,0.4361515,-0.90826303,-0.39345673,-0.14230293,0
0.30258012,1.3716121,-2.10885,0.27961046,-0.31778264,-0.90599799,0
3.061918,-2.3708117,0.96129072,0.31124955,-0.86267382,0.39864475,0
-3.058917,-4.419095,1.7943525,0.31124955,-0.86267382,0.39864475,0
-2.5964267,-4.890049,0.11661243,0.31124955,-0.86267382,0.39864475,0
-4.293365,-1.6911145,-0.32008362,-0.90826303,-0.39345673,-0.14230293,0
4.4655714,0.14695418,1.5409222,0.90826303,0.39345673,0.14230293,0
-3.5641522,-2.6988521,-1.2590146,-0.90826303,-0.39345673,-0.14230293,0
0.38470864,3.6463001,-0.98836303,-0.31124955,0.86267382,-0.39864475,0
3.9415455,-0.70817673,3.1986625,-0.27961046,0.31778264,0.90599799,0
2.9841146,4.6131072,0.77451563,0.90826303,0.39345673,0.14230293,0
-0.071086407,2.9179201,-2.3081188,-0.31124955,0.86267382,-0.39864475,0
4.0234027,2.3230126,-0.46760273,0.90826303,0.39345673,0.14230293,0
-3.4732499,-3.2006729,-1.5189524,-0.90826303,-0.39345673,-0.14230293,0
-2.4402709,-4.1791382,1.9774392,0.31124955,-0.86267382,0.39864475,0
-0.55916375,0.97000003,1.1982249,-0.27961046,0.31778264,0.90599799,0
-0.9313786,-4.0108175,1.1388044,0.31124955,-0.86267382,0.39864475,0
-2.3419867,-3.9715328,-0.89923,0.27961046,-0.31778264,-0.90599799,0
2.5138421,-1.9619422,2.1948287,0.31124955,-0.86267382,0.39864475,0
-1.2907903,-4.6194234,-0.57481337,0.27961046,-0.31778264,-0.90599799,0
-0.0017960072,-3.0173311,2.0957751,0.31124955,-0.86267382,0.39864475,0
-1.4009657,-1.943465,1.8744071,-0.27961046,0.31778264,0.90599799,0
-1.42021,-1.2334126,-1.4909536,0.27961046,-0.31778264,-0.90599799,0
2.2783256,4.813283,-0.078132629,-0.31124955,0.86267382,-0.39864475,0
5.1463256,-1.5139208,1.7518778,0.31124955,-0.86267382,0.39864475,0
5.2947969,-0.96052027,0.53274727,0.90826303,0.39345673,0.14230293,0
-1.1351833,-2.9270592,2.1596088,-0.27961046,0.31778264,0.90599799,0
-0.20461154,-3.7844672,1.1577566,0.31124955,-0.86267382,0.39864475,0
3.3596156,3.5801375,-0.95418549,0.90826303,0.39345673,0.14230293,0
-4.1722279,-0.9405812,-1.5450377,-0.90826303,-0.39345673,-0.14230293,0
3.0261517,-1.6432844,-0.34507528,0.27961046,-0.31778264,-0.90599799,0
4.5937018,-1.0426633,0.34350121,0.27961046,-0.31778264,-0.90599799,0
-3.8798866,-2.3295085,0.071500778,-0.90826303,-0.39345673,-0.14230293,0
1.226696,4.7536545,0.27441502,-0.31124955,0.86267382,-0.39864475,0
2.2490311,4.2817669,-1.7564774,-0.31124955,0.86267382,-0.39864475,0
3.1265593,1.8938358,-1.3284855,0.27961046,-0.31778264,-0.90599799,0
0.7610147,2.6417835,-2.5565906,0.27961046,-0.31778264,-0.90599799,0
-0.20064116,-3.9480617,0.4434123,0.31124955,-0.86267382,0.39864475,0
3.1004322,1.9454954,-1.4115553,0.27961046,-0.31778264,-0.90599799,0
-3.6471381,1.3693954,-2.9461527,-0.31124955,0.86267382,-0.39864475,0
4.4467916,0.48938382,0.77930498,0.90826303,0.39345673,0.14230293,0
-4.0650725,-2.7631156,0.97454834,-0.90826303,-0.39345673,-0.14230293,0
4.0960226,-1.6159019,2.4111969,0.31124955,-0.86267382,0.39864475,0
-4.432869,0.56856954,-3.0526485,0.27961046,-0.31778264,-0.90599799,0
0.35170388,-1.8737191,-0.78011012,0.27961046,-0.31778264,-0.90599799,0
-3.9968426,-2.9142642,1.5736382,-0.27961046,0.31778264,0.90599799,0
2.3578889,4.7099538,-0.61300898,-0.31124955,0.86267382,-0.39864475,0
-3.6996086,-3.571846,0.77240086,-0.90826303,-0.39345673,-0.14230293,0
3.3370414,3.2068281,0.83984423,0.90826303,0.39345673,0.14230293,0
4.1444283,0.71426594,2.522748,0.90826303,0.39345673,0.14230293,0
-4.8877249,0.96023655,-0.057872534,-0.27961046,0.31778264,0.90599799,0
1.5342493,1.0577157,-1.6232599,0.27961046,-0.31778264,-0.90599799,0
3.4929817,-1.6035852,2.9058533,0.31124955,-0.86267382,0.39864475,0
4.3257828,1.7647419,-0.32204676,0.90826303,0.39345673,0.14230293,0
-1.6379551,2.3989878,0.41944474,-0.27961046,0.31778264,0.90599799,0
-3.7928994,-2.6348753,0.21080256,-0.90826303,-0.39345673,-0.14230293,0
3.8480854,0.89472735,2.6419497,-0.27961046,0.31778264,0.90599799,0
3.245501,-2.4838147,0.87126482,0.31124955,-0.86267382,0.39864475,0
2.5882027,-2.569777,1.4930987,0.31124955,-0.86267382,0.39864475,0
-0.27790785,-3.1465409,2.6341043,0.31124955,-0.86267382,0.39864475,0
-1.1192162,-3.4955459,2.207197,0.31124955,-0.86267382,0.39864475,0
4.1201291,0.80156976,2.5259347,0.90826303,0.39345673,0.14230293,0
-3.8213429,0.51903057,-3.0561323,0.27961046,-0.31778264,-0.90599799,0
-2.3197286,-0.81340623,1.2839317,-0.27961046,0.31778264,0.90599799,0
3.5364153,-0.1541689,2.6689148,-0.27961046,0.31778264,0.90599799,0
-3.166301,-4.880137,1.0914478,-0.90826303,-0.39345673,-0.14230293,0
-3.1255817,-4.1978784,-0.59979391,-0.90826303,-0.39345673,-0.14230293,0
0.77467418,-3.7300916,0.30721188,0.31124955,-0.86267382,0.39864475,0
-0.64084077,3.4869299,-0.60526609,-0.31124955,0.86267382,-0.39864475,0
1.0917115,4.2012725,-0.63513923,-0.31124955,0.86267382,-0.39864475,0
-5.18785,0.93783033,-1.9669408,-0.90826303,-0.39345673,-0.14230293,0
-5.1500692,1.6661114,-1.5162385,-0.31124955,0.86267382,-0.39864475,0
3.8778801,2.6204407,-1.5738306,0.27961046,-0.31778264,-0.90599799,0
-4.3176017,-0.99175662,-1.7327635,-0.90826303,-0.39345673,-0.14230293,0
1.1332953,1.4481115,1.3313091,-0.27961046,0.31778264,0.90599799,0
-2.080713,-2.1641264,-1.6233974,0.27961046,-0.31778264,-0.90599799,0
-1.1503152,2.4946661,-2.4871538,-0.31124955,0.86267382,-0.39864475,0
-1.017663,-1.2708408,-1.4665418,0.27961046,-0.31778264,-0.90599799,0
1.8008314,-2.4106581,2.3397794,0.31124955,-0.86267382,0.39864475,0
-2.1406469,-4.9810901,-0.075158596,0.31124955,-0.86267382,0.39864475,0
-3.7609437,-2.9051147,-0.40066671,-0.90826303,-0.39345673,-0.14230293,0
-4.0951223,1.6961942,-1.698456,-0.31124955,0.86267382,-0.39864475,0
-4.1295691,-1.8449512,-1.2488282,-0.90826303,-0.39345673,-0.14230293,0
3.1724563,4.5892344,-0.14960432,0.90826303,0.39345673,0.14230293,0
3.1103845,-0.24733061,2.6734347,-0.27961046,0.31778264,0.90599799,0
3.9220839,2.2645602,0.2939949,0.90826303,0.39345673,0.14230293,0
4.5326147,-1.7956256,1.2861686,0.31124955,-0.86267382,0.39864475,0
-1.0404165,-3.5438044,1.8193889,0.31124955,-0.86267382,0.39864475,0
0.56269431,-2.5359201,-0.72051215,0.27961046,-0.31778264,-0.90599799,0
-4.4772844,-0.37124395,0.61958432,-0.27961046,0.31778264,0.90599799,0
-3.1167052,-2.6936283,-1.7359984,0.27961046,-0.31778264,-0.90599799,0
-1.3974388,-2.8449717,2.2842245,-0.27961046,0.31778264,0.90599799,0
-4.8589354,0.76938826,-3.223824,-0.90826303,-0.39345673,-0.14230293,0
-2.6058502,-3.3152628,1.9049547,-0.27961046,0.31778264,0.90599799,0
-2.4341574,-0.23201036,1.1785071,-0.27961046,0.31778264,0.90599799,0
2.3631766,1.9892684,1.7151065,-0.27961046,0.31778264,0.90599799,0
4.9705615,-0.50393283,2.0890467,0.90826303,0.39345673,0.14230293,0
1.1015158,4.1503029,-0.62097025,-0.31124955,0.86267382,-0.39864475,0
-4.3052115,-1.2257662,0.28805494,-0.90826303,-0.39345673,-0.14230293,0
-2.6755254,3.077553,-0.39612311,-0.31124955,0.86267382,-0.39864475,0
3.7605414,0.74477553,-0.81396151,0.27961046,-0.31778264,-0.90599799,0
-3.3308451,1.1544526,0.38643569,-0.27961046,0.31778264,0.90599799,0
2.1410246,0.017966986,2.4193678,-0.27961046,0.31778264,0.90599799,0
1.9103782,5.0552502,0.26826715,-0.31124955,0.86267382,-0.39864475,0
-0.14084578,2.9776626,-2.3926418,-0.31124955,0.86267382,-0.39864475,0
0.62723625,0.7759335,1.4540195,-0.27961046,0.31778264,0.90599799,0
-0.18427402,0.30963659,1.3836461,-0.27961046,0.31778264,0.90599799,0
-0.26129365,-2.2658689,-0.93797195,0.27961046,-0.31778264,-0.90599799,0
1.5062268,1.388237,1.6022016,-0.27961046,0.31778264,0.90599799,0
1.2903867,3.7464795,-1.2262192,-0.31124955,0.86267382,-0.39864475,0
-1.4816701,-0.97001553,1.6261454,-0.27961046,0.31778264,0.90599799,0
1.4176637,1.2980673,-1.6917555,0.27961046,-0.31778264,-0.90599799,0
-4.9764781,0.36922193,-0.51920152,-0.90826303,-0.39345673,-0.14230293,0
-3.588002,-1.0992453,1.0121675,-0.27961046,0.31778264,0.90599799,0
-3.4421635,1.8065659,-2.3438385,-0.31124955,0.86267382,-0.39864475,0
4.4654646,0.45497608,0.53757048,0.90826303,0.39345673,0.14230293,0
-2.4569292,2.7473712,-1.0766023,-0.31124955,0.86267382,-0.39864475,0
-4.112608,1.1986126,-2.578985,-0.31124955,0.86267382,-0.39864475,0
-4.7865629,-0.21065688,-0.32889557,-0.90826303,-0.39345673,-0.14230293,0
-0.77113152,-4.0920482,0.53020692,0.31124955,-0.86267382,0.39864475,0
0.12053668,1.7952168,-2.3345683,0.27961046,-0.31778264,-0.90599799,0
-3.8420668,1.9027877,-1.4746902,-0.31124955,0.86267382,-0.39864475,0
2.6638284,-2.3162549,1.8417804,0.31124955,-0.86267382,0.39864475,0
-3.5888193,-3.8283577,1.2069273,-0.90826303,-0.39345673,-0.14230293,0
3.5985987,0.2882992,2.7573822,-0.27961046,0.31778264,0.90599799,0
-3.5431538,-3.6855865,1.848527,-0.90826303,-0.39345673,-0.14230293,0
-2.6439147,-2.2685485,-1.5615244,0.27961046,-0.31778264,-0.90599799,0
4.5697241,0.20816195,2.1736724,0.90826303,0.39345673,0.14230293,0
-0.81271076,2.7079923,-2.2705567,-0.31124955,0.86267382,-0.39864475,0
1.0605028,3.6622663,-1.5003254,-0.31124955,0.86267382,-0.39864475,0
3.7624078,2.7778461,-1.0717459,0.90826303,0.39345673,0.14230293,0
4.9298687,0.23130465,0.75217772,0.90826303,0.39345673,0.14230293,0
1.8734052,1.6527472,-1.7321323,0.27961046,-0.31778264,-0.90599799,0
-2.3022664,-5.013514,-0.60398817,0.27961046,-0.31778264,-0.90599799,0
-4.529304,0.2942853,-0.045179844,-0.27961046,0.31778264,0.90599799,0
-0.41935921,-3.5439193,1.2371502,0.31124955,-0.86267382,0.39864475,0
-4.4295616,-1.0413709,0.075405121,-0.90826303,-0.39345673,-0.14230293,0
3.5984368,3.3817601,-1.7784722,0.27961046,-0.31778264,-0.90599799,0
1.6341367,-1.1020129,-0.65991634,0.27961046,-0.31778264,-0.90599799,0
-3.6029201,-3.5283089,0.67450762,-0.90826303,-0.39345673,-0.14230293,0
-3.7091341,-1.7397345,-1.8211601,-0.90826303,-0.39345673,-0.14230293,0
-4.8458147,-0.010222197,-1.1806085,-0.90826303,-0.39345673,-0.14230293,0
-4.4949589,-1.2925667,-0.6328795,-0.90826303,-0.39345673,-0.14230293,0
2.7075424,-2.0301394,2.2443385,0.31124955,-0.86267382,0.39864475,0
2.0311065,3.5989552,-2.1028066,-0.31124955,0.86267382,-0.39864475,0
-4.8880653,-0.12019634,-1.0242743,-0.90826303,-0.39345673,-0.14230293,0
-3.7021849,-2.761939,0.3293438,-0.90826303,-0.39345673,-0.14230293,0
-1.55673,-4.0502815,1.0433547,0.31124955,-0.86267382,0.39864475,0
4.1755958,1.5475481,-0.31803775,0.90826303,0.39345673,0.14230293,0
-2.8194938,-2.4600954,-1.6767774,0.27961046,-0.31778264,-0.90599799,0
-3.2137594,-4.1142068,-0.64073277,-0.90826303,-0.39345673,-0.14230293,0
3.5186579,3.4130058,-1.4195733,0.90826303,0.39345673,0.14230293,0
4.2297535,1.141901,0.60162187,0.90826303,0.39345673,0.14230293,0
2.5316627,-2.2007689,2.4707179,0.31124955,-0.86267382,0.39864475,0
-2.7688756,-0.049167633,0.87552023,-0.27961046,0.31778264,0.90599799,0
3.58903,3.3902071,-0.3729229,0.90826303,0.39345673,0.14230293,0
1.1858895,3.4310732,-2.0558882,-0.31124955,0.86267382,-0.39864475,0
-5.0532379,0.74991226,-0.35386992,-0.90826303,-0.39345673,-0.14230293,0
-5.3454061,1.2730784,-1.0894952,-0.90826303,-0.39345673,-0.14230293,0
3.3278871,4.1782656,-1.7307205,0.90826303,0.39345673,0.14230293,0
0.90181339,-2.3332162,2.6820049,-0.27961046,0.31778264,0.90599799,0
2.9454389,0.43888211,-0.78506899,0.27961046,-0.31778264,-0.90599799,0
3.1738062,4.4487662,-0.92449999,0.90826303,0.39345673,0.14230293,0
1.9366281,-3.1120651,0.30322969,0.31124955,-0.86267382,0.39864475,0
3.4052296,4.1095686,-0.61565304,0.90826303,0.39345673,0.14230293,0
3.0890536,-1.631349,2.8275547,0.31124955,-0.86267382,0.39864475,0
4.8312721,-1.476176,1.5657058,0.31124955,-0.86267382,0.39864475,0
-0.6671567,-4.0483861,0.35297108,0.31124955,-0.86267382,0.39864475,0
3.388195,4.2268052,-0.78561926,0.90826303,0.39345673,0.14230293,0
-4.6748466,0.07418406,-2.9913976,-0.90826303,-0.39345673,-0.14230293,0
-1.9104118,-1.8469291,1.8208493,-0.27961046,0.31778264,0.90599799,0
4.6923618,0.57634044,1.2098827,0.90826303,0.39345673,0.14230293,0
-3.5289586,-3.0293527,-0.57126045,-0.90826303,-0.39345673,-0.14230293,0
2.278501,-2.7345746,0.85850447,0.31124955,-0.86267382,0.39864475,0
-4.3107204,1.7876064,-0.35849178,-0.27961046,0.31778264,0.90599799,0
2.1368601,-1.569681,3.0450792,-0.27961046,0.31778264,0.90599799,0
-3.5860229,-2.9129703,-0.4103775,-0.90826303,-0.39345673,-0.14230293,0
-1.5936188,-3.0105329,2.0331349,-0.27961046,0.31778264,0.90599799,0
-5.1346002,1.1590141,-2.3955853,-0.31124955,0.86267382,-0.39864475,0
-1.1174716,-3.042726,2.1712556,-0.27961046,0.31778264,0.90599799,0
-4.4644065,0.32029176,-2.7198505,-0.90826303,-0.39345673,-0.14230293,0
4.8658504,0.15300322,1.065361,0.90826303,0.39345673,0.14230293,0
5.380271,-1.3006949,1.4012204,0.90826303,0.39345673,0.14230293,0
4.549005,-0.33644754,2.4293323,0.90826303,0.39345673,0.14230293,0
-4.8321772,1.4475303,-2.1988559,-0.31124955,0.86267382,-0.39864475,0
-2.187927,-1.8802841,-1.7116225,0.27961046,-0.31778264,-0.90599799,0
-0.52464616,-0.2662338,1.6950386,-0.27961046,0.31778264,0.90599799,0
3.2704051,0.97734833,-0.76931977,0.27961046,-0.31778264,-0.90599799,0
3.6014328,-0.47712755,-0.35627759,0.27961046,-0.31778264,-0.90599799,0
2.7259865,-2.0289085,2.0024827,0.31124955,-0.86267382,0.39864475,0
-1.4659348,-0.74267292,1.4395463,-0.27961046,0.31778264,0.90599799,0
-0.18908077,0.75587231,1.1168323,-0.27961046,0.31778264,0.90599799,0
-3.1472659,2.4261229,-1.2976878,-0.31124955,0.86267382,-0.39864475,0
-3.242121,-4.4182067,1.3653784,0.31124955,-0.86267382,0.39864475,0
-3.7432628,-2.4135783,-1.4729159,-0.90826303,-0.39345673,-0.14230293,0
2.2670779,5.2656727,0.39222383,-0.31124955,0.86267382,-0.39864475,0
3.024838,4.7289376,-0.9249301,-0.31124955,0.86267382,-0.39864475,0
-0.2142458,-3.8199677,0.71638322,0.31124955,-0.86267382,0.39864475,0
-5.0659485,1.6668259,-0.89754868,-0.31124955,0.86267382,-0.39864475,0
4.494946,-1.3328065,1.9761738,0.31124955,-0.86267382,0.39864475,0
3.2761264,3.9090085,-0.95075893,0.90826303,0.39345673,0.14230293,0
-4.4121041,0.11726078,-2.4409704,-0.90826303,-0.39345673,-0.14230293,0
-0.062050819,3.1244054,-2.2923951,-0.31124955,0.86267382,-0.39864475,0
2.0280163,-1.9664063,2.4478128,0.31124955,-0.86267382,0.39864475,0
-0.84314615,0.36430013,-2.0018351,0.27961046,-0.31778264,-0.90599799,0
2.2500813,3.9573386,-1.7425063,-0.31124955,0.86267382,-0.39864475,0
-3.6085351,1.2813203,0.27426147,-0.27961046,0.31778264,0.90599799,0
0.39302993,3.2049575,-2.3543453,-0.31124955,0.86267382,-0.39864475,0
-5.2746024,0.94825768,-1.0738547,-0.90826303,-0.39345673,-0.14230293,0
4.1082916,1.4283752,0.16727734,0.90826303,0.39345673,0.14230293,0
2.2600977,4.0675564,-1.8544054,-0.31124955,0.86267382,-0.39864475,0
-0.32474804,-3.6140168,1.3400266,0.31124955,-0.86267382,0.39864475,0
0.25168538,-3.2174261,-0.32167077,0.27961046,-0.31778264,-0.90599799,0
1.584278,-2.0650308,2.9055495,-0.27961046,0.31778264,0.90599799,0
-1.2547789,-4.3148308,0.3171773,0.31124955,-0.86267382,0.39864475,0
4.4177732,-2.0935552,0.63009125,0.31124955,-0.86267382,0.39864475,0
4.9726787,-0.56453133,0.39263654,0.90826303,0.39345673,0.14230293,0
4.4180784,0.0070652962,2.7001925,0.90826303,0.39345673,0.14230293,0
-2.5163658,1.1339941,-2.8332479,0.27961046,-0.31778264,-0.90599799,0
0.32522249,-3.1304522,1.9051752,0.31124955,-0.86267382,0.39864475,0
-4.7888541,0.26734203,-2.6655149,-0.90826303,-0.39345673,-0.14230293,0
-2.7451184,-4.8898067,-0.83998728,-0.90826303,-0.39345673,-0.14230293,0
-3.4572859,-4.221468,1.2053294,-0.90826303,-0.39345673,-0.14230293,0
-3.7565818,-2.7418809,0.6575141,-0.90826303,-0.39345673,-0.14230293,0
-3.4029598,-3.55392,1.8355861,-0.27961046,0.31778264,0.90599799,0
3.6341128,3.1286697,-1.0336828,0.90826303,0.39345673,0.14230293,0
4.499198,0.5419935,2.3779931,0.90826303,0.39345673,0.14230293,0
1.5140319,3.9750323,-1.6809716,-0.31124955,0.86267382,-0.39864475,0
-4.7019258,1.5447979,-0.39465654,-0.27961046,0.31778264,0.90599799,0
-3.2576337,-3.6754868,0.59035301,-0.90826303,-0.39345673,-0.14230293,0
5.0502019,-0.84695822,3.0133848,0.90826303,0.39345673,0.14230293,0
2.1004314,-0.79554302,2.6356227,-0.27961046,0.31778264,0.90599799,0
-4.0651541,0.095491171,0.37214017,-0.27961046,0.31778264,0.90599799,0
-3.0007954,-4.1702566,-0.81454086,-0.90826303,-0.39345673,-0.14230293,0
-3.4259691,-3.3759785,0.61511326,-0.90826303,-0.39345673,-0.14230293,0
1.3918002,4.5267162,-0.21330118,-0.31124955,0.86267382,-0.39864475,0
-5.2886548,0.79464793,-0.30483413,-0.90826303,-0.39345673,-0.14230293,0
3.8923473,2.2331882,-0.19991159,0.90826303,0.39345673,0.14230293,0
-4.6041975,-0.88747716,0.24757862,-0.90826303,-0.39345673,-0.14230293,0
-2.4728701,2.4108596,-1.9251707,-0.31124955,0.86267382,-0.39864475,0
3.161808,-1.4418615,3.2102542,-0.27961046,0.31778264,0.90599799,0
4.0109916,1.3677275,2.066757,0.90826303,0.39345673,0.14230293,0
1.0551319,4.52355,-0.042612553,-0.31124955,0.86267382,-0.39864475,0
-3.1822295,-4.7022781,0.8606801,-0.90826303,-0.39345673,-0.14230293,0
3.3496161,4.1962681,-1.2061024,0.90826303,0.39345673,0.14230293,0
0.48841417,0.53320742,-1.5948845,0.27961046,-0.31778264,-0.90599799,0
-4.4213705,-1.1717178,-1.006319,-0.90826303,-0.39345673,-0.14230293,0
-2.7712889,2.719955,-0.28991637,-0.31124955,0.86267382,-0.39864475,0
4.4823923,-0.92490935,0.11047411,0.27961046,-0.31778264,-0.90599799,0
-4.4244528,-1.0840139,-0.30084729,-0.90826303,-0.39345673,-0.14230293,0
3.0454669,0.5363884,2.4511309,-0.27961046,0.31778264,0.90599799,0
0.94037306,-2.5922899,2.7783489,-0.27961046,0.31778264,0.90599799,0
-2.0387752,-3.5570076,-1.1374762,0.27961046,-0.31778264,-0.90599799,0
4.3443918,0.86775851,1.911927,0.90826303,0.39345673,0.14230293,0
-3.0737543,-2.971241,1.8615468,-0.27961046,0.31778264,0.90599799,0
-0.16764784,2.6386509,0.5771991,-0.27961046,0.31778264,0.90599799,0
2.6889088,4.9611902,0.1910305,-0.31124955,0.86267382,-0.39864475,0
-1.1214209,2.0121224,-2.6978707,0.27961046,-0.31778264,-0.90599799,0
4.9336777,-0.65532184,0.66625619,0.90826303,0.39345673,0.14230293,0
3.9774456,-1.7854475,1.7853727,0.31124955,-0.86267382,0.39864475,0
-2.5200329,2.2033887,-1.6042351,-0.31124955,0.86267382,-0.39864475,0
4.6568346,-0.61998993,2.6486218,0.90826303,0.39345673,0.14230293,0
-0.94790936,-3.9142604,0.56179142,0.31124955,-0.86267382,0.39864475,0
3.3356831,4.1228337,-0.69823647,0.90826303,0.39345673,0.14230293,0
-4.7600427,-0.35694242,-0.40966606,-0.90826303,-0.39345673,-0.14230293,0
-4.6013184,0.25995815,-2.7831724,-0.90826303,-0.39345673,-0.14230293,0
-3.1142178,-4.7503304,0.60796833,-0.90826303,-0.39345673,-0.14230293,0
-3.9532089,-1.6445615,-1.8148403,-0.90826303,-0.39345673,-0.14230293,0
4.5346947,0.77297974,0.58274913,0.90826303,0.39345673,0.14230293,0
-3.1015291,-3.977819,-0.6821456,-0.90826303,-0.39345673,-0.14230293,0
2.812011,-2.7974753,0.53540456,0.31124955,-0.86267382,0.39864475,0
5.0291171,-0.51951861,1.1323314,0.90826303,0.39345673,0.14230293,0
-3.9428039,-1.2691633,-2.3802218,0.27961046,-0.31778264,-0.90599799,0
-3.2387137,0.21111435,-2.7117724,0.27961046,-0.31778264,-0.90599799,0
0.76895511,1.905232,1.2210705,-0.27961046,0.31778264,0.90599799,0
-5.0175228,1.0160557,-1.6587703,-0.90826303,-0.39345673,-0.14230293,0
2.0110495,-2.8342919,1.2648777,0.31124955,-0.86267382,0.39864475,0
1.342037,-3.4512677,0.022006154,0.31124955,-0.86267382,0.39864475,0
-3.754112,-2.823791,1.4775219,-0.27961046,0.31778264,0.90599799,0
2.2262266,4.0176744,-1.942035,-0.31124955,0.86267382,-0.39864475,0
3.9799976,1.511126,0.7070241,0.90826303,0.39345673,0.14230293,0
1.9068099,-1.0493336,2.5946174,-0.27961046,0.31778264,0.90599799,0
2.878958,0.0546121,2.7242837,-0.27961046,0.31778264,0.90599799,0
-2.3249974,-2.2027853,1.6496837,-0.27961046,0.31778264,0.90599799,0
3.7583022,2.6681025,0.049291611,0.90826303,0.39345673,0.14230293,0
3.7740269,1.5612683,2.0961008,-0.27961046,0.31778264,0.90599799,0
0.48673487,3.246434,-2.5855803,-0.31124955,0.86267382,-0.39864475,0
2.7845037,4.6182342,-0.70172691,-0.31124955,0.86267382,-0.39864475,0
-3.0910125,-4.2212996,-0.33371592,-0.90826303,-0.39345673,-0.14230293,0
4.7142773,0.41507435,0.44850492,0.90826303,0.39345673,0.14230293,0
-4.5926471,1.6705587,-0.3270967,-0.27961046,0.31778264,0.90599799,0
-2.8640544,-4.2673669,-1.175252,-0.90826303,-0.39345673,-0.14230293,0
-3.0315337,-2.8425262,1.6911147,-0.27961046,0.31778264,0.90599799,0
0.66550136,3.4866765,-1.7105472,-0.31124955,0.86267382,-0.39864475,0
-0.92455727,0.61580241,-2.3114185,0.27961046,-0.31778264,-0.90599799,0
2.8734031,-2.8133788,0.39996088,0.31124955,-0.86267382,0.39864475,0
4.0431204,0.91481757,2.7112565,-0.27961046,0.31778264,0.90599799,0
4.9516883,-0.72103751,1.2193367,0.90826303,0.39345673,0.14230293,0
3.967644,2.369772,-1.3313036,0.90826303,0.39345673,0.14230293,0
0.10091448,-4.0427141,0.23798943,0.31124955,-0.86267382,0.39864475,0
4.9000959,-0.48090407,3.0639482,0.90826303,0.39345673,0.14230293,0
1.1239197,3.5927889,-2.2023327,-0.31124955,0.86267382,-0.39864475,0
3.7016528,-1.9544812,1.8591255,0.31124955,-0.86267382,0.39864475,0
0.69032407,3.4766066,-1.402226,-0.31124955,0.86267382,-0.39864475,0
-1.0833158,-1.2265322,1.753504,-0.27961046,0.31778264,0.90599799,0
4.5296021,-0.11489587,2.8627224,0.90826303,0.39345673,0.14230293,0
-2.4137118,2.2144694,0.21300694,-0.27961046,0.31778264,0.90599799,0
-2.3927379,-0.48362041,-2.0294738,0.27961046,-0.31778264,-0.90599799,0
-2.9507492,-4.5205913,0.56428146,-0.90826303,-0.39345673,-0.14230293,0
0.26537216,-1.6502827,2.4339404,-0.27961046,0.31778264,0.90599799,0
2.332942,4.2546053,-1.7174056,-0.31124955,0.86267382,-0.39864475,0
3.5414891,3.6340227,-1.6620655,0.90826303,0.39345673,0.14230293,0
2.5447068,-2.9099123,0.87221617,0.31124955,-0.86267382,0.39864475,0
3.8879352,2.6042168,-0.29545403,0.90826303,0.39345673,0.14230293,0
0.23173237,-3.1270814,1.851252,0.31124955,-0.86267382,0.39864475,0
0.80874157,-3.2841311,0.95120227,0.31124955,-0.86267382,0.39864475,0
4.1669121,2.0712953,-0.93030882,0.90826303,0.39345673,0.14230293,0
-3.220582,1.2091889,-3.2595067,0.27961046,-0.31778264,-0.90599799,0
-1.1602099,-0.83883655,1.4428005,-0.27961046,0.31778264,0.90599799,0
-3.1396718,1.7478753,-2.6533575,-0.31124955,0.86267382,-0.39864475,0
-0.87970352,-4.3416195,0.043612957,0.31124955,-0.86267382,0.39864475,0
-4.0014634,-1.7643957,-0.42709184,-0.90826303,-0.39345673,-0.14230293,0
2.4130967,2.6771808,-1.7366712,0.27961046,-0.31778264,-0.90599799,0
-1.735756,2.0199561,-2.887835,0.27961046,-0.31778264,-0.90599799,0
-4.1223288,-0.82809615,0.51969266,-0.27961046,0.31778264,0.90599799,0
4.7636423,-0.25580764,2.2445917,0.90826303,0.39345673,0.14230293,0
4.337966,0.89303595,2.4280005,0.90826303,0.39345673,0.14230293,0
3.1080961,4.5382314,-1.6009641,-0.31124955,0.86267382,-0.39864475,0
-2.1034112,-0.65853667,1.1055986,-0.27961046,0.31778264,0.90599799,0
-2.0968759,-3.433485,2.2955456,-0.27961046,0.31778264,0.90599799,0
3.9745755,2.4368446,-1.0809426,0.90826303,0.39345673,0.14230293,0
4.1825819,0.21877488,2.8577704,-0.27961046,0.31778264,0.90599799,0
-2.8667035,-4.8252854,-0.086071968,-0.90826303,-0.39345673,-0.14230293,0
-3.7929029,-0.97903502,-2.5767374,0.27961046,-0.31778264,-0.90599799,0
-4.4246674,-1.0422974,-1.678194,-0.90826303,-0.39345673,-0.14230293,0
3.3667588,4.1870966,-0.12145424,0.90826303,0.39345673,0.14230293,0
4.5219841,0.8490262,-0.042777538,0.90826303,0.39345673,0.14230293,0
-3.5771177,-3.2486942,0.48227596,-0.90826303,-0.39345673,-0.14230293,0
-4.7759151,0.84727788,-3.1437354,-0.90826303,-0.39345673,-0.14230293,0
5.3070211,-0.46067166,0.38382339,0.90826303,0.39345673,0.14230293,0
-2.1944165,-3.188767,-1.0747335,0.27961046,-0.31778264,-0.90599799,0
-3.1948586,-3.9900622,1.2052441,-0.90826303,-0.39345673,-0.14230293,0
1.022537,4.0501328,-0.77565002,-0.31124955,0.86267382,-0.39864475,0
4.8613486,-0.63072085,1.2875025,0.90826303,0.39345673,0.14230293,0
3.5850153,0.37950405,2.6870878,-0.27961046,0.31778264,0.90599799,0
3.0182562,3.6983061,-1.8669033,0.27961046,-0.31778264,-0.90599799,0
-4.8381491,0.59467173,0.13778353,-0.27961046,0.31778264,0.90599799,0
3.3028407,3.5126829,1.2967134,-0.27961046,0.31778264,0.90599799,0
3.7308803,-2.4227543,0.64804202,0.31124955,-0.86267382,0.39864475,0
0.51021266,-1.7756103,-0.79609805,0.27961046,-0.31778264,-0.90599799,0
2.2109091,3.7571592,-2.1418002,-0.31124955,0.86267382,-0.39864475,0
-5.2748766,0.9851011,-1.1853752,-0.90826303,-0.39345673,-0.14230293,0
0.98550743,0.89555049,-1.7693762,0.27961046,-0.31778264,-0.90599799,0
-1.7111908,2.6844125,-1.9483789,-0.31124955,0.86267382,-0.39864475,0
4.509305,0.023756653,2.6354127,0.90826303,0.39345673,0.14230293,0
-4.9653282,0.05646348,-1.3671038,-0.90826303,-0.39345673,-0.14230293,0
-3.6146157,-3.2517595,1.2552962,-0.90826303,-0.39345673,-0.14230293,0
-2.0713315,-4.0260181,1.3914313,0.31124955,-0.86267382,0.39864475,0
3.541676,3.6084566,-0.26430702,0.90826303,0.39345673,0.14230293,0
3.5736094,2.8311257,-0.28637218,0.90826303,0.39345673,0.14230293,0
-2.8390822,1.9003246,-2.4810236,-0.31124955,0.86267382,-0.39864475,0
4.4306378,0.44405776,2.8925984,0.90826303,0.39345673,0.14230293,0
-2.2839015,-4.7806807,0.24173689,0.31124955,-0.86267382,0.39864475,0
-2.9024258,-2.3095856,-1.78478,0.27961046,-0.31778264,-0.90599799,0
1.7553878,2.9063058,-2.2399874,0.27961046,-0.31778264,-0.90599799,0
-1.5138049,-4.5792527,0.14185238,0.31124955,-0.86267382,0.39864475,0
0.89677024,3.3368068,-1.8947914,-0.31124955,0.86267382,-0.39864475,0
0.58429098,-2.7444873,-0.44740307,0.27961046,-0.31778264,-0.90599799,0
3.7826076,-0.71900368,-0.30342531,0.27961046,-0.31778264,-0.90599799,0
1.344269,-2.8415756,1.966637,0.31124955,-0.86267382,0.39864475,0
-3.8791597,1.3075931,-3.0222085,-0.31124955,0.86267382,-0.39864475,0
-2.9316401,0.53582263,0.70470774,-0.27961046,0.31778264,0.90599799,0
0.23404455,-1.3422555,2.1960249,-0.27961046,0.31778264,0.90599799,0
-0.9316237,3.4221816,0.091758251,-0.27961046,0.31778264,0.90599799,0
-0.63999939,2.8679035,-2.2127564,-0.31124955,0.86267382,-0.39864475,0
-3.4866238,-4.0299702,1.9108181,-0.90826303,-0.39345673,-0.14230293,0
2.6774554,0.9367137,2.1025124,-0.27961046,0.31778264,0.90599799,0
4.0820475,2.1397552,-0.71957088,0.90826303,0.39345673,0.14230293,0
-2.2060843,2.8998284,-0.30516267,-0.31124955,0.86267382,-0.39864475,0
1.809459,4.4751549,-0.26808834,-0.31124955,0.86267382,-0.39864475,0
-1.0071787,1.6968596,0.94720727,-0.27961046,0.31778264,0.90599799,0
-1.6595888,1.7320764,0.45824862,-0.27961046,0.31778264,0.90599799,0
-1.3677251,2.6900382,-2.15187,-0.31124955,0.86267382,-0.39864475,0
4.2223325,0.89328849,2.2870054,0.90826303,0.39345673,0.14230293,0
2.8769875,-1.1611753,2.8859782,-0.27961046,0.31778264,0.90599799,0
2.7712622,-2.5072646,1.6918057,0.31124955,-0.86267382,0.39864475,0
5.4137588,-1.5404408,0.96169913,0.31124955,-0.86267382,0.39864475,0
-3.7233217,-2.5243831,-0.16930199,-0.90826303,-0.39345673,-0.14230293,0
3.937943,1.813911,0.62312961,0.90826303,0.39345673,0.14230293,0
-2.5147521,-2.3757756,-1.6410644,0.27961046,-0.31778264,-0.90599799,0
3.0735316,4.4490175,0.30702353,0.90826303,0.39345673,0.14230293,0
-2.8921862,-4.5378008,0.42716742,-0.90826303,-0.39345673,-0.14230293,0
-4.3093333,-1.3852855,-0.68747091,-0.90826303,-0.39345673,-0.14230293,0
4.0313134,-2.2039475,0.62049168,0.31124955,-0.86267382,0.39864475,0
4.1947899,-0.98701209,3.4301963,0.31124955,-0.86267382,0.39864475,0
2.1229625,-0.82586455,-0.86494839,0.27961046,-0.31778264,-0.90599799,0
1.0491884,3.3470974,-1.9280522,-0.31124955,0.86267382,-0.39864475,0
-0.35086989,-3.300586,1.7026567,0.31124955,-0.86267382,0.39864475,0
0.016357183,-2.9443269,2.3734457,0.31124955,-0.86267382,0.39864475,0
-1.996068,-3.889348,-0.85870457,0.27961046,-0.31778264,-0.90599799,0
2.3767271,4.1244569,-1.2921243,-0.31124955,0.86267382,-0.39864475,0
1.340497,-2.990098,1.158226,0.31124955,-0.86267382,0.39864475,0
1.8112375,-2.5276146,2.0165122,0.31124955,-0.86267382,0.39864475,0
3.1746264,3.6128876,1.1279049,0.90826303,0.39345673,0.14230293,0
-3.1085482,2.010648,-1.6795908,-0.31124955,0.86267382,-0.39864475,0
-2.3188424,2.2682304,-1.6020017,-0.31124955,0.86267382,-0.39864475,0
3.119698,4.3325863,0.37600374,0.90826303,0.39345673,0.14230293,0
-2.644757,-3.8028865,-1.1081896,0.27961046,-0.31778264,-0.90599799,0
3.0213504,1.6237534,2.1676061,-0.27961046,0.31778264,0.90599799,0
-1.451262,-3.8918009,-0.8170712,0.27961046,-0.31778264,-0.90599799,0
3.031743,4.3786569,-1.5049891,-0.31124955,0.86267382,-0.39864475,0
-0.73850727,3.2809267,-1.100626,-0.31124955,0.86267382,-0.39864475,0
-4.6831708,0.22700688,-2.7771044,-0.90826303,-0.39345673,-0.14230293,0
-4.5154295,-0.50253439,-2.5443683,-0.90826303,-0.39345673,-0.14230293,0
4.9599743,0.1114285,0.030050755,0.90826303,0.39345673,0.14230293,0
-0.28334773,-2.2080877,-0.92356026,0.27961046,-0.31778264,-0.90599799,0
-0.39766073,-0.58925629,1.8765279,-0.27961046,0.31778264,0.90599799,0
-1.2612267,-3.8009939,1.1169603,0.31124955,-0.86267382,0.39864475,0
0.095588446,3.4389753,-1.5469338,-0.31124955,0.86267382,-0.39864475,0
-0.070949554,2.9439507,-2.4358139,-0.31124955,0.86267382,-0.39864475,0
2.6593471,-2.5137999,1.1928648,0.31124955,-0.86267382,0.39864475,0
2.1993258,2.4423113,-1.7120333,0.27961046,-0.31778264,-0.90599799,0
3.5719619,2.5648475,0.5753994,0.90826303,0.39345673,0.14230293,0
2.8065839,-2.1096458,0.055921391,0.27961046,-0.31778264,-0.90599799,0
4.248517,0.79084504,2.6354301,0.90826303,0.39345673,0.14230293,0
-2.1984475,0.52640027,-2.5730932,0.27961046,-0.31778264,-0.90599799,0
-2.6217458,-4.0123029,1.9715767,0.31124955,-0.86267382,0.39864475,0
0.61301494,2.7230818,0.86332512,-0.27961046,0.31778264,0.90599799,0
3.2717061,3.2752223,1.2076349,0.90826303,0.39345673,0.14230293,0
-2.375289,-4.7062616,-0.83101273,0.27961046,-0.31778264,-0.90599799,0
0.050832272,-3.5261159,1.1672204,0.31124955,-0.86267382,0.39864475,0
-4.4827471,-1.3609347,0.12434316,-0.90826303,-0.39345673,-0.14230293,0
3.1051595,4.049479,-0.61156797,0.90826303,0.39345673,0.14230293,0
-0.017632723,-3.6531711,1.249135,0.31124955,-0.86267382,0.39864475,0
2.9864507,4.649611,-1.3055472,-0.31124955,0.86267382,-0.39864475,0
-1.6820383,-4.5940003,0.48622036,0.31124955,-0.86267382,0.39864475,0
1.7000782,-3.2627625,0.89000297,0.31124955,-0.86267382,0.39864475,0
-1.4279487,1.6149201,0.48667371,-0.27961046,0.31778264,0.90599799,0
-3.3938513,-2.8604877,-1.0514979,-0.90826303,-0.39345673,-0.14230293,0
1.4612707,-1.4582143,-0.8929522,0.27961046,-0.31778264,-0.90599799,0
4.0702963,2.4909325,-0.029876709,0.90826303,0.39345673,0.14230293,0
0.0064988136,3.6030264,0.58246803,-0.27961046,0.31778264,0.90599799,0
3.3986733,2.8932257,0.93276596,0.90826303,0.39345673,0.14230293,0
1.6879907,3.6282825,-2.1835434,-0.31124955,0.86267382,-0.39864475,0
3.9106576,2.2145896,1.8882051,0.90826303,0.39345673,0.14230293,0
-3.7008235,-2.8392723,0.13930511,-0.90826303,-0.39345673,-0.14230293,0
3.0315566,-2.7159245,0.23041156,0.31124955,-0.86267382,0.39864475,0
4.2503738,0.41285178,2.579515,0.90826303,0.39345673,0.14230293,0
2.8698483,4.6319494,0.20303345,0.90826303,0.39345673,0.14230293,0
3.81827,-1.2814494,3.3247585,0.31124955,-0.86267382,0.39864475,0
-0.30584502,-4.0594845,-0.11442161,0.31124955,-0.86267382,0.39864475,0
-5.4346495,1.6487184,-0.71417248,-0.90826303,-0.39345673,-0.14230293,0
-0.47287345,3.3735528,-1.3237021,-0.31124955,0.86267382,-0.39864475,0
-3.5122049,-2.748342,-1.3887105,-0.90826303,-0.39345673,-0.14230293,0
5.0046849,-0.40172434,1.2084932,0.90826303,0.39345673,0.14230293,0
-4.3494711,-1.3943048,-1.1481991,-0.90826303,-0.39345673,-0.14230293,0
-2.339828,-4.1140151,1.2819138,0.31124955,-0.86267382,0.39864475,0
-2.9079916,-4.4852123,-0.075403214,-0.90826303,-0.39345673,-0.14230293,0
-3.8670144,-2.8514619,0.49951077,-0.90826303,-0.39345673,-0.14230293,0
-3.0612102,-0.90953922,1.0216665,-0.27961046,0.31778264,0.90599799,0
-5.1644969,0.89077282,-0.56125927,-0.90826303,-0.39345673,-0.14230293,0
3.569849,4.0639515,-1.8083372,0.27961046,-0.31778264,-0.90599799,0
5.4233284,-1.3069217,1.6581562,0.90826303,0.39345673,0.14230293,0
1.4987441,-1.5388932,-0.83766711,0.27961046,-0.31778264,-0.90599799,0
-0.57948637,3.0010805,-1.854568,-0.31124955,0.86267382,-0.39864475,0
-4.9104929,-0.13986158,-0.66575789,-0.90826303,-0.39345673,-0.14230293,0
-3.9163659,-2.7080314,0.499722,-0.90826303,-0.39345673,-0.14230293,0
-0.9546982,-1.8890127,1.9036038,-0.27961046,0.31778264,0.90599799,0
3.8959613,1.9664979,0.83700991,0.90826303,0.39345673,0.14230293,0
-2.7401047,-3.60288,-1.1203284,0.27961046,-0.31778264,-0.90599799,0
-1.0335419,2.8745794,-1.4302797,-0.31124955,0.86267382,-0.39864475,0
-2.1732345,-3.5191267,2.4019513,-0.27961046,0.31778264,0.90599799,0
-0.50435972,2.9250798,-2.5404263,-0.31124955,0.86267382,-0.39864475,0
2.2613339,-0.20295471,2.3225036,-0.27961046,0.31778264,0.90599799,0
3.6534042,0.79785204,2.6132014,-0.27961046,0.31778264,0.90599799,0
2.6609013,-2.0542963,-0.19923097,0.27961046,-0.31778264,-0.90599799,0
0.47849739,-0.87924409,2.3127522,-0.27961046,0.31778264,0.90599799,0
