-0.58098602,-1.962114,2.3538575,0.21673578,0.14148599,0.96592307,0
-4.6503863,0.78898716,2.916693,-0.87321526,0.47049096,0.12701744,0
2.9753351,2.4446173,1.1356649,0.21673578,0.14148599,0.96592307,0
-1.0335507,1.4567206,2.0462358,0.21673578,0.14148599,0.96592307,0
-3.8384984,-1.6611407,1.5304139,-0.43648696,-0.87098795,0.22551996,0
6.192471,0.42909527,0.39257193,0.87321526,-0.47049096,-0.12701744,0
-2.2735193,4.9084363,-0.67084098,0.43648696,0.87098795,-0.22551996,0
5.2934041,-0.78788662,-0.75343704,0.87321526,-0.47049096,-0.12701744,0
-0.58205605,3.8873217,-2.0823772,0.43648696,0.87098795,-0.22551996,0
-1.9158611,0.74618483,-1.5919425,-0.21673578,-0.14148599,-0.96592307,0
-0.470613,3.5521269,-2.3001027,0.43648696,0.87098795,-0.22551996,0
-0.68376654,1.7128602,1.781162,0.21673578,0.14148599,0.96592307,0
-0.54158211,-3.4859271,1.5932927,-0.43648696,-0.87098795,0.22551996,0
4.4794588,-1.4507568,-2.0712063,0.87321526,-0.47049096,-0.12701744,0
2.1094267,-0.58286905,1.5579377,0.21673578,0.14148599,0.96592307,0
2.4183793,-5.5889711,-0.75390577,0.87321526,-0.47049096,-0.12701744,0
2.1270711,-1.3695889,1.7252442,0.21673578,0.14148599,0.96592307,0
4.1828432,-2.5430517,1.4774756,0.21673578,0.14148599,0.96592307,0
3.7690043,-2.9159484,-2.1878335,0.87321526,-0.47049096,-0.12701744,0
4.6102486,-1.6387712,-2.1340785,0.87321526,-0.47049096,-0.12701744,0
-0.11728191,-4.0942593,-0.76650387,-0.43648696,-0.87098795,0.22551996,0
-4.0228133,3.3265817,0.82856393,-0.87321526,0.47049096,0.12701744,0
-3.9511466,3.5150838,0.74798632,-0.87321526,0.47049096,0.12701744,0
0.82289934,3.1243124,-1.4324625,0.43648696,0.87098795,-0.22551996,0
1.0727205,-4.2236357,1.3198359,-0.43648696,-0.87098795,0.22551996,0
3.4406872,-4.003459,-0.80454302,0.87321526,-0.47049096,-0.12701744,0
5.0903468,-1.7212973,0.8930192,0.87321526,-0.47049096,-0.12701744,0
-5.2364283,0.4097023,1.0227327,-0.87321526,0.47049096,0.12701744,0
-0.063529789,1.4291852,1.709403,0.21673578,0.14148599,0.96592307,0
4.5107889,-2.2945962,-1.2835498,0.87321526,-0.47049096,-0.12701744,0
-4.2560625,-1.3158151,2.442389,-0.43648696,-0.87098795,0.22551996,0
-0.44086719,-3.7150164,-0.48645622,-0.43648696,-0.87098795,0.22551996,0
-6.1581163,-0.47722197,-0.14839458,-0.87321526,0.47049096,0.12701744,0
1.3934999,-4.4207973,1.0989634,-0.43648696,-0.87098795,0.22551996,0
-2.7242165,1.5878932,-1.701653,-0.21673578,-0.14148599,-0.96592307,0
0.37734604,3.9160604,0.22080131,0.43648696,0.87098795,-0.22551996,0
-4.3029814,1.5134211,-1.2979527,-0.21673578,-0.14148599,-0.96592307,0
-5.4578705,0.51322746,-0.9573698,-0.21673578,-0.14148599,-0.96592307,0
5.4355283,-0.74822855,0.97688389,0.87321526,-0.47049096,-0.12701744,0
-5.033977,-0.095148385,3.2170465,0.21673578,0.14148599,0.96592307,0
3.9383321,1.2554939,-2.6158009,0.43648696,0.87098795,-0.22551996,0
5.701129,1.3435011,0.480093,0.43648696,0.87098795,-0.22551996,0
2.6171706,2.8390064,0.39893723,0.43648696,0.87098795,-0.22551996,0
5.0323744,1.2117226,0.67409325,0.21673578,0.14148599,0.96592307,0
-4.1746492,-0.62180424,-1.1991782,-0.21673578,-0.14148599,-0.96592307,0
-1.2308419,-3.6233368,-0.16363025,-0.43648696,-0.87098795,0.22551996,0
5.0668621,-1.3691828,1.0854931,0.87321526,-0.47049096,-0.12701744,0
1.6257865,2.6901259,-1.9256065,0.43648696,0.87098795,-0.22551996,0
-1.8122022,-3.0414426,0.18304515,-0.43648696,-0.87098795,0.22551996,0
-3.8944297,3.3585234,0.85735536,-0.87321526,0.47049096,0.12701744,0
-2.7316322,4.9468155,-0.89451003,0.43648696,0.87098795,-0.22551996,0
3.7443755,-3.7061288,-1.2814498,0.87321526,-0.47049096,-0.12701744,0
-3.9846396,3.7088268,-0.49100161,-0.87321526,0.47049096,0.12701744,0
2.5903573,0.85306311,-2.7250607,-0.21673578,-0.14148599,-0.96592307,0
-3.2755911,-1.629588,2.7447422,-0.43648696,-0.87098795,0.22551996,0
-3.366698,-1.7306504,1.589165,-0.43648696,-0.87098795,0.22551996,0
0.59205008,3.6965616,-0.46749574,0.43648696,0.87098795,-0.22551996,0
4.7908945,0.76861554,-3.0749896,0.43648696,0.87098795,-0.22551996,0
3.37994,-3.6680729,-1.9489367,0.87321526,-0.47049096,-0.12701744,0
-2.9865222,-2.3950558,1.2534432,-0.43648696,-0.87098795,0.22551996,0
1.8260438,1.9465946,-2.9037938,-0.21673578,-0.14148599,-0.96592307,0
0.28112268,1.9212285,-2.4348981,-0.21673578,-0.14148599,-0.96592307,0
5.2646885,1.3828878,-0.163064,0.43648696,0.87098795,-0.22551996,0
-5.3330412,0.0071448088,3.0382547,-0.87321526,0.47049096,0.12701744,0
2.8992455,-5.2762661,-1.2704308,0.87321526,-0.47049096,-0.12701744,0
4.5902581,0.4524312,0.84374285,0.21673578,0.14148599,0.96592307,0
-3.4478304,4.5685453,0.054758787,-0.87321526,0.47049096,0.12701744,0
6.0020938,0.33942938,-0.49709415,0.87321526,-0.47049096,-0.12701744,0
2.2867398,-3.9046764,-2.1712549,-0.21673578,-0.14148599,-0.96592307,0
-1.5100033,2.95924,-2.0170228,-0.21673578,-0.14148599,-0.96592307,0
-3.8673885,3.4698436,1.3182809,-0.87321526,0.47049096,0.12701744,0
4.1303196,0.10160381,-2.9763751,-0.21673578,-0.14148599,-0.96592307,0
-5.0697918,-1.4001248,-0.36129618,-0.43648696,-0.87098795,0.22551996,0
5.1500196,1.1694286,-1.315433,0.43648696,0.87098795,-0.22551996,0
-0.27399158,-3.7393465,1.2604594,-0.43648696,-0.87098795,0.22551996,0
-5.2356658,0.80601716,1.3554597,-0.87321526,0.47049096,0.12701744,0
-4.3914886,1.6982365,-1.5353487,-0.21673578,-0.14148599,-0.96592307,0
-2.4779375,-2.8296735,0.65928483,-0.43648696,-0.87098795,0.22551996,0
-0.63813376,4.5345888,0.63352382,0.43648696,0.87098795,-0.22551996,0
-3.671447,3.8751814,1.2884495,-0.87321526,0.47049096,0.12701744,0
-3.5976872,-1.8049223,2.1594541,-0.43648696,-0.87098795,0.22551996,0
-4.4946661,-1.8279524,-0.10750818,-0.43648696,-0.87098795,0.22551996,0
0.79421663,-4.3113494,0.7683965,-0.43648696,-0.87098795,0.22551996,0
-2.101465,-2.4770651,2.3615546,-0.43648696,-0.87098795,0.22551996,0
-6.0616345,-0.77101517,-0.15670347,-0.87321526,0.47049096,0.12701744,0
-3.2203159,4.3343315,1.9740644,0.21673578,0.14148599,0.96592307,0
2.1589842,-3.1272149,-2.1958113,-0.21673578,-0.14148599,-0.96592307,0
4.3772235,-1.6930547,-2.3011472,0.87321526,-0.47049096,-0.12701744,0
-0.0033864975,3.2843451,-2.239121,0.43648696,0.87098795,-0.22551996,0
-1.8734715,4.9759479,0.32182348,0.43648696,0.87098795,-0.22551996,0
5.4330974,1.1846461,0.29596567,0.43648696,0.87098795,-0.22551996,0
-5.2699366,-0.1896075,2.5846686,-0.87321526,0.47049096,0.12701744,0
-0.72736186,-1.5254979,-1.833171,-0.21673578,-0.14148599,-0.96592307,0
-3.8815725,3.1620278,0.62905359,-0.87321526,0.47049096,0.12701744,0
2.3830776,-4.418088,-1.9767797,-0.21673578,-0.14148599,-0.96592307,0
-0.0031433105,-4.1904488,-0.0067520216,-0.43648696,-0.87098795,0.22551996,0
-2.7356346,-2.9557877,-0.53568578,-0.43648696,-0.87098795,0.22551996,0
-2.5567584,-1.0859315,-1.3301134,-0.21673578,-0.14148599,-0.96592307,0
5.5878086,0.42771924,-2.8263464,0.87321526,-0.47049096,-0.12701744,0
3.1435626,0.89909387,-3.103024,-0.21673578,-0.14148599,-0.96592307,0
-5.641439,0.16117287,-0.55511189,-0.87321526,0.47049096,0.12701744,0
-5.1171565,0.98881555,0.95578718,-0.87321526,0.47049096,0.12701744,0
4.0300465,-2.5905275,-0.76809502,0.87321526,-0.47049096,-0.12701744,0
3.5003397,-4.9950366,1.6728563,0.87321526,-0.47049096,-0.12701744,0
3.0609753,-1.6921604,-2.5202363,-0.21673578,-0.14148599,-0.96592307,0
-2.3322711,5.3671541,1.2353719,0.43648696,0.87098795,-0.22551996,0
-5.6628208,0.29289031,0.68725014,-0.87321526,0.47049096,0.12701744,0
0.48806798,-0.2212224,1.8027896,0.21673578,0.14148599,0.96592307,0
0.73415744,0.55475247,-2.2058122,-0.21673578,-0.14148599,-0.96592307,0
-4.9754677,1.5616386,0.53445864,-0.87321526,0.47049096,0.12701744,0
-1.4085288,1.4280221,2.0812128,0.21673578,0.14148599,0.96592307,0
4.7616391,1.0463805,-1.8317442,0.43648696,0.87098795,-0.22551996,0
-0.22179627,-3.7899866,-0.18676759,-0.43648696,-0.87098795,0.22551996,0
-3.9620721,2.8461359,1.4771698,-0.87321526,0.47049096,0.12701744,0
4.9072466,1.175565,-1.768178,0.43648696,0.87098795,-0.22551996,0
0.56019163,-3.5548236,-1.6427768,-0.21673578,-0.14148599,-0.96592307,0
-4.9797001,-0.58855748,3.2484961,-0.43648696,-0.87098795,0.22551996,0
4.6194768,-1.8471837,-1.9421914,0.87321526,-0.47049096,-0.12701744,0
-2.7302978,-2.8411608,-0.70485187,-0.43648696,-0.87098795,0.22551996,0
-2.0483813,5.0855823,1.7496229,0.21673578,0.14148599,0.96592307,0
4.3864918,-2.7842059,0.83820868,0.87321526,-0.47049096,-0.12701744,0
-0.24635267,-3.568373,1.4345249,-0.43648696,-0.87098795,0.22551996,0
-1.5788321,-3.4960861,-0.58164871,-0.43648696,-0.87098795,0.22551996,0
1.774852,-4.8793564,0.071157575,-0.43648696,-0.87098795,0.22551996,0
-0.32762456,-3.6132274,-1.2693758,-0.21673578,-0.14148599,-0.96592307,0
2.8359041,2.6217356,0.65366507,0.43648696,0.87098795,-0.22551996,0
0.041648388,3.9366813,-0.025165081,0.43648696,0.87098795,-0.22551996,0
-4.8945675,0.81716973,2.5092463,-0.87321526,0.47049096,0.12701744,0
-3.9195466,3.0261807,2.0265565,-0.87321526,0.47049096,0.12701744,0
0.40200806,3.953167,1.2896613,0.43648696,0.87098795,-0.22551996,0
-1.4682597,-2.4753716,-1.296097,-0.21673578,-0.14148599,-0.96592307,0
1.931221,-4.5239992,2.0285292,-0.43648696,-0.87098795,0.22551996,0
3.844305,1.682283,-2.0745125,0.43648696,0.87098795,-0.22551996,0
3.6175244,-3.7806201,-1.6635563,0.87321526,-0.47049096,-0.12701744,0
3.6458204,-2.6339998,1.6631846,0.21673578,0.14148599,0.96592307,0
-2.6375856,3.1098428,-2.0247548,-0.21673578,-0.14148599,-0.96592307,0
1.6661427,2.66219,-1.6559494,0.43648696,0.87098795,-0.22551996,0
2.9471693,1.005774,1.2471299,0.21673578,0.14148599,0.96592307,0
-1.4648173,-3.356179,-0.65722203,-0.43648696,-0.87098795,0.22551996,0
2.4614434,-3.8894229,2.2255046,0.21673578,0.14148599,0.96592307,0
-2.0887096,4.985445,-0.68400669,0.43648696,0.87098795,-0.22551996,0
1.5998526,2.4458516,-2.6962352,-0.21673578,-0.14148599,-0.96592307,0
3.5346386,-4.4644499,0.01540637,0.87321526,-0.47049096,-0.12701744,0
4.0283375,0.35463285,1.1170251,0.21673578,0.14148599,0.96592307,0
-2.9962285,-1.8281929,2.6313052,-0.43648696,-0.87098795,0.22551996,0
-4.3593273,0.4392533,2.8269174,0.21673578,0.14148599,0.96592307,0
-0.25979471,-3.000962,2.4729381,0.21673578,0.14148599,0.96592307,0
-4.8356771,1.1573665,-1.2613974,-0.21673578,-0.14148599,-0.96592307,0
1.2249582,-1.4456854,2.0140924,0.21673578,0.14148599,0.96592307,0
-2.8684576,-0.80737346,2.7748065,0.21673578,0.14148599,0.96592307,0
-3.9406223,2.2733092,2.6125927,-0.87321526,0.47049096,0.12701744,0
2.2005179,-4.8894906,-1.789986,-0.21673578,-0.14148599,-0.96592307,0
4.1570454,-3.5446548,1.346415,0.87321526,-0.47049096,-0.12701744,0
-0.89336681,4.8015108,1.7224144,0.21673578,0.14148599,0.96592307,0
2.7077236,-1.2374277,1.8015096,0.21673578,0.14148599,0.96592307,0
-5.7012444,0.32708406,-0.32282591,-0.87321526,0.47049096,0.12701744,0
3.5273638,-4.3846478,0.4094677,0.87321526,-0.47049096,-0.12701744,0
5.2830749,-1.1911609,0.83242178,0.87321526,-0.47049096,-0.12701744,0
-3.0525699,4.9235287,-0.70321941,-0.87321526,0.47049096,0.12701744,0
-1.4701455,2.268714,1.9662004,0.21673578,0.14148599,0.96592307,0
-3.6102548,3.5717564,-0.18402481,-0.87321526,0.47049096,0.12701744,0
-3.2292805,2.5153582,-1.706197,-0.21673578,-0.14148599,-0.96592307,0
-0.47906876,4.6097116,1.4809941,0.21673578,0.14148599,0.96592307,0
-2.7406063,5.1109734,-1.9328158,0.43648696,0.87098795,-0.22551996,0
-1.4339025,1.9285805,-2.1011326,-0.21673578,-0.14148599,-0.96592307,0
1.0596154,-4.2690992,-1.6171339,-0.21673578,-0.14148599,-0.96592307,0
5.7814727,-0.0011839867,-0.17387199,0.87321526,-0.47049096,-0.12701744,0
0.8719669,-1.1061378,-1.9488617,-0.21673578,-0.14148599,-0.96592307,0
4.6892495,-2.2424591,0.73939133,0.87321526,-0.47049096,-0.12701744,0
-2.6173701,-2.301456,2.359796,-0.43648696,-0.87098795,0.22551996,0
-2.3018489,5.2718568,-0.39057159,0.43648696,0.87098795,-0.22551996,0
4.1506295,-2.6797824,0.34132099,0.87321526,-0.47049096,-0.12701744,0
-5.7819533,-0.51467609,0.92918968,-0.87321526,0.47049096,0.12701744,0
-4.9576497,-1.6980498,-0.46011209,-0.43648696,-0.87098795,0.22551996,0
3.3177419,-0.4098413,1.3145294,0.21673578,0.14148599,0.96592307,0
-3.3102429,4.057157,0.10852122,-0.87321526,0.47049096,0.12701744,0
3.6589546,-4.1435862,0.14836884,0.87321526,-0.47049096,-0.12701744,0
-5.1695981,0.88957334,-0.49648619,-0.87321526,0.47049096,0.12701744,0
0.4103651,-4.1559267,0.034365237,-0.43648696,-0.87098795,0.22551996,0
3.3423011,-5.0759683,1.1035895,0.87321526,-0.47049096,-0.12701744,0
-3.7762446,3.7859094,-0.46838832,-0.87321526,0.47049096,0.12701744,0
3.643712,2.5643733,0.96318245,0.43648696,0.87098795,-0.22551996,0
-5.1851873,1.3885493,-0.5077095,-0.87321526,0.47049096,0.12701744,0
3.3076534,-0.37772918,1.4797659,0.21673578,0.14148599,0.96592307,0
3.777631,2.0240228,-1.0753331,0.43648696,0.87098795,-0.22551996,0
-5.1280713,1.7065086,-0.9085393,-0.87321526,0.47049096,0.12701744,0
-4.8172297,1.1613454,2.7611086,-0.87321526,0.47049096,0.12701744,0
0.87337142,-0.36828935,-2.0313611,-0.21673578,-0.14148599,-0.96592307,0
-4.7186751,1.3711911,1.2945919,-0.87321526,0.47049096,0.12701744,0
-4.8320403,-1.626338,-0.91527796,-0.21673578,-0.14148599,-0.96592307,0
5.5768795,-0.84409213,0.81308556,0.87321526,-0.47049096,-0.12701744,0
-1.2918134,5.0155983,0.68506324,0.43648696,0.87098795,-0.22551996,0
3.0763922,-4.9384451,-0.94981194,0.87321526,-0.47049096,-0.12701744,0
-1.2477803,4.6126838,-0.82955265,0.43648696,0.87098795,-0.22551996,0
4.620574,-1.7703345,-0.97722816,0.87321526,-0.47049096,-0.12701744,0
-3.874409,-1.2465004,3.0412138,0.21673578,0.14148599,0.96592307,0
-4.5523329,2.1295869,0.35329247,-0.87321526,0.47049096,0.12701744,0
-0.08891803,-0.76314449,-1.8091487,-0.21673578,-0.14148599,-0.96592307,0
-0.41564298,2.0987899,1.8232528,0.21673578,0.14148599,0.96592307,0
-5.4429197,0.094182491,0.40348434,-0.87321526,0.47049096,0.12701744,0
3.0711465,-3.0951514,1.7528956,0.21673578,0.14148599,0.96592307,0
-5.8134737,-1.0616541,-0.62628794,-0.21673578,-0.14148599,-0.96592307,0
2.4706454,-3.2314553,1.9332714,0.21673578,0.14148599,0.96592307,0
3.5504622,1.6051486,1.1082077,0.21673578,0.14148599,0.96592307,0
1.1977487,3.180059,-0.19582856,0.43648696,0.87098795,-0.22551996,0
-0.85716438,-3.6896718,-1.0261619,-0.43648696,-0.87098795,0.22551996,0
-3.0296803,4.4552445,0.79030681,-0.87321526,0.47049096,0.12701744,0
-2.0424404,4.8458147,-1.2162919,0.43648696,0.87098795,-0.22551996,0
0.18411398,-3.4517455,2.4830754,-0.43648696,-0.87098795,0.22551996,0
-1.4386296,2.668211,-2.3124135,-0.21673578,-0.14148599,-0.96592307,0
-2.9831922,4.87183,1.3073239,-0.87321526,0.47049096,0.12701744,0
-4.0546103,-1.1890565,2.2755194,-0.43648696,-0.87098795,0.22551996,0
-4.1361389,2.6093161,-1.4612703,-0.21673578,-0.14148599,-0.96592307,0
-4.2593851,0.026781082,2.9443026,0.21673578,0.14148599,0.96592307,0
-0.28007984,3.983026,-0.79104078,0.43648696,0.87098795,-0.22551996,0
-2.7190685,2.1195254,2.2550786,0.21673578,0.14148599,0.96592307,0
4.4533572,-2.9319367,1.3140059,0.87321526,-0.47049096,-0.12701744,0
3.6567135,-4.1629319,0.60143852,0.87321526,-0.47049096,-0.12701744,0
3.6073041,0.14195001,-2.7432225,-0.21673578,-0.14148599,-0.96592307,0
-5.1243992,-0.95838845,1.5472617,-0.43648696,-0.87098795,0.22551996,0
-3.8318973,3.6001534,0.70549798,-0.87321526,0.47049096,0.12701744,0
1.888752,2.7103436,-2.2452705,0.43648696,0.87098795,-0.22551996,0
-2.6792517,5.5130558,1.5343223,-0.87321526,0.47049096,0.12701744,0
2.5511384,-5.2639184,-0.056272984,-0.43648696,-0.87098795,0.22551996,0
5.4015741,-0.24003458,-1.1975694,0.87321526,-0.47049096,-0.12701744,0
-3.2813966,1.1646314,-1.5201063,-0.21673578,-0.14148599,-0.96592307,0
4.2058411,-2.898962,-1.105931,0.87321526,-0.47049096,-0.12701744,0
2.3753507,-4.5269704,-1.8314745,-0.21673578,-0.14148599,-0.96592307,0
-1.0891504,3.8402708,-2.4309309,-0.21673578,-0.14148599,-0.96592307,0
0.91815972,0.96022654,-2.5961177,-0.21673578,-0.14148599,-0.96592307,0
-0.059609413,-3.3329237,2.4481297,-0.43648696,-0.87098795,0.22551996,0
-5.4785538,0.65990138,0.65678835,-0.87321526,0.47049096,0.12701744,0
4.6810026,-1.9925706,0.33615303,0.87321526,-0.47049096,-0.12701744,0
-5.9386768,-0.46670604,1.6638322,-0.87321526,0.47049096,0.12701744,0
2.874001,-0.32875848,-2.7403164,-0.21673578,-0.14148599,-0.96592307,0
0.38991117,-4.0046005,-1.6147274,-0.21673578,-0.14148599,-0.96592307,0
5.8515625,0.28511596,-1.3847299,0.87321526,-0.47049096,-0.12701744,0
-3.3342028,4.6984062,0.42915392,-0.87321526,0.47049096,0.12701744,0
-4.1476169,0.92148238,3.0630176,0.21673578,0.14148599,0.96592307,0
-3.8209419,2.7531526,1.9243469,-0.87321526,0.47049096,0.12701744,0
4.3350773,1.0026926,-2.6708119,0.43648696,0.87098795,-0.22551996,0
-0.44906998,1.8976775,-2.2132254,-0.21673578,-0.14148599,-0.96592307,0
3.6438501,-4.5554671,1.4351821,0.87321526,-0.47049096,-0.12701744,0
-4.2509508,1.3791468,-1.2370741,-0.21673578,-0.14148599,-0.96592307,0
3.0423658,2.6358979,-0.0071489811,0.43648696,0.87098795,-0.22551996,0
-1.4801812,4.8571749,0.39350057,0.43648696,0.87098795,-0.22551996,0
2.3810549,2.4537873,1.0372883,0.21673578,0.14148599,0.96592307,0
-4.7760797,-1.3036358,0.62066126,-0.43648696,-0.87098795,0.22551996,0
3.0460846,-5.2250051,-0.56802964,0.87321526,-0.47049096,-0.12701744,0
-5.721859,-0.31259346,2.5179315,-0.87321526,0.47049096,0.12701744,0
-2.2575824,-2.4485948,0.86573541,-0.43648696,-0.87098795,0.22551996,0
3.8891616,1.3406239,-2.6514275,0.43648696,0.87098795,-0.22551996,0
-1.0778451,3.9752162,-2.3790123,0.43648696,0.87098795,-0.22551996,0
-4.9526978,-1.2208283,1.2911735,-0.43648696,-0.87098795,0.22551996,0
3.5253606,-3.854264,-0.22444582,0.87321526,-0.47049096,-0.12701744,0
0.56051445,-4.5318418,-0.16024256,-0.43648696,-0.87098795,0.22551996,0
2.6590116,2.5910749,-0.83648992,0.43648696,0.87098795,-0.22551996,0
1.8563375,-3.3063335,-2.1412997,-0.21673578,-0.14148599,-0.96592307,0
-2.0072644,2.7320683,2.2947314,0.21673578,0.14148599,0.96592307,0
4.3081102,-2.2822723,-1.4232957,0.87321526,-0.47049096,-0.12701744,0
-1.0899833,3.7002258,1.6049805,0.21673578,0.14148599,0.96592307,0
-1.689708,3.0576096,-2.1938789,-0.21673578,-0.14148599,-0.96592307,0
-2.4466207,-1.9433125,2.6567588,-0.43648696,-0.87098795,0.22551996,0
3.1974301,-1.4650996,1.6473224,0.21673578,0.14148599,0.96592307,0
4.8739996,-1.4939027,-0.43834019,0.87321526,-0.47049096,-0.12701744,0
-4.4307337,2.2415345,1.3429127,-0.87321526,0.47049096,0.12701744,0
-4.9278364,-1.4945219,-0.13618946,-0.43648696,-0.87098795,0.22551996,0
4.3727598,1.492569,0.74423504,0.21673578,0.14148599,0.96592307,0
3.7435291,-3.2069695,1.5039356,0.21673578,0.14148599,0.96592307,0
2.1125255,-4.6010532,1.9361978,-0.43648696,-0.87098795,0.22551996,0
2.3384199,-1.2559018,1.9124395,0.21673578,0.14148599,0.96592307,0
4.3666487,1.6529775,-1.1022172,0.43648696,0.87098795,-0.22551996,0
5.6703386,0.4362725,-2.031611,0.87321526,-0.47049096,-0.12701744,0
1.4090002,-4.481339,0.44033587,-0.43648696,-0.87098795,0.22551996,0
4.8262486,-0.68416262,1.2555537,0.21673578,0.14148599,0.96592307,0
-5.4903364,0.010865211,1.8028793,-0.87321526,0.47049096,0.12701744,0
5.5911803,1.4313185,0.41367388,0.43648696,0.87098795,-0.22551996,0
-4.8541994,-1.1463194,2.2473292,-0.43648696,-0.87098795,0.22551996,0
-4.9742842,1.4992747,0.1890521,-0.87321526,0.47049096,0.12701744,0
-5.835557,0.3108182,-0.52709341,-0.87321526,0.47049096,0.12701744,0
-3.9741502,0.5667758,-1.1735549,-0.21673578,-0.14148599,-0.96592307,0
0.19610071,-1.6778946,2.0866041,0.21673578,0.14148599,0.96592307,0
0.79985929,-0.60659087,1.9288821,0.21673578,0.14148599,0.96592307,0
3.7698655,-3.6321387,-0.50934291,0.87321526,-0.47049096,-0.12701744,0
4.8911657,1.5506823,0.18075657,0.43648696,0.87098795,-0.22551996,0
-0.39534414,1.0998445,2.1762662,0.21673578,0.14148599,0.96592307,0
-6.0178442,-0.74291849,-0.28952408,-0.87321526,0.47049096,0.12701744,0
-0.97568607,3.5110948,-2.1878715,-0.21673578,-0.14148599,-0.96592307,0
-4.4916677,2.1637614,1.8884423,-0.87321526,0.47049096,0.12701744,0
-2.7438362,5.1454854,1.2035918,-0.87321526,0.47049096,0.12701744,0
-2.1555591,4.7224255,-0.93504751,0.43648696,0.87098795,-0.22551996,0
4.2060513,-2.7312489,0.81377554,0.87321526,-0.47049096,-0.12701744,0
-4.9699264,-0.65574646,2.756336,-0.43648696,-0.87098795,0.22551996,0
-0.83160567,-3.2356224,0.63492036,-0.43648696,-0.87098795,0.22551996,0
-4.1830072,3.0749819,-1.5817096,-0.21673578,-0.14148599,-0.96592307,0
2.89992,-5.0919271,0.79770613,-0.43648696,-0.87098795,0.22551996,0
2.866967,2.3564601,-0.47199178,0.43648696,0.87098795,-0.22551996,0
4.8455415,-1.0492454,-2.290343,0.87321526,-0.47049096,-0.12701744,0
-2.4386168,5.2718487,0.61545968,0.43648696,0.87098795,-0.22551996,0
3.7700489,-4.0001969,-0.087394238,0.87321526,-0.47049096,-0.12701744,0
3.8030624,-4.0571651,0.78620219,0.87321526,-0.47049096,-0.12701744,0
-5.2660823,0.32774913,2.2722278,-0.87321526,0.47049096,0.12701744,0
-3.0419316,4.3503799,1.6011121,-0.87321526,0.47049096,0.12701744,0
6.1026044,0.71975136,0.50570297,0.87321526,-0.47049096,-0.12701744,0
-4.5781031,2.4857292,0.2568531,-0.87321526,0.47049096,0.12701744,0
-4.2421474,-1.6980125,1.4486072,-0.43648696,-0.87098795,0.22551996,0
-2.7213984,5.2466426,0.18790364,-0.87321526,0.47049096,0.12701744,0
5.1874318,-0.9117198,-1.7955828,0.87321526,-0.47049096,-0.12701744,0
2.7914691,-2.6988144,-2.1034222,-0.21673578,-0.14148599,-0.96592307,0
2.2554841,2.7168264,-0.43624091,0.43648696,0.87098795,-0.22551996,0
5.2309999,1.5503743,0.46220827,0.43648696,0.87098795,-0.22551996,0
-2.4888997,5.5236797,1.4136367,0.43648696,0.87098795,-0.22551996,0
-0.80419397,4.0501614,-1.8711301,0.43648696,0.87098795,-0.22551996,0
1.1082726,2.8252025,-2.6896262,0.43648696,0.87098795,-0.22551996,0
5.2967215,1.1196699,-0.5678854,0.43648696,0.87098795,-0.22551996,0
-3.0982339,-1.6929536,2.7997406,-0.43648696,-0.87098795,0.22551996,0
1.1745707,-0.3682425,1.7662781,0.21673578,0.14148599,0.96592307,0
-0.034654617,-4.2281342,-0.73234123,-0.43648696,-0.87098795,0.22551996,0
-4.8607287,0.91618502,1.7908936,-0.87321526,0.47049096,0.12701744,0
5.1597857,-1.4407818,0.80460691,0.87321526,-0.47049096,-0.12701744,0
3.6036959,2.0286996,-1.4606552,0.43648696,0.87098795,-0.22551996,0
5.2004771,-0.36395037,-2.4211497,0.87321526,-0.47049096,-0.12701744,0
-0.22534376,1.3714178,2.1257999,0.21673578,0.14148599,0.96592307,0
-1.128382,4.2763662,-0.43492866,0.43648696,0.87098795,-0.22551996,0
0.46419215,-4.1338911,-1.568982,-0.21673578,-0.14148599,-0.96592307,0
-0.17855358,4.2879095,1.0479243,0.43648696,0.87098795,-0.22551996,0
-4.2426896,2.1446173,1.4209573,-0.87321526,0.47049096,0.12701744,0
0.32179475,3.8656793,0.20937017,0.43648696,0.87098795,-0.22551996,0
-4.3242683,2.9874935,-1.0693769,-0.87321526,0.47049096,0.12701744,0
1.0467982,3.2650807,-0.77461082,0.43648696,0.87098795,-0.22551996,0
-2.0366611,4.9785156,1.906002,0.21673578,0.14148599,0.96592307,0
2.3718152,2.1897547,1.268199,0.21673578,0.14148599,0.96592307,0
-3.4167409,-2.0618942,1.3258829,-0.43648696,-0.87098795,0.22551996,0
0.88867664,-4.0060434,1.7617894,-0.43648696,-0.87098795,0.22551996,0
3.5273292,-3.3051348,-2.4380751,0.87321526,-0.47049096,-0.12701744,0
-3.6380248,-2.411777,-0.5294714,-0.43648696,-0.87098795,0.22551996,0
-1.9879048,-2.3399065,-1.2064991,-0.21673578,-0.14148599,-0.96592307,0
3.6691356,-3.6454375,0.83758307,0.87321526,-0.47049096,-0.12701744,0
-0.91287136,4.5797663,0.8064025,0.43648696,0.87098795,-0.22551996,0
-4.1035423,3.0062039,1.2133992,-0.87321526,0.47049096,0.12701744,0
-5.5370398,-0.40566111,-0.75342751,-0.21673578,-0.14148599,-0.96592307,0
-2.8951061,4.948678,0.14726734,-0.87321526,0.47049096,0.12701744,0
-5.3214407,-0.50649953,-0.82364559,-0.21673578,-0.14148599,-0.96592307,0
0.71772647,-4.1146345,-1.5663531,-0.21673578,-0.14148599,-0.96592307,0
3.6460519,-4.6742091,1.7233315,0.87321526,-0.47049096,-0.12701744,0
-3.2221177,4.1549311,-1.8400304,-0.21673578,-0.14148599,-0.96592307,0
-5.4108944,0.2315309,1.4028292,-0.87321526,0.47049096,0.12701744,0
1.7720013,0.8124001,1.7458124,0.21673578,0.14148599,0.96592307,0
-2.000653,1.1215521,2.5371215,0.21673578,0.14148599,0.96592307,0
4.3757486,-2.1155541,-1.2626543,0.87321526,-0.47049096,-0.12701744,0
-0.013957262,4.2000771,0.71036756,0.43648696,0.87098795,-0.22551996,0
0.52618432,-1.186779,-1.9050963,-0.21673578,-0.14148599,-0.96592307,0
5.2597532,-0.52784884,-2.2052178,0.87321526,-0.47049096,-0.12701744,0
-3.8443789,-1.9194095,-0.064023256,-0.43648696,-0.87098795,0.22551996,0
3.2521894,-3.8326635,-1.8452938,0.87321526,-0.47049096,-0.12701744,0
-2.0499904,-2.3730388,1.6928836,-0.43648696,-0.87098795,0.22551996,0
-6.0764427,-1.0036764,0.69186544,-0.43648696,-0.87098795,0.22551996,0
3.5241098,-4.5760574,1.5592754,0.87321526,-0.47049096,-0.12701744,0
-1.6732988,-0.14444995,2.6008964,0.21673578,0.14148599,0.96592307,0
-2.2610097,-3.0041733,0.087063789,-0.43648696,-0.87098795,0.22551996,0
-4.6188993,2.0676379,0.63266325,-0.87321526,0.47049096,0.12701744,0
-4.1357603,3.3805146,-1.7494285,-0.21673578,-0.14148599,-0.96592307,0
-2.7019899,5.1252365,0.70492911,-0.87321526,0.47049096,0.12701744,0
-3.5508807,2.2192302,-1.6387904,-0.21673578,-0.14148599,-0.96592307,0
5.002984,-0.062839687,-3.0218542,-0.21673578,-0.14148599,-0.96592307,0
-4.1890421,2.3197803,1.8027134,-0.87321526,0.47049096,0.12701744,0
-3.856185,3.4577832,1.4638555,-0.87321526,0.47049096,0.12701744,0
-4.1035705,3.1166887,-1.490186,-0.87321526,0.47049096,0.12701744,0
-3.8719826,3.6602397,0.62078619,-0.87321526,0.47049096,0.12701744,0
-6.1903286,-0.38819218,-0.40022087,-0.87321526,0.47049096,0.12701744,0
1.7842567,2.2932851,-2.4139042,0.43648696,0.87098795,-0.22551996,0
3.7208374,-3.6510079,-0.36863542,0.87321526,-0.47049096,-0.12701744,0
3.6755924,-4.0970402,0.836128,0.87321526,-0.47049096,-0.12701744,0
-3.806453,3.1051261,1.4567471,-0.87321526,0.47049096,0.12701744,0
-4.9225507,1.8683548,0.096269131,-0.87321526,0.47049096,0.12701744,0
2.2402663,-4.6770301,1.1578809,-0.43648696,-0.87098795,0.22551996,0
6.0641918,0.4018383,0.18834972,0.87321526,-0.47049096,-0.12701744,0
5.0172868,-0.90011823,-2.6186013,0.87321526,-0.47049096,-0.12701744,0
-4.3376145,2.0792174,0.76017427,-0.87321526,0.47049096,0.12701744,0
5.8930063,0.18544102,-0.30192041,0.87321526,-0.47049096,-0.12701744,0
-4.080472,2.4718685,2.6088281,-0.87321526,0.47049096,0.12701744,0
-2.9475832,-1.5997064,3.0299439,-0.43648696,-0.87098795,0.22551996,0
-3.2705083,4.9771676,-1.7373128,-0.87321526,0.47049096,0.12701744,0
-3.9817381,2.3610566,2.7091923,-0.87321526,0.47049096,0.12701744,0
-4.0665531,2.858017,0.043515682,-0.87321526,0.47049096,0.12701744,0
-3.5425336,3.6581917,1.4871871,-0.87321526,0.47049096,0.12701744,0
-0.66764289,-1.0588858,-1.6559426,-0.21673578,-0.14148599,-0.96592307,0
0.054250717,-4.2657824,-0.43690354,-0.43648696,-0.87098795,0.22551996,0
-3.3725157,2.2835546,2.6180654,0.21673578,0.14148599,0.96592307,0
4.5182147,0.96950591,-2.3165121,0.43648696,0.87098795,-0.22551996,0
3.7765648,-4.1384583,0.96484733,0.87321526,-0.47049096,-0.12701744,0
5.5047789,-0.42123365,0.24760532,0.87321526,-0.47049096,-0.12701744,0
-4.0252523,-1.708914,1.1898043,-0.43648696,-0.87098795,0.22551996,0
4.0150928,-2.2458384,-2.1525257,0.87321526,-0.47049096,-0.12701744,0
4.677897,0.89560485,0.68788767,0.21673578,0.14148599,0.96592307,0
2.8399429,1.7454265,-2.419517,0.43648696,0.87098795,-0.22551996,0
4.0729403,-3.0612679,0.22951603,0.87321526,-0.47049096,-0.12701744,0
2.1861429,-4.6620369,1.4452155,-0.43648696,-0.87098795,0.22551996,0
5.4545455,-0.56671643,0.011089802,0.87321526,-0.47049096,-0.12701744,0
-1.7229075,-2.6417322,1.2146894,-0.43648696,-0.87098795,0.22551996,0
-3.6935897,-2.1169779,0.89091039,-0.43648696,-0.87098795,0.22551996,0
0.68858075,-0.51281846,2.0305839,0.21673578,0.14148599,0.96592307,0
-2.3756051,3.4309988,-2.0510573,-0.21673578,-0.14148599,-0.96592307,0
1.0011057,0.6966579,1.7016282,0.21673578,0.14148599,0.96592307,0
3.6579397,-0.26890922,1.2439482,0.21673578,0.14148599,0.96592307,0
-5.3221741,-0.21667606,3.1064591,-0.87321526,0.47049096,0.12701744,0
-3.7038453,3.5323203,-1.8579955,-0.21673578,-0.14148599,-0.96592307,0
-2.8326483,-1.9045761,2.432461,-0.43648696,-0.87098795,0.22551996,0
-0.65430832,-0.22824609,2.2852051,0.21673578,0.14148599,0.96592307,0
2.7927926,-5.1201468,-0.66512322,0.87321526,-0.47049096,-0.12701744,0
-0.03101325,2.6650012,1.6446416,0.21673578,0.14148599,0.96592307,0
-3.6081941,-1.9751532,0.86059618,-0.43648696,-0.87098795,0.22551996,0
-2.4040856,2.6772151,2.3162594,0.21673578,0.14148599,0.96592307,0
-4.1786156,3.3700111,-1.229691,-0.87321526,0.47049096,0.12701744,0
-2.2161422,-2.3104377,2.6621649,-0.43648696,-0.87098795,0.22551996,0
-2.2079573,-1.5036589,2.6190665,0.21673578,0.14148599,0.96592307,0
4.0737872,-2.9921923,-0.75344515,0.87321526,-0.47049096,-0.12701744,0
-1.1198623,3.2778339,-2.1563659,-0.21673578,-0.14148599,-0.96592307,0
-4.8352737,0.78479207,1.9611406,-0.87321526,0.47049096,0.12701744,0
2.750972,-5.019217,0.64026713,-0.43648696,-0.87098795,0.22551996,0
-1.5617648,-0.098832548,2.5305696,0.21673578,0.14148599,0.96592307,0
1.5296181,0.38826925,-2.4471178,-0.21673578,-0.14148599,-0.96592307,0
3.2719328,-4.6300383,-0.058838844,0.87321526,-0.47049096,-0.12701744,0
3.0655284,-2.3771636,1.6695065,0.21673578,0.14148599,0.96592307,0
4.0419669,-3.5387156,1.8090131,0.21673578,0.14148599,0.96592307,0
1.9834015,-5.1754284,-0.65440249,-0.43648696,-0.87098795,0.22551996,0
5.4073815,1.0276468,-0.92101336,0.43648696,0.87098795,-0.22551996,0
1.5925479,2.7789376,-1.5714188,0.43648696,0.87098795,-0.22551996,0
4.7227397,1.3003983,-2.0400195,0.43648696,0.87098795,-0.22551996,0
4.5797887,-2.0285714,-1.7797315,0.87321526,-0.47049096,-0.12701744,0
-0.25568199,-4.0257559,0.1979094,-0.43648696,-0.87098795,0.22551996,0
-3.2892616,4.7937636,-0.44373727,-0.87321526,0.47049096,0.12701744,0
5.916903,0.71294951,-0.69713974,0.43648696,0.87098795,-0.22551996,0
-1.4557917,-3.3521457,-0.30607712,-0.43648696,-0.87098795,0.22551996,0
2.1346254,-3.1432681,1.9822729,0.21673578,0.14148599,0.96592307,0
4.7925758,-0.58488429,-2.965199,0.87321526,-0.47049096,-0.12701744,0
-4.7645493,0.83759129,3.0335927,0.21673578,0.14148599,0.96592307,0
-0.47975183,-3.3956518,-1.3561965,-0.21673578,-0.14148599,-0.96592307,0
-2.8134344,4.7685604,1.5253923,-0.87321526,0.47049096,0.12701744,0
3.9412894,-2.8109083,-2.1513364,0.87321526,-0.47049096,-0.12701744,0
1.1018794,3.6438813,1.0059912,0.43648696,0.87098795,-0.22551996,0
-1.0343816,-2.2929788,-1.5165012,-0.21673578,-0.14148599,-0.96592307,0
-4.9893203,-0.33771896,-1.031846,-0.21673578,-0.14148599,-0.96592307,0
4.1751542,-3.2045412,0.70498133,0.87321526,-0.47049096,-0.12701744,0
5.0713301,-1.2851655,0.41027689,0.87321526,-0.47049096,-0.12701744,0
-0.71066427,-2.0338593,2.5550344,0.21673578,0.14148599,0.96592307,0
-1.6261244,3.0580578,-2.0584102,-0.21673578,-0.14148599,-0.96592307,0
2.1791785,-5.2431221,-1.7664191,-0.21673578,-0.14148599,-0.96592307,0
-4.9319701,0.73785794,2.9029052,-0.87321526,0.47049096,0.12701744,0
-3.0829353,3.3851309,-1.8094308,-0.21673578,-0.14148599,-0.96592307,0
3.4188337,-1.975813,-2.388016,-0.21673578,-0.14148599,-0.96592307,0
-3.569052,-1.2196009,3.0366211,0.21673578,0.14148599,0.96592307,0
-0.65482473,-2.5512269,2.5332892,0.21673578,0.14148599,0.96592307,0
4.8436589,-1.555367,0.43919468,0.87321526,-0.47049096,-0.12701744,0
-5.8433847,-0.9048357,1.0910645,-0.43648696,-0.87098795,0.22551996,0
1.4623525,-5.4186091,-1.7401922,-0.43648696,-0.87098795,0.22551996,0
-5.80866,-1.0903387,-0.1075511,-0.43648696,-0.87098795,0.22551996,0
3.0006618,-4.7839284,-0.23071313,0.87321526,-0.47049096,-0.12701744,0
-3.9865201,3.4189138,-0.95636678,-0.87321526,0.47049096,0.12701744,0
-4.5271029,-1.432693,0.35545874,-0.43648696,-0.87098795,0.22551996,0
-5.866148,-0.57880926,0.72331858,-0.87321526,0.47049096,0.12701744,0
-0.89773893,-3.4108491,0.99684697,-0.43648696,-0.87098795,0.22551996,0
1.0061723,-3.8413882,-1.830667,-0.21673578,-0.14148599,-0.96592307,0
-4.9212236,0.89134622,0.8190999,-0.87321526,0.47049096,0.12701744,0
-0.97611666,-3.9426603,-1.218087,-0.43648696,-0.87098795,0.22551996,0
0.94014096,-1.5322928,2.0714936,0.21673578,0.14148599,0.96592307,0
-1.5382767,4.6527877,-1.2650683,0.43648696,0.87098795,-0.22551996,0
5.5640631,0.22745633,-0.7670536,0.87321526,-0.47049096,-0.12701744,0
-2.0960362,-2.2620091,2.4338787,-0.43648696,-0.87098795,0.22551996,0
-1.3030045,2.1830001,-1.9133486,-0.21673578,-0.14148599,-0.96592307,0
-5.94101,-0.33229494,1.1051164,-0.87321526,0.47049096,0.12701744,0
-5.6809931,-0.27538466,0.10034037,-0.87321526,0.47049096,0.12701744,0
0.94497895,-4.2890086,0.042515635,-0.43648696,-0.87098795,0.22551996,0
-3.2377455,-1.8773103,2.1124821,-0.43648696,-0.87098795,0.22551996,0
3.0336924,2.0795906,-0.96102619,0.43648696,0.87098795,-0.22551996,0
4.0526333,1.8397751,-1.3180921,0.43648696,0.87098795,-0.22551996,0
0.58725452,-3.3548446,2.5103807,0.21673578,0.14148599,0.96592307,0
5.4621968,-0.19707084,-0.65443325,0.87321526,-0.47049096,-0.12701744,0
-1.1899726,-3.3071566,-0.35840005,-0.43648696,-0.87098795,0.22551996,0
5.429924,1.4600472,0.58387947,0.43648696,0.87098795,-0.22551996,0
4.9911089,-2.0241034,0.89206791,0.87321526,-0.47049096,-0.12701744,0
-4.8677635,1.790118,-1.1587543,-0.21673578,-0.14148599,-0.96592307,0
-3.9270511,-1.1436688,3.1013258,0.21673578,0.14148599,0.96592307,0
3.6715004,2.0786982,0.108109,0.43648696,0.87098795,-0.22551996,0
2.9640403,-4.984354,1.9421132,-0.43648696,-0.87098795,0.22551996,0
-3.7759581,4.0918446,-0.78923941,-0.87321526,0.47049096,0.12701744,0
0.080117702,-3.9799566,0.79178965,-0.43648696,-0.87098795,0.22551996,0
4.3521214,-1.7886045,-2.9319565,0.87321526,-0.47049096,-0.12701744,0
2.2937229,-1.1497098,-2.5470679,-0.21673578,-0.14148599,-0.96592307,0
-4.9962997,1.6746283,-1.373848,-0.87321526,0.47049096,0.12701744,0
0.60643888,3.7754111,0.93513262,0.43648696,0.87098795,-0.22551996,0
-0.27592325,-3.602061,0.24843228,-0.43648696,-0.87098795,0.22551996,0
3.2777257,-3.4148879,-2.1078765,-0.21673578,-0.14148599,-0.96592307,0
-1.9604497,-3.1149073,0.17377293,-0.43648696,-0.87098795,0.22551996,0
3.2401507,-4.5313139,-1.0759616,0.87321526,-0.47049096,-0.12701744,0
3.5327125,-0.21745925,-3.0043011,-0.21673578,-0.14148599,-0.96592307,0
1.1604562,-3.9587283,1.6203814,-0.43648696,-0.87098795,0.22551996,0
1.7388966,-4.47894,-1.6151544,-0.21673578,-0.14148599,-0.96592307,0
0.60801297,0.25556159,1.7997788,0.21673578,0.14148599,0.96592307,0
2.1021171,1.7109677,-2.6255131,-0.21673578,-0.14148599,-0.96592307,0
5.0807252,-0.69340837,-2.830061,0.87321526,-0.47049096,-0.12701744,0
-5.6202383,-0.6899364,2.3774271,-0.43648696,-0.87098795,0.22551996,0
-4.0413237,2.9528403,1.0686185,-0.87321526,0.47049096,0.12701744,0
5.1159635,1.3848753,0.66598368,0.21673578,0.14148599,0.96592307,0
-1.3862514,-3.2911932,0.63812733,-0.43648696,-0.87098795,0.22551996,0
0.40638229,1.4801954,1.5654287,0.21673578,0.14148599,0.96592307,0
1.9503465,-0.89524341,1.6565726,0.21673578,0.14148599,0.96592307,0
-0.17251265,0.22262025,-1.967051,-0.21673578,-0.14148599,-0.96592307,0
-0.65247393,2.5458813,-2.4777246,-0.21673578,-0.14148599,-0.96592307,0
0.81199467,0.18389177,1.7765435,0.21673578,0.14148599,0.96592307,0
-2.2715437,-2.9187346,-0.96214402,-0.43648696,-0.87098795,0.22551996,0
5.4674206,1.1164091,0.21210098,0.43648696,0.87098795,-0.22551996,0
-2.1759186,0.56720543,2.3120365,0.21673578,0.14148599,0.96592307,0
5.2466402,-0.57126689,-0.53329849,0.87321526,-0.47049096,-0.12701744,0
4.2662425,1.5824685,0.74820566,0.21673578,0.14148599,0.96592307,0
-4.7364264,1.4369383,0.99898767,-0.87321526,0.47049096,0.12701744,0
-4.0994511,2.8535714,-0.81334639,-0.87321526,0.47049096,0.12701744,0
-3.3882263,-2.2979324,0.71489072,-0.43648696,-0.87098795,0.22551996,0
-6.2446165,-1.0988917,0.036067009,-0.43648696,-0.87098795,0.22551996,0
-0.76992154,-1.7994201,2.3758461,0.21673578,0.14148599,0.96592307,0
-5.1886306,0.4511497,0.65413809,-0.87321526,0.47049096,0.12701744,0
2.1792738,2.7938242,-0.58152771,0.43648696,0.87098795,-0.22551996,0
5.0147047,1.2659972,-1.4684763,0.43648696,0.87098795,-0.22551996,0
3.5982051,-3.8460162,-1.8031301,0.87321526,-0.47049096,-0.12701744,0
-3.1236315,2.2792654,-1.8185945,-0.21673578,-0.14148599,-0.96592307,0
-4.3939629,-1.5772095,1.7370811,-0.43648696,-0.87098795,0.22551996,0
-5.5174212,0.46645713,0.25932169,-0.87321526,0.47049096,0.12701744,0
4.8515186,1.6577466,-0.039657593,0.43648696,0.87098795,-0.22551996,0
2.6546934,-5.1487393,-1.0924265,0.87321526,-0.47049096,-0.12701744,0
3.3415351,-1.0356901,-2.7681525,-0.21673578,-0.14148599,-0.96592307,0
-5.0022035,0.50258148,3.1469791,-0.87321526,0.47049096,0.12701744,0
0.18296409,-3.22369,-1.7246234,-0.21673578,-0.14148599,-0.96592307,0
1.2168732,-0.93437469,-2.0742867,-0.21673578,-0.14148599,-0.96592307,0
5.2450495,-0.60681641,-2.1418123,0.87321526,-0.47049096,-0.12701744,0
-1.9263282,-3.3049262,-0.64883423,-0.43648696,-0.87098795,0.22551996,0
3.2193542,-4.7947035,0.34397554,0.87321526,-0.47049096,-0.12701744,0
-0.059906006,-4.3341155,-0.75408614,-0.43648696,-0.87098795,0.22551996,0
4.133523,-1.9740355,-2.3807118,0.87321526,-0.47049096,-0.12701744,0
-3.5157316,4.678185,-1.5578859,-0.87321526,0.47049096,0.12701744,0
-1.2558408,4.2296124,-0.9052608,0.43648696,0.87098795,-0.22551996,0
3.0285285,0.84215552,-3.0261805,-0.21673578,-0.14148599,-0.96592307,0
-2.0233159,-2.4075899,1.4232137,-0.43648696,-0.87098795,0.22551996,0
-0.38027287,-2.2219601,2.5216217,0.21673578,0.14148599,0.96592307,0
3.0161829,-3.038795,-2.1517479,-0.21673578,-0.14148599,-0.96592307,0
0.038799286,-3.9942658,-0.5163092,-0.43648696,-0.87098795,0.22551996,0
-5.4550977,0.33829451,1.0699434,-0.87321526,0.47049096,0.12701744,0
3.1391044,-4.3570981,-0.7755115,0.87321526,-0.47049096,-0.12701744,0
4.9113646,-1.6112547,-0.43392849,0.87321526,-0.47049096,-0.12701744,0
-4.595129,-1.1490391,1.6148729,-0.43648696,-0.87098795,0.22551996,0
-4.7548122,1.6474915,-1.1728354,-0.21673578,-0.14148599,-0.96592307,0
-2.8498034,5.1034074,-1.6913121,0.43648696,0.87098795,-0.22551996,0
-4.0460424,0.17468856,2.9658608,0.21673578,0.14148599,0.96592307,0
-3.9123631,3.4305673,-1.2920165,-0.87321526,0.47049096,0.12701744,0
-3.8720114,-1.8047471,1.5264797,-0.43648696,-0.87098795,0.22551996,0
0.97215891,3.6638279,0.47515094,0.43648696,0.87098795,-0.22551996,0
-5.8832726,-0.83427,0.81143188,-0.87321526,0.47049096,0.12701744,0
-2.7634726,4.1007967,2.0737283,0.21673578,0.14148599,0.96592307,0
-0.6635623,4.2077923,-0.72503078,0.43648696,0.87098795,-0.22551996,0
-0.50519753,4.4250827,1.6633414,0.21673578,0.14148599,0.96592307,0
4.9463139,-0.99666619,-1.4894743,0.87321526,-0.47049096,-0.12701744,0
0.8671937,3.2024941,-1.2063644,0.43648696,0.87098795,-0.22551996,0
3.5304976,-3.3928628,1.7089224,0.21673578,0.14148599,0.96592307,0
-5.662755,-0.93676746,1.7963743,-0.43648696,-0.87098795,0.22551996,0
3.5323808,-3.2625244,-1.5008361,0.87321526,-0.47049096,-0.12701744,0
4.6483159,-1.9100144,-1.7644153,0.87321526,-0.47049096,-0.12701744,0
-1.138617,-3.3032329,1.3127658,-0.43648696,-0.87098795,0.22551996,0
3.9042881,1.5766845,1.0914381,0.21673578,0.14148599,0.96592307,0
-3.103725,5.0429082,-1.3909309,-0.87321526,0.47049096,0.12701744,0
-5.2476578,-1.4362941,-0.0047883987,-0.43648696,-0.87098795,0.22551996,0
2.3774731,-1.9419708,1.8024217,0.21673578,0.14148599,0.96592307,0
0.72002244,-3.3886039,-1.6289312,-0.21673578,-0.14148599,-0.96592307,0
-4.211689,2.4729455,1.0899458,-0.87321526,0.47049096,0.12701744,0
-4.8510294,1.3494388,1.001164,-0.87321526,0.47049096,0.12701744,0
4.8728065,-1.3149807,0.10286427,0.87321526,-0.47049096,-0.12701744,0
-4.6763725,2.1507373,0.6154809,-0.87321526,0.47049096,0.12701744,0
-1.3720628,2.582715,2.0650823,0.21673578,0.14148599,0.96592307,0
4.0530429,-2.5759602,-2.40293,0.87321526,-0.47049096,-0.12701744,0
4.4742422,-1.1168355,-3.0279338,0.87321526,-0.47049096,-0.12701744,0
-3.9737556,3.1809802,-0.25095177,-0.87321526,0.47049096,0.12701744,0
-2.1313519,4.7463069,-1.1122971,0.43648696,0.87098795,-0.22551996,0
0.64388418,3.1915057,1.284005,0.21673578,0.14148599,0.96592307,0
-0.87919259,4.3146615,0.11005592,0.43648696,0.87098795,-0.22551996,0
4.7831945,-1.400948,-0.14307308,0.87321526,-0.47049096,-0.12701744,0
3.2391384,0.99596322,-3.0011454,-0.21673578,-0.14148599,-0.96592307,0
-4.007834,2.4710462,2.0942855,-0.87321526,0.47049096,0.12701744,0
-0.83201313,-3.3100829,1.508366,-0.43648696,-0.87098795,0.22551996,0
1.7892262,-3.9697409,-1.8141625,-0.21673578,-0.14148599,-0.96592307,0
0.062193155,-3.9900742,-1.6415212,-0.21673578,-0.14148599,-0.96592307,0
-4.5024972,-1.7461487,0.82661724,-0.43648696,-0.87098795,0.22551996,0
-3.0078886,-1.0103838,-1.2238719,-0.21673578,-0.14148599,-0.96592307,0
-0.89648247,-3.1210518,1.2428,-0.43648696,-0.87098795,0.22551996,0
2.1269281,-0.78983784,-2.5813527,-0.21673578,-0.14148599,-0.96592307,0
5.1215153,-0.75717425,0.19437313,0.87321526,-0.47049096,-0.12701744,0
-0.096457958,-3.3065538,-1.4420588,-0.21673578,-0.14148599,-0.96592307,0
5.6160822,0.72438633,-1.8587775,0.43648696,0.87098795,-0.22551996,0
3.9425058,1.7854604,-0.56408811,0.43648696,0.87098795,-0.22551996,0
4.7008533,-2.5661566,1.1995096,0.87321526,-0.47049096,-0.12701744,0
2.2390311,1.9585474,1.1557759,0.21673578,0.14148599,0.96592307,0
-1.1480143,-3.5748127,-1.2510562,-0.21673578,-0.14148599,-0.96592307,0
-2.2126267,-2.8416414,0.66729558,-0.43648696,-0.87098795,0.22551996,0
5.6645331,-0.098828793,0.98262119,0.87321526,-0.47049096,-0.12701744,0
2.4968066,2.503377,1.1363692,0.21673578,0.14148599,0.96592307,0
6.2269068,0.8093164,-0.16463375,0.43648696,0.87098795,-0.22551996,0
0.77060556,-4.7969074,-1.3553778,-0.43648696,-0.87098795,0.22551996,0
1.3036094,-4.761312,-0.54904377,-0.43648696,-0.87098795,0.22551996,0
3.5085239,1.6371349,-1.9212258,0.43648696,0.87098795,-0.22551996,0
3.7398233,2.4556479,0.32352495,0.43648696,0.87098795,-0.22551996,0
-3.4252081,4.1093125,0.4947896,-0.87321526,0.47049096,0.12701744,0
-5.5471811,-0.44450569,1.3785648,-0.87321526,0.47049096,0.12701744,0
0.73203278,-4.2299876,-0.00016003847,-0.43648696,-0.87098795,0.22551996,0
-4.4099083,2.1115403,0.41934013,-0.87321526,0.47049096,0.12701744,0
2.9107289,-5.2025309,-1.1275725,0.87321526,-0.47049096,-0.12701744,0
-5.0555124,0.82652831,0.49633932,-0.87321526,0.47049096,0.12701744,0
2.4638267,-2.6159546,-2.1010289,-0.21673578,-0.14148599,-0.96592307,0
5.7200694,1.1630964,0.095868587,0.43648696,0.87098795,-0.22551996,0
-3.6313674,4.1093326,-0.43992281,-0.87321526,0.47049096,0.12701744,0
-1.8417709,-3.0505888,0.33770764,-0.43648696,-0.87098795,0.22551996,0
4.5424724,1.4837847,0.77388048,0.21673578,0.14148599,0.96592307,0
5.580883,-0.020388365,-1.8471003,0.87321526,-0.47049096,-0.12701744,0
2.8801947,-5.1611271,0.53473973,-0.43648696,-0.87098795,0.22551996,0
1.3601899,-3.2278268,2.0663755,0.21673578,0.14148599,0.96592307,0
1.7349735,-0.55181694,1.6005799,0.21673578,0.14148599,0.96592307,0
3.7228901,-4.3388834,1.1034172,0.87321526,-0.47049096,-0.12701744,0
4.8084741,-1.1019024,-1.9910712,0.87321526,-0.47049096,-0.12701744,0
1.3807158,-4.1824975,1.8143833,-0.43648696,-0.87098795,0.22551996,0
0.80369616,-3.9756761,1.951684,-0.43648696,-0.87098795,0.22551996,0
-2.3828454,4.5097556,-1.9829895,0.43648696,0.87098795,-0.22551996,0
-3.0679684,2.6900063,-1.8514199,-0.21673578,-0.14148599,-0.96592307,0
0.97952342,-4.9477367,-1.3343973,-0.43648696,-0.87098795,0.22551996,0
-4.4058504,2.1401415,1.6210215,-0.87321526,0.47049096,0.12701744,0
4.9664431,-1.0727596,-0.53025007,0.87321526,-0.47049096,-0.12701744,0
-3.8628292,-1.7029525,1.2377129,-0.43648696,-0.87098795,0.22551996,0
0.59416866,3.1996353,-2.5205102,0.43648696,0.87098795,-0.22551996,0
-5.0006728,0.25764608,3.0038686,-0.87321526,0.47049096,0.12701744,0
-3.7399039,-1.5149369,-1.0677199,-0.21673578,-0.14148599,-0.96592307,0
-3.3094382,5.1426659,-1.2145605,0.43648696,0.87098795,-0.22551996,0
1.751996,3.2716877,0.48822081,0.43648696,0.87098795,-0.22551996,0
-3.934669,2.1124017,2.7670863,0.21673578,0.14148599,0.96592307,0
0.2283349,-3.3510375,-1.802193,-0.21673578,-0.14148599,-0.96592307,0
-0.69022226,4.1629491,-1.6271656,0.43648696,0.87098795,-0.22551996,0
2.7485573,2.1515028,-1.5566254,0.43648696,0.87098795,-0.22551996,0
1.3441947,3.4449077,1.2805862,0.21673578,0.14148599,0.96592307,0
2.5388942,1.089694,1.36782,0.21673578,0.14148599,0.96592307,0
-5.333487,0.59208417,-0.7196908,-0.87321526,0.47049096,0.12701744,0
3.5683467,1.5511148,0.89463496,0.21673578,0.14148599,0.96592307,0
-2.4591234,-1.9051502,-1.2307194,-0.21673578,-0.14148599,-0.96592307,0
5.8633294,0.11560678,0.59293699,0.87321526,-0.47049096,-0.12701744,0
-1.1124296,4.4657431,-0.98587638,0.43648696,0.87098795,-0.22551996,0
2.8130298,-3.7459617,2.0260789,0.21673578,0.14148599,0.96592307,0
5.3211508,0.5841893,-2.5011353,0.43648696,0.87098795,-0.22551996,0
5.2081251,0.34099084,-3.1527729,-0.21673578,-0.14148599,-0.96592307,0
-1.5410783,1.6483496,-2.0190477,-0.21673578,-0.14148599,-0.96592307,0
2.311852,1.4695989,1.2868131,0.21673578,0.14148599,0.96592307,0
0.45575333,3.9112821,0.072665811,0.43648696,0.87098795,-0.22551996,0
-4.4108171,1.9067731,0.41645861,-0.87321526,0.47049096,0.12701744,0
2.3284814,-5.2528334,-0.35215068,-0.43648696,-0.87098795,0.22551996,0
4.3430576,-2.0292406,-1.8072729,0.87321526,-0.47049096,-0.12701744,0
-0.084559202,4.5871696,1.2743108,0.43648696,0.87098795,-0.22551996,0
-5.6284313,-0.15628827,2.6475348,-0.87321526,0.47049096,0.12701744,0
0.50660133,0.92514908,1.8932204,0.21673578,0.14148599,0.96592307,0
4.8867688,1.0792923,0.83702612,0.21673578,0.14148599,0.96592307,0
-4.4666519,2.1165547,0.42272949,-0.87321526,0.47049096,0.12701744,0
0.56536865,-3.8219867,2.0395546,-0.43648696,-0.87098795,0.22551996,0
2.5618718,-4.8405218,-1.9808635,-0.21673578,-0.14148599,-0.96592307,0
-3.0410652,4.668005,0.75322819,-0.87321526,0.47049096,0.12701744,0
-4.3837261,1.88872,0.72567844,-0.87321526,0.47049096,0.12701744,0
-2.4669993,-2.6631894,-1.2364135,-0.21673578,-0.14148599,-0.96592307,0
-3.9711537,-2.0225747,-0.44447064,-0.43648696,-0.87098795,0.22551996,0
-1.1040782,0.63008165,-2.1114376,-0.21673578,-0.14148599,-0.96592307,0
3.1446202,-1.5817463,1.6435752,0.21673578,0.14148599,0.96592307,0
1.6067703,-4.5783124,0.32125592,-0.43648696,-0.87098795,0.22551996,0
-4.3378105,1.6565318,2.2839439,-0.87321526,0.47049096,0.12701744,0
3.0347652,1.0573211,-2.9752908,-0.21673578,-0.14148599,-0.96592307,0
3.8469138,-3.3823378,-0.77016115,0.87321526,-0.47049096,-0.12701744,0
-4.3524709,1.865128,2.7135015,-0.87321526,0.47049096,0.12701744,0
2.4199305,-5.0482645,0.6774044,-0.43648696,-0.87098795,0.22551996,0
1.7235019,-3.4928241,2.2530718,0.21673578,0.14148599,0.96592307,0
-1.8694112,-3.3141792,-0.49038255,-0.43648696,-0.87098795,0.22551996,0
0.91165257,0.60417461,1.6030078,0.21673578,0.14148599,0.96592307,0
2.2268419,-4.7639332,1.1257387,-0.43648696,-0.87098795,0.22551996,0
-1.5132871,-1.8724837,2.6307995,0.21673578,0.14148599,0.96592307,0
0.89147711,-4.1671891,1.5990447,-0.43648696,-0.87098795,0.22551996,0
2.6171601,-5.1682673,0.85942364,-0.43648696,-0.87098795,0.22551996,0
-1.8567851,4.7067804,1.6168435,0.21673578,0.14148599,0.96592307,0
-3.4089773,-2.0464461,0.96100545,-0.43648696,-0.87098795,0.22551996,0
2.2749288,-2.7737257,-2.1325867,-0.21673578,-0.14148599,-0.96592307,0
2.1470132,1.1388403,-2.5580449,-0.21673578,-0.14148599,-0.96592307,0
0.79699969,-4.7709341,-1.3446633,-0.43648696,-0.87098795,0.22551996,0
-3.3445516,-2.6912076,-0.61861086,-0.43648696,-0.87098795,0.22551996,0
4.3035774,1.4681401,-1.2773206,0.43648696,0.87098795,-0.22551996,0
-0.67551708,1.0947078,-2.1170917,-0.21673578,-0.14148599,-0.96592307,0
3.3944974,-4.3287969,-0.86697865,0.87321526,-0.47049096,-0.12701744,0
0.46311879,-3.5062702,-1.7195687,-0.21673578,-0.14148599,-0.96592307,0
4.509479,-1.8706371,-2.7387569,0.87321526,-0.47049096,-0.12701744,0
0.40392017,1.7720184,-2.2938488,-0.21673578,-0.14148599,-0.96592307,0
-2.536262,0.48515099,2.6663322,0.21673578,0.14148599,0.96592307,0
-2.8366532,5.0335093,-1.1228125,0.43648696,0.87098795,-0.22551996,0
2.8520401,-1.4211957,1.4898307,0.21673578,0.14148599,0.96592307,0
-2.3727179,3.3683372,1.9553103,0.21673578,0.14148599,0.96592307,0
-4.9347057,1.1116409,0.17620754,-0.87321526,0.47049096,0.12701744,0
