-2.7065287,-3.1602907,1.2774026,-0.073716082,-0.20442986,0.97610158,0
1.4022731,4.8304162,-0.24808741,0.14765866,0.96573943,0.21341103,0
-1.2411175,5.5467362,-0.7979722,0.14765866,0.96573943,0.21341103,0
-0.25417787,0.44987786,-1.8148094,0.073716082,0.20442986,-0.97610158,0
-0.077541411,4.4667149,3.0649502,-0.073716082,-0.20442986,0.97610158,0
1.0947766,4.6892519,0.74439573,0.14765866,0.96573943,0.21341103,0
2.0614259,-5.2438488,-0.81792951,-0.14765866,-0.96573943,-0.21341103,0
-0.89441085,4.9231911,0.97210479,0.14765866,0.96573943,0.21341103,0
0.56652051,4.7701654,1.4629877,0.14765866,0.96573943,0.21341103,0
0.20517254,-4.2636099,1.0187078,-0.073716082,-0.20442986,0.97610158,0
1.7890751,-5.1828232,-2.0027223,-0.14765866,-0.96573943,-0.21341103,0
-1.506008,-4.2204518,-2.7320704,-0.14765866,-0.96573943,-0.21341103,0
1.6960554,-5.1121459,-0.59620738,-0.14765866,-0.96573943,-0.21341103,0
-2.8750491,0.5814268,-1.4560044,-0.98628736,0.15986168,-0.041004676,0
-3.2358921,-2.9912782,0.98284245,-0.073716082,-0.20442986,0.97610158,0
2.8663645,-1.8457048,0.27783525,0.98628736,-0.15986168,0.041004676,0
-1.5498143,-4.392354,-2.4596634,-0.14765866,-0.96573943,-0.21341103,0
2.9967628,0.2766273,0.35353351,0.98628736,-0.15986168,0.041004676,0
2.0509813,-0.27385473,2.2024369,-0.073716082,-0.20442986,0.97610158,0
-2.9359355,-0.20644772,0.27941072,-0.98628736,0.15986168,-0.041004676,0
-1.3829241,-4.4339232,1.1170239,-0.073716082,-0.20442986,0.97610158,0
-3.0460343,-0.93722308,-2.5449457,0.073716082,0.20442986,-0.97610158,0
-0.25888315,-3.3732424,-2.9183269,0.073716082,0.20442986,-0.97610158,0
-2.9787557,0.9709515,1.3840574,-0.98628736,0.15986168,-0.041004676,0
-2.5762422,3.4475119,2.193574,-0.98628736,0.15986168,-0.041004676,0
0.18240988,-3.26862,-2.8228977,0.073716082,0.20442986,-0.97610158,0
-0.116485,4.5706601,2.2281663,0.14765866,0.96573943,0.21341103,0
2.7349849,4.4736056,1.8477407,0.14765866,0.96573943,0.21341103,0
-1.1198115,5.0628633,1.3279493,0.14765866,0.96573943,0.21341103,0
-3.2501335,-0.74414349,-0.42307603,-0.98628736,0.15986168,-0.041004676,0
3.2660227,1.8026969,2.5670991,0.98628736,-0.15986168,0.041004676,0
-0.39665413,1.9355556,-1.6142147,0.073716082,0.20442986,-0.97610158,0
2.151628,4.2844968,2.8394125,0.14765866,0.96573943,0.21341103,0
-3.0528951,-0.30995965,1.8292248,-0.073716082,-0.20442986,0.97610158,0
-0.9825266,-2.464803,1.4028745,-0.073716082,-0.20442986,0.97610158,0
-3.4572201,-2.9518261,-0.42060089,-0.98628736,0.15986168,-0.041004676,0
-2.3067582,3.3998692,-0.21093416,-0.98628736,0.15986168,-0.041004676,0
-1.3940953,1.2652254,2.2801085,-0.073716082,-0.20442986,0.97610158,0
1.1012342,4.6094389,1.274473,0.14765866,0.96573943,0.21341103,0
-0.4706738,2.6520364,2.704051,-0.073716082,-0.20442986,0.97610158,0
3.5546749,2.9831142,0.70285988,0.98628736,-0.15986168,0.041004676,0
2.4458055,4.8716574,-0.0069847107,0.14765866,0.96573943,0.21341103,0
-2.9909708,-0.44277608,-1.7000947,-0.98628736,0.15986168,-0.041004676,0
1.8586078,-0.13063502,-2.1297512,0.073716082,0.20442986,-0.97610158,0
3.4025462,2.5760412,1.5992579,0.98628736,-0.15986168,0.041004676,0
2.2785287,-4.6207237,0.35098052,0.98628736,-0.15986168,0.041004676,0
2.302459,-4.219677,0.13966012,0.98628736,-0.15986168,0.041004676,0
-0.82946873,1.271776,-2.0319047,0.073716082,0.20442986,-0.97610158,0
-2.7920837,1.3393927,1.8921319,-0.98628736,0.15986168,-0.041004676,0
-2.9604931,-0.60775584,-2.1730454,-0.98628736,0.15986168,-0.041004676,0
3.6653035,2.5343342,-0.39476228,0.98628736,-0.15986168,0.041004676,0
-2.5043337,1.7918049,-1.4258211,-0.98628736,0.15986168,-0.041004676,0
2.5665057,-3.6716514,1.5057173,0.98628736,-0.15986168,0.041004676,0
1.4972734,4.9799147,0.083452702,0.14765866,0.96573943,0.21341103,0
3.4911344,1.3920536,-1.168573,0.98628736,-0.15986168,0.041004676,0
0.98047447,-0.97468138,-2.251209,0.073716082,0.20442986,-0.97610158,0
2.6295307,-3.3692193,-1.7116514,0.98628736,-0.15986168,0.041004676,0
-2.1580086,-4.9251227,0.40613556,-0.14765866,-0.96573943,-0.21341103,0
1.8967807,3.6872625,2.9007039,-0.073716082,-0.20442986,0.97610158,0
2.7148845,1.5689132,-1.659779,0.073716082,0.20442986,-0.97610158,0
1.8500023,-1.2793701,-1.982152,0.073716082,0.20442986,-0.97610158,0
-0.63920522,4.4795074,-1.3381779,0.073716082,0.20442986,-0.97610158,0
-2.4370646,4.2764769,2.4280252,-0.98628736,0.15986168,-0.041004676,0
0.57729077,4.4076715,2.7452123,0.14765866,0.96573943,0.21341103,0
1.9246465,4.7651277,0.62113476,0.14765866,0.96573943,0.21341103,0
1.0516353,1.641305,2.6140749,-0.073716082,-0.20442986,0.97610158,0
-2.927319,-0.27341124,-0.73468697,-0.98628736,0.15986168,-0.041004676,0
-0.74026322,5.1524048,0.66630268,0.14765866,0.96573943,0.21341103,0
3.5691025,4.4250708,-0.013661861,0.98628736,-0.15986168,0.041004676,0
-3.2238333,-0.48858178,0.64294076,-0.98628736,0.15986168,-0.041004676,0
2.5392213,4.2225451,3.2042701,0.14765866,0.96573943,0.21341103,0
2.8301895,-2.3638413,-2.4527373,0.073716082,0.20442986,-0.97610158,0
-1.2062871,-4.5440536,-2.1574728,-0.14765866,-0.96573943,-0.21341103,0
-1.8547654,1.6581858,2.3799045,-0.073716082,-0.20442986,0.97610158,0
1.8525624,-5.3357849,-0.66225147,-0.14765866,-0.96573943,-0.21341103,0
2.0332611,-5.4638166,-0.42595482,-0.14765866,-0.96573943,-0.21341103,0
-1.5292925,-4.566659,-1.6114464,-0.14765866,-0.96573943,-0.21341103,0
1.1832974,-3.4212232,-2.787137,0.073716082,0.20442986,-0.97610158,0
-2.5939226,3.0402,1.312678,-0.98628736,0.15986168,-0.041004676,0
-1.4608321,4.9868793,1.7819583,0.14765866,0.96573943,0.21341103,0
-3.1654067,0.17300472,-0.37023503,-0.98628736,0.15986168,-0.041004676,0
-1.4220607,-4.226141,-2.8493409,-0.14765866,-0.96573943,-0.21341103,0
0.24029261,4.2616329,3.1412191,-0.073716082,-0.20442986,0.97610158,0
-2.5512204,-5.026835,0.53032255,-0.14765866,-0.96573943,-0.21341103,0
-0.99351275,-4.6607509,0.96638775,-0.073716082,-0.20442986,0.97610158,0
-2.0148406,-4.5203338,-1.5415273,-0.14765866,-0.96573943,-0.21341103,0
-3.0813494,-3.3340821,1.1152556,-0.073716082,-0.20442986,0.97610158,0
2.353394,-4.540257,-0.054796934,0.98628736,-0.15986168,0.041004676,0
1.5578573,-5.6135726,0.018589497,-0.14765866,-0.96573943,-0.21341103,0
-0.67863286,1.1273013,-1.7135861,0.073716082,0.20442986,-0.97610158,0
0.50122368,4.5960455,2.1087542,0.14765866,0.96573943,0.21341103,0
0.46210337,-4.7749596,-1.577765,-0.14765866,-0.96573943,-0.21341103,0
1.0831031,-0.45632946,-1.9734709,0.073716082,0.20442986,-0.97610158,0
2.963522,-1.2099771,-0.56861961,0.98628736,-0.15986168,0.041004676,0
-1.8745921,-3.7227912,1.1246097,-0.073716082,-0.20442986,0.97610158,0
3.0452251,0.077014446,-1.1182375,0.98628736,-0.15986168,0.041004676,0
2.9587886,-0.46425366,1.6443648,0.98628736,-0.15986168,0.041004676,0
-1.7548234,4.9972076,2.0615513,0.14765866,0.96573943,0.21341103,0
-2.4322577,3.7186418,1.5087517,-0.98628736,0.15986168,-0.041004676,0
1.5936685,4.9464045,0.71798754,0.14765866,0.96573943,0.21341103,0
-3.4235907,-3.0917556,-2.4283133,-0.98628736,0.15986168,-0.041004676,0
-3.307514,-2.2280426,0.29964328,-0.98628736,0.15986168,-0.041004676,0
-2.5813222,2.7605247,-0.34270155,-0.98628736,0.15986168,-0.041004676,0
-1.1932817,3.9271626,-1.4742718,0.073716082,0.20442986,-0.97610158,0
-2.9784079,-3.0961127,1.3233731,-0.073716082,-0.20442986,0.97610158,0
3.0640957,-0.70205992,1.108454,0.98628736,-0.15986168,0.041004676,0
-3.8382778,-4.4375172,0.40852976,-0.98628736,0.15986168,-0.041004676,0
-1.9970913,0.27474904,-2.1946623,0.073716082,0.20442986,-0.97610158,0
0.37156534,-3.5077534,-2.8545985,0.073716082,0.20442986,-0.97610158,0
-1.2434528,5.219121,-0.2252264,0.14765866,0.96573943,0.21341103,0
-2.4823263,2.8325737,1.9977851,-0.98628736,0.15986168,-0.041004676,0
1.6321518,3.6734655,3.133286,-0.073716082,-0.20442986,0.97610158,0
-0.80971014,-5.3135204,0.92635345,-0.14765866,-0.96573943,-0.21341103,0
3.2278059,1.4977268,2.2228425,0.98628736,-0.15986168,0.041004676,0
-3.7976844,-4.5197272,0.19369173,-0.14765866,-0.96573943,-0.21341103,0
-0.58678484,1.8893248,-1.6166517,0.073716082,0.20442986,-0.97610158,0
-2.3331294,5.1609058,2.2958119,0.14765866,0.96573943,0.21341103,0
2.4551291,-2.736783,1.1426551,0.98628736,-0.15986168,0.041004676,0
-2.3524635,4.9614754,-0.75837421,-0.98628736,0.15986168,-0.041004676,0
1.0085678,-5.706708,0.84625578,-0.14765866,-0.96573943,-0.21341103,0
3.2794878,1.1164138,1.6326396,0.98628736,-0.15986168,0.041004676,0
2.5129714,-0.98474264,-1.990103,0.073716082,0.20442986,-0.97610158,0
0.62171072,0.98158717,-1.9357121,0.073716082,0.20442986,-0.97610158,0
0.69352043,-4.8143034,-1.1972637,-0.14765866,-0.96573943,-0.21341103,0
2.575623,-3.5989251,-2.498662,0.073716082,0.20442986,-0.97610158,0
1.7869573,4.235157,2.6888399,0.14765866,0.96573943,0.21341103,0
0.59138882,-5.1452847,-1.3571079,-0.14765866,-0.96573943,-0.21341103,0
2.3769226,4.5912681,1.3011732,0.14765866,0.96573943,0.21341103,0
3.6934347,3.3349812,1.1178336,0.98628736,-0.15986168,0.041004676,0
-3.545043,-3.8942575,-0.71113396,-0.98628736,0.15986168,-0.041004676,0
-3.4288216,-3.0872421,-0.5664022,-0.98628736,0.15986168,-0.041004676,0
-2.4975417,4.5501642,-0.090906382,-0.98628736,0.15986168,-0.041004676,0
-2.4074836,4.7174606,2.6075361,-0.98628736,0.15986168,-0.041004676,0
2.9292023,-1.2049414,1.6220409,0.98628736,-0.15986168,0.041004676,0
2.0687506,-3.6205931,1.3775165,-0.073716082,-0.20442986,0.97610158,0
-1.924073,-4.9459996,0.45352411,-0.14765866,-0.96573943,-0.21341103,0
-2.4859242,4.197854,1.0504475,-0.98628736,0.15986168,-0.041004676,0
-3.4652729,-3.0439386,-0.51954651,-0.98628736,0.15986168,-0.041004676,0
1.3628315,4.8400784,0.016479969,0.14765866,0.96573943,0.21341103,0
-1.6344481,-2.4340274,1.5824172,-0.073716082,-0.20442986,0.97610158,0
-3.4426839,-1.7936399,0.97452831,-0.98628736,0.15986168,-0.041004676,0
3.5101941,2.7007203,2.5174623,0.98628736,-0.15986168,0.041004676,0
3.6853094,4.6366076,-0.59075212,0.14765866,0.96573943,0.21341103,0
3.2399645,0.47753161,1.0021143,0.98628736,-0.15986168,0.041004676,0
-0.58237469,4.0102062,-1.3608983,0.073716082,0.20442986,-0.97610158,0
3.0474606,1.8088531,-1.3456678,0.073716082,0.20442986,-0.97610158,0
3.017627,0.75935006,2.2650027,0.98628736,-0.15986168,0.041004676,0
2.8327203,-2.3383982,-0.4531858,0.98628736,-0.15986168,0.041004676,0
-1.6237833,5.3877034,0.6753397,0.14765866,0.96573943,0.21341103,0
2.8031301,-0.43576765,-0.68909431,0.98628736,-0.15986168,0.041004676,0
-2.3766811,3.4998963,-1.4853337,-0.98628736,0.15986168,-0.041004676,0
-3.0354497,0.68329525,-0.99939311,-0.98628736,0.15986168,-0.041004676,0
-3.2068644,-4.2293863,-2.7049339,-0.14765866,-0.96573943,-0.21341103,0
-0.45868421,-5.1534195,0.9053483,-0.073716082,-0.20442986,0.97610158,0
-3.4362068,-1.8865185,-0.33375072,-0.98628736,0.15986168,-0.041004676,0
2.2062466,4.9430461,-0.28873539,0.14765866,0.96573943,0.21341103,0
-3.0028896,-4.6911817,0.26254606,-0.14765866,-0.96573943,-0.21341103,0
-1.6995103,2.2187319,-1.78812,0.073716082,0.20442986,-0.97610158,0
-3.3852172,-2.9998484,-0.89279008,-0.98628736,0.15986168,-0.041004676,0
-3.4261301,-2.7568171,-1.7133915,-0.98628736,0.15986168,-0.041004676,0
-2.3235531,5.2672696,0.82578468,-0.98628736,0.15986168,-0.041004676,0
-0.24141687,-5.0568571,-0.72722292,-0.14765866,-0.96573943,-0.21341103,0
-3.4360514,-2.5063605,-0.55068183,-0.98628736,0.15986168,-0.041004676,0
-1.061774,4.9275355,2.6575203,0.14765866,0.96573943,0.21341103,0
0.78899145,-4.9466772,-2.2467613,-0.14765866,-0.96573943,-0.21341103,0
-0.50200593,-5.0109391,-0.78387356,-0.14765866,-0.96573943,-0.21341103,0
0.48264432,2.5667009,-1.3888917,0.073716082,0.20442986,-0.97610158,0
-1.422271,-5.0540686,0.48629284,-0.14765866,-0.96573943,-0.21341103,0
1.4319315,4.7912626,0.5016489,0.14765866,0.96573943,0.21341103,0
-0.47443581,1.9135518,-1.5832515,0.073716082,0.20442986,-0.97610158,0
-1.119904,-5.2513013,0.31029749,-0.14765866,-0.96573943,-0.21341103,0
-1.4638349,0.7475152,2.1907408,-0.073716082,-0.20442986,0.97610158,0
1.8374445,-5.7930975,0.63533974,-0.14765866,-0.96573943,-0.21341103,0
-0.53594822,-0.76437175,-2.2056711,0.073716082,0.20442986,-0.97610158,0
0.2983911,2.3267376,2.6002114,-0.073716082,-0.20442986,0.97610158,0
2.2210422,-5.1857967,0.4886117,0.98628736,-0.15986168,0.041004676,0
-3.5311224,-4.0377097,0.13400602,-0.98628736,0.15986168,-0.041004676,0
-1.6387935,4.0960317,-1.480602,0.073716082,0.20442986,-0.97610158,0
2.0893314,-5.1844893,0.54374266,0.98628736,-0.15986168,0.041004676,0
2.0278831,5.0261264,-0.21567297,0.14765866,0.96573943,0.21341103,0
-2.8589544,-4.645247,-0.88927746,-0.14765866,-0.96573943,-0.21341103,0
-2.0989375,-4.1655049,-2.7647924,-0.14765866,-0.96573943,-0.21341103,0
1.7700313,0.29246426,2.2539797,-0.073716082,-0.20442986,0.97610158,0
-2.3241506,0.011672974,1.9083217,-0.073716082,-0.20442986,0.97610158,0
-0.29172933,-5.2002325,-0.55639553,-0.14765866,-0.96573943,-0.21341103,0
0.86693859,-5.5600924,0.54350805,-0.14765866,-0.96573943,-0.21341103,0
-2.278091,4.4159813,2.4145727,-0.98628736,0.15986168,-0.041004676,0
-1.3783076,4.7965703,2.6902294,0.14765866,0.96573943,0.21341103,0
-1.3542938,-1.35149,1.5932881,-0.073716082,-0.20442986,0.97610158,0
-0.074796557,5.0742311,0.3207345,0.14765866,0.96573943,0.21341103,0
0.14483237,-4.8295798,-0.81362772,-0.14765866,-0.96573943,-0.21341103,0
1.6493087,2.8739512,2.7358434,-0.073716082,-0.20442986,0.97610158,0
2.5558534,-3.3675261,-1.5517939,0.98628736,-0.15986168,0.041004676,0
-1.0999873,3.6061845,2.6765981,-0.073716082,-0.20442986,0.97610158,0
-0.3119489,-4.9914331,0.24454641,-0.14765866,-0.96573943,-0.21341103,0
-2.1752734,-1.1237602,-2.4562495,0.073716082,0.20442986,-0.97610158,0
3.3874681,2.0359139,-0.24701929,0.98628736,-0.15986168,0.041004676,0
-0.50304633,-0.72851753,-2.3942347,0.073716082,0.20442986,-0.97610158,0
2.8459749,2.9106102,-1.2142777,0.073716082,0.20442986,-0.97610158,0
-1.9756218,0.99819934,2.1262338,-0.073716082,-0.20442986,0.97610158,0
-0.57194448,0.71814728,-2.0291274,0.073716082,0.20442986,-0.97610158,0
-1.7248552,5.3481841,0.26258755,0.14765866,0.96573943,0.21341103,0
0.82181525,-5.3642807,0.88684845,-0.073716082,-0.20442986,0.97610158,0
0.87485909,5.0980382,0.34445333,0.14765866,0.96573943,0.21341103,0
2.8241754,1.5487247,-1.5916364,0.073716082,0.20442986,-0.97610158,0
0.66210544,3.5529654,-1.4457145,0.073716082,0.20442986,-0.97610158,0
3.5680535,4.7202191,-0.54216862,0.14765866,0.96573943,0.21341103,0
-0.75327516,5.1403847,1.4516325,0.14765866,0.96573943,0.21341103,0
2.8752806,-1.321507,-0.55277681,0.98628736,-0.15986168,0.041004676,0
-3.1590874,-4.1813436,-2.4136958,-0.14765866,-0.96573943,-0.21341103,0
0.20742452,4.2932391,2.9211555,0.14765866,0.96573943,0.21341103,0
-3.0682054,-3.4927745,-3.0068552,0.073716082,0.20442986,-0.97610158,0
3.1691008,0.091653883,0.19057381,0.98628736,-0.15986168,0.041004676,0
0.039602876,4.9928637,-1.1759028,0.073716082,0.20442986,-0.97610158,0
0.21429276,-4.9647136,-1.5774081,-0.14765866,-0.96573943,-0.21341103,0
3.5367665,2.3161411,0.21149826,0.98628736,-0.15986168,0.041004676,0
0.24495238,-0.58068109,1.9766611,-0.073716082,-0.20442986,0.97610158,0
3.0076687,-0.28176486,-1.4377214,0.98628736,-0.15986168,0.041004676,0
0.76792324,1.1714003,-1.5539041,0.073716082,0.20442986,-0.97610158,0
0.21664074,4.208755,2.8867745,-0.073716082,-0.20442986,0.97610158,0
-1.0011238,-4.7210751,-0.49669218,-0.14765866,-0.96573943,-0.21341103,0
-3.09007,-4.1511798,-1.5845873,-0.14765866,-0.96573943,-0.21341103,0
2.4577205,-4.0027542,-1.6460065,0.98628736,-0.15986168,0.041004676,0
3.5400655,4.2076426,2.5974598,0.14765866,0.96573943,0.21341103,0
-1.4026396,5.3102298,0.91696763,0.14765866,0.96573943,0.21341103,0
2.8210781,-1.6768426,-1.5098557,0.98628736,-0.15986168,0.041004676,0
-2.7668405,-3.6759298,-2.8613698,0.073716082,0.20442986,-0.97610158,0
-2.4082701,0.13641989,-2.2204525,0.073716082,0.20442986,-0.97610158,0
-1.6303675,5.334897,0.46193647,0.14765866,0.96573943,0.21341103,0
-0.27500057,5.0216479,0.47163963,0.14765866,0.96573943,0.21341103,0
0.53974128,-4.9403462,-1.0236657,-0.14765866,-0.96573943,-0.21341103,0
1.3154848,0.97310543,-1.8673193,0.073716082,0.20442986,-0.97610158,0
2.9534612,-0.67632794,-1.6814983,0.98628736,-0.15986168,0.041004676,0
0.21155584,4.7206068,2.414192,0.14765866,0.96573943,0.21341103,0
2.02281,-1.3678753,2.0303407,-0.073716082,-0.20442986,0.97610158,0
1.0763469,-4.0316458,-3.0145683,0.073716082,0.20442986,-0.97610158,0
-2.7436073,-2.8259492,-2.6916633,0.073716082,0.20442986,-0.97610158,0
2.5312974,-1.3626995,2.0292807,-0.073716082,-0.20442986,0.97610158,0
-1.2619292,-4.6368098,-2.3074832,-0.14765866,-0.96573943,-0.21341103,0
2.3633564,-3.1062908,-0.1643672,0.98628736,-0.15986168,0.041004676,0
1.7828963,-3.4044871,1.6556075,-0.073716082,-0.20442986,0.97610158,0
-1.0223234,-4.6901965,-2.3468788,-0.14765866,-0.96573943,-0.21341103,0
0.15345907,-4.2059956,1.148675,-0.073716082,-0.20442986,0.97610158,0
-3.0324166,-0.75043035,-1.0300968,-0.98628736,0.15986168,-0.041004676,0
-0.46776378,2.818296,-1.452843,0.073716082,0.20442986,-0.97610158,0
-3.0511549,0.7410056,-0.93273365,-0.98628736,0.15986168,-0.041004676,0
-3.682323,-4.4505062,-0.27352047,-0.98628736,0.15986168,-0.041004676,0
-1.0898136,-4.3649869,-2.9507766,-0.14765866,-0.96573943,-0.21341103,0
0.64409709,-5.1728883,0.46841335,-0.14765866,-0.96573943,-0.21341103,0
-2.9016626,1.5007794,1.827317,-0.98628736,0.15986168,-0.041004676,0
2.3340392,4.6051607,1.3294444,0.14765866,0.96573943,0.21341103,0
2.7349164,-0.92865193,-0.71433347,0.98628736,-0.15986168,0.041004676,0
3.0057333,-0.11230016,-1.7906425,0.98628736,-0.15986168,0.041004676,0
-0.77691984,4.0892653,-1.2828832,0.073716082,0.20442986,-0.97610158,0
2.6643794,-2.0476601,-1.1110461,0.98628736,-0.15986168,0.041004676,0
2.2316432,-4.7585545,0.35701942,0.98628736,-0.15986168,0.041004676,0
2.0523891,4.4750285,1.165206,0.14765866,0.96573943,0.21341103,0
-2.7666817,-4.1704855,-2.2760754,-0.14765866,-0.96573943,-0.21341103,0
-1.1980627,5.2894564,1.0559387,0.14765866,0.96573943,0.21341103,0
-3.4987814,-3.203285,1.1121461,-0.98628736,0.15986168,-0.041004676,0
-0.31534743,4.619113,1.9539278,0.14765866,0.96573943,0.21341103,0
2.5560384,-1.9254935,-0.39196515,0.98628736,-0.15986168,0.041004676,0
2.8426425,-1.3489951,1.0028679,0.98628736,-0.15986168,0.041004676,0
0.58697313,3.5296693,2.6364417,-0.073716082,-0.20442986,0.97610158,0
-3.4991899,-4.6007547,-0.22174168,-0.14765866,-0.96573943,-0.21341103,0
-3.3082955,-2.6243255,-1.7246193,-0.98628736,0.15986168,-0.041004676,0
-3.2576339,-4.9705648,0.48129129,-0.14765866,-0.96573943,-0.21341103,0
-2.4686563,3.6950457,-1.496053,-0.98628736,0.15986168,-0.041004676,0
-3.6851559,-3.8685079,-1.332459,-0.98628736,0.15986168,-0.041004676,0
-3.5249732,-4.0400786,-1.7103486,-0.98628736,0.15986168,-0.041004676,0
0.71701801,0.42576694,-1.8381405,0.073716082,0.20442986,-0.97610158,0
3.7285063,3.2663164,-0.87221169,0.98628736,-0.15986168,0.041004676,0
-3.6045465,-4.73417,-0.33761501,-0.14765866,-0.96573943,-0.21341103,0
-3.0898647,0.067833528,-0.3529774,-0.98628736,0.15986168,-0.041004676,0
-2.8510222,2.1823533,1.0298419,-0.98628736,0.15986168,-0.041004676,0
-0.029464245,4.7727375,-1.0361528,0.073716082,0.20442986,-0.97610158,0
3.1264765,0.44109958,1.5473955,0.98628736,-0.15986168,0.041004676,0
0.72907603,-2.0961566,1.5992119,-0.073716082,-0.20442986,0.97610158,0
-3.3720875,-4.3797088,-0.80362415,-0.14765866,-0.96573943,-0.21341103,0
1.3977118,4.7545452,0.58722067,0.14765866,0.96573943,0.21341103,0
2.0751677,3.6295352,3.0572412,-0.073716082,-0.20442986,0.97610158,0
1.3483543,-5.0681376,-1.6669688,-0.14765866,-0.96573943,-0.21341103,0
-2.8155971,1.980913,0.098861456,-0.98628736,0.15986168,-0.041004676,0
-3.6842537,-4.6893911,0.55674458,-0.14765866,-0.96573943,-0.21341103,0
-2.7311821,-4.7931433,0.6762085,-0.073716082,-0.20442986,0.97610158,0
-3.5043006,-4.4821105,-1.3498716,-0.14765866,-0.96573943,-0.21341103,0
3.1309447,4.7407045,0.46385574,0.14765866,0.96573943,0.21341103,0
0.057775769,-0.98561633,-2.376039,0.073716082,0.20442986,-0.97610158,0
-2.2356277,5.38235,1.118547,0.14765866,0.96573943,0.21341103,0
3.1968386,0.39733636,0.12415683,0.98628736,-0.15986168,0.041004676,0
-2.329627,1.1670375,2.1821027,-0.073716082,-0.20442986,0.97610158,0
2.7920837,-1.2260885,1.7278993,0.98628736,-0.15986168,0.041004676,0
-0.67576867,-4.5122833,-3.0494661,-0.14765866,-0.96573943,-0.21341103,0
2.3651783,-3.3282113,0.67764306,0.98628736,-0.15986168,0.041004676,0
-1.6200814,-4.3891063,1.1837835,-0.073716082,-0.20442986,0.97610158,0
1.0968133,4.3411908,2.9797781,-0.073716082,-0.20442986,0.97610158,0
3.160537,0.1439392,0.21096104,0.98628736,-0.15986168,0.041004676,0
2.0057147,1.2896111,-1.4873674,0.073716082,0.20442986,-0.97610158,0
3.27262,0.57422662,-1.309087,0.98628736,-0.15986168,0.041004676,0
-2.8826654,2.0946484,-0.35516882,-0.98628736,0.15986168,-0.041004676,0
2.0537138,4.1060624,3.1452799,0.14765866,0.96573943,0.21341103,0
0.40117553,2.4875598,2.6970577,-0.073716082,-0.20442986,0.97610158,0
-0.90964568,-5.0333414,0.39868546,-0.14765866,-0.96573943,-0.21341103,0
0.89241487,3.1097703,-1.2286873,0.073716082,0.20442986,-0.97610158,0
-0.46270609,4.2760859,2.9579854,-0.073716082,-0.20442986,0.97610158,0
-0.68527496,4.8099608,2.0121758,0.14765866,0.96573943,0.21341103,0
-1.3486029,-5.0688648,0.74771357,-0.14765866,-0.96573943,-0.21341103,0
1.8968599,4.9408555,-0.074997902,0.14765866,0.96573943,0.21341103,0
1.108505,-4.6222248,-2.734457,-0.14765866,-0.96573943,-0.21341103,0
-1.6279316,5.0604939,0.80335069,0.14765866,0.96573943,0.21341103,0
-2.5607529,3.1572251,0.18419123,-0.98628736,0.15986168,-0.041004676,0
2.1104274,-4.3769612,1.2647038,0.98628736,-0.15986168,0.041004676,0
2.2181847,-0.971241,-2.1263351,0.073716082,0.20442986,-0.97610158,0
1.1334248,4.3974471,2.7809625,0.14765866,0.96573943,0.21341103,0
-1.5334665,-4.6611972,-1.6039088,-0.14765866,-0.96573943,-0.21341103,0
-2.5730445,3.2384486,1.8495728,-0.98628736,0.15986168,-0.041004676,0
1.4020841,3.4387801,-1.3015096,0.073716082,0.20442986,-0.97610158,0
2.9452887,0.20221186,1.9287368,0.98628736,-0.15986168,0.041004676,0
3.4882064,4.5007858,0.94463205,0.14765866,0.96573943,0.21341103,0
-3.2487671,-1.7886708,0.027933836,-0.98628736,0.15986168,-0.041004676,0
-3.5946198,-3.3538179,1.0287788,-0.98628736,0.15986168,-0.041004676,0
0.75806546,3.6254382,2.9344931,-0.073716082,-0.20442986,0.97610158,0
2.4164217,-4.277142,0.96288848,0.98628736,-0.15986168,0.041004676,0
3.2810469,2.5796695,2.3964162,0.98628736,-0.15986168,0.041004676,0
-3.6529715,-4.1006279,-2.6612389,-0.98628736,0.15986168,-0.041004676,0
2.1917927,-5.0346146,-1.6914532,-0.14765866,-0.96573943,-0.21341103,0
-2.0308995,-4.2559099,-2.017235,-0.14765866,-0.96573943,-0.21341103,0
-2.6750591,3.4308119,0.30822086,-0.98628736,0.15986168,-0.041004676,0
-3.4960194,-2.2954817,1.0327091,-0.98628736,0.15986168,-0.041004676,0
-2.2844455,5.0125351,1.5322926,0.14765866,0.96573943,0.21341103,0
0.52108693,5.2130022,-0.36543798,0.14765866,0.96573943,0.21341103,0
0.66502368,-5.0673003,-1.6412184,-0.14765866,-0.96573943,-0.21341103,0
-0.44340229,1.0683544,-1.8310685,0.073716082,0.20442986,-0.97610158,0
1.8544312,5.0183678,-0.050579548,0.14765866,0.96573943,0.21341103,0
-1.6253834,3.0340352,-1.4346917,0.073716082,0.20442986,-0.97610158,0
-2.1080856,4.9522753,2.5634532,0.14765866,0.96573943,0.21341103,0
-1.1051729,3.760334,-1.4082994,0.073716082,0.20442986,-0.97610158,0
-0.88641167,5.3813372,0.32390499,0.14765866,0.96573943,0.21341103,0
0.60667527,4.9900341,-0.41134882,0.14765866,0.96573943,0.21341103,0
-0.57137144,4.7493086,2.5694685,0.14765866,0.96573943,0.21341103,0
-2.2259462,-4.8594933,-0.5815587,-0.14765866,-0.96573943,-0.21341103,0
0.097789884,4.8332129,-0.947999,0.073716082,0.20442986,-0.97610158,0
-3.627589,-4.1990666,0.55582714,-0.98628736,0.15986168,-0.041004676,0
-2.6836095,1.7015668,1.0043613,-0.98628736,0.15986168,-0.041004676,0
-1.0308936,2.3773808,-1.6503979,0.073716082,0.20442986,-0.97610158,0
2.3959918,-4.557694,-0.8786087,0.98628736,-0.15986168,0.041004676,0
2.9559591,-0.19706511,1.7609292,0.98628736,-0.15986168,0.041004676,0
2.7855692,4.9289474,-0.16605663,0.14765866,0.96573943,0.21341103,0
-0.22838467,-4.992331,-0.9628458,-0.14765866,-0.96573943,-0.21341103,0
-2.380532,-2.9786191,-2.6578677,0.073716082,0.20442986,-0.97610158,0
-0.49841881,5.4456863,-0.92140388,0.14765866,0.96573943,0.21341103,0
-2.9798119,-0.63655508,-0.20712006,-0.98628736,0.15986168,-0.041004676,0
-1.2353973,2.9772973,-1.4727058,0.073716082,0.20442986,-0.97610158,0
-0.29834628,-0.23580372,1.7807091,-0.073716082,-0.20442986,0.97610158,0
0.43808487,4.4070497,3.0991013,-0.073716082,-0.20442986,0.97610158,0
-2.8118665,2.5211172,-0.45330191,-0.98628736,0.15986168,-0.041004676,0
-0.37252691,-4.8074846,-1.6269379,-0.14765866,-0.96573943,-0.21341103,0
-2.9889901,-4.0672464,-2.4145241,-0.14765866,-0.96573943,-0.21341103,0
-1.5291393,5.2782898,0.2507329,0.14765866,0.96573943,0.21341103,0
3.233916,4.1629167,2.493824,0.14765866,0.96573943,0.21341103,0
1.2591517,2.927237,2.6891668,-0.073716082,-0.20442986,0.97610158,0
-2.1835108,-2.6240633,-2.7063568,0.073716082,0.20442986,-0.97610158,0
-2.6110871,1.6647205,-1.6370611,-0.98628736,0.15986168,-0.041004676,0
0.29257864,4.8857417,-1.0284696,0.073716082,0.20442986,-0.97610158,0
0.74212408,1.8302782,2.4307852,-0.073716082,-0.20442986,0.97610158,0
-3.041219,0.86921418,-0.86742055,-0.98628736,0.15986168,-0.041004676,0
1.6367028,0.5099957,2.4492092,-0.073716082,-0.20442986,0.97610158,0
3.0678809,-1.3907636,-2.1600146,0.98628736,-0.15986168,0.041004676,0
-3.1390581,-1.8481255,-1.1979315,-0.98628736,0.15986168,-0.041004676,0
-3.5731411,-3.3951466,-1.4130661,-0.98628736,0.15986168,-0.041004676,0
3.228415,1.2098743,2.5159883,0.98628736,-0.15986168,0.041004676,0
3.2683024,2.2241647,0.8697331,0.98628736,-0.15986168,0.041004676,0
3.2088232,1.275054,2.1784923,0.98628736,-0.15986168,0.041004676,0
2.0777719,-1.8654432,-2.3789444,0.073716082,0.20442986,-0.97610158,0
3.0441079,-1.5670736,-1.6094061,0.98628736,-0.15986168,0.041004676,0
-0.32073557,-3.6179919,1.3622189,-0.073716082,-0.20442986,0.97610158,0
-2.7701492,-4.424304,-0.56031275,-0.14765866,-0.96573943,-0.21341103,0
-2.6217594,3.9695566,1.2136111,-0.98628736,0.15986168,-0.041004676,0
-2.1764143,4.8157377,2.6291237,0.14765866,0.96573943,0.21341103,0
1.3970954,-2.4327192,1.5305541,-0.073716082,-0.20442986,0.97610158,0
-2.8447344,0.27042699,0.84421188,-0.98628736,0.15986168,-0.041004676,0
-1.6981193,-4.222827,-2.8392344,-0.14765866,-0.96573943,-0.21341103,0
-0.35482749,-4.7776537,-2.075851,-0.14765866,-0.96573943,-0.21341103,0
0.83323002,-3.4232967,1.3926578,-0.073716082,-0.20442986,0.97610158,0
-1.4457839,1.4203308,2.1704769,-0.073716082,-0.20442986,0.97610158,0
1.8512812,-0.00075268745,2.0726707,-0.073716082,-0.20442986,0.97610158,0
-3.5610092,-2.8111291,-1.7113044,-0.98628736,0.15986168,-0.041004676,0
-1.7727137,2.6268518,2.4370284,-0.073716082,-0.20442986,0.97610158,0
-1.1834159,5.3923059,0.63823366,0.14765866,0.96573943,0.21341103,0
3.1819882,0.86967301,1.9725698,0.98628736,-0.15986168,0.041004676,0
-2.438684,-4.2949891,-2.514199,-0.14765866,-0.96573943,-0.21341103,0
3.4840772,2.1200576,-1.0202296,0.98628736,-0.15986168,0.041004676,0
3.1748288,0.76952863,-0.29133856,0.98628736,-0.15986168,0.041004676,0
3.8388486,3.7404265,-0.64415884,0.98628736,-0.15986168,0.041004676,0
-1.798512,5.8092575,-1.0515914,0.14765866,0.96573943,0.21341103,0
3.0157411,0.63982713,-0.1355443,0.98628736,-0.15986168,0.041004676,0
3.4548028,3.8202024,0.61991906,0.98628736,-0.15986168,0.041004676,0
2.4988031,-3.8103957,-0.64216471,0.98628736,-0.15986168,0.041004676,0
0.10272872,5.0822477,0.69920731,0.14765866,0.96573943,0.21341103,0
-2.1586747,-4.5530982,-0.63210583,-0.14765866,-0.96573943,-0.21341103,0
-3.325825,-1.2607936,-2.1139829,-0.98628736,0.15986168,-0.041004676,0
2.4549346,2.2819622,2.5361714,-0.073716082,-0.20442986,0.97610158,0
3.5487216,4.1591921,2.3256192,0.98628736,-0.15986168,0.041004676,0
-0.084324837,4.8626633,1.075352,0.14765866,0.96573943,0.21341103,0
-0.7864092,-4.1906862,-3.1690173,0.073716082,0.20442986,-0.97610158,0
-0.14295006,-4.9437113,-1.1471891,-0.14765866,-0.96573943,-0.21341103,0
-2.6310568,1.0433617,-1.5550292,-0.98628736,0.15986168,-0.041004676,0
2.8458533,-1.1387442,-0.60150087,0.98628736,-0.15986168,0.041004676,0
-3.1409953,-4.3055673,-2.2003911,-0.14765866,-0.96573943,-0.21341103,0
-2.4142957,3.6202164,0.023757219,-0.98628736,0.15986168,-0.041004676,0
-0.59124494,-4.595387,-2.1787822,-0.14765866,-0.96573943,-0.21341103,0
-0.31423324,0.66048956,2.218874,-0.073716082,-0.20442986,0.97610158,0
2.3205085,4.433712,2.1448917,0.14765866,0.96573943,0.21341103,0
1.7011678,4.7213888,1.7096872,0.14765866,0.96573943,0.21341103,0
-2.5285048,-4.4117527,-2.2205029,-0.14765866,-0.96573943,-0.21341103,0
3.3668685,4.0339398,1.9985633,0.14765866,0.96573943,0.21341103,0
2.4520657,0.27051699,2.2245681,-0.073716082,-0.20442986,0.97610158,0
1.1391535,-5.1919618,-1.0578711,-0.14765866,-0.96573943,-0.21341103,0
1.1095043,1.0291867,2.3210711,-0.073716082,-0.20442986,0.97610158,0
-1.0038545,5.1435318,-1.2359791,0.073716082,0.20442986,-0.97610158,0
-3.0251269,-1.5515695,-2.2493024,-0.98628736,0.15986168,-0.041004676,0
2.3172963,4.1962309,2.0105691,0.14765866,0.96573943,0.21341103,0
1.0799743,5.1096067,-0.12342978,0.14765866,0.96573943,0.21341103,0
1.8690213,3.9145861,2.8825474,-0.073716082,-0.20442986,0.97610158,0
2.0284548,-5.1090841,-2.1222944,-0.14765866,-0.96573943,-0.21341103,0
2.9808264,-1.5676285,-0.14779305,0.98628736,-0.15986168,0.041004676,0
-1.8379363,-5.0103054,0.68951273,-0.14765866,-0.96573943,-0.21341103,0
-0.038438082,-4.1864738,-2.7701492,0.073716082,0.20442986,-0.97610158,0
-1.4326376,-1.6611464,1.4614021,-0.073716082,-0.20442986,0.97610158,0
2.814414,0.13644475,1.4243071,0.98628736,-0.15986168,0.041004676,0
1.3173268,-3.4260767,1.3134429,-0.073716082,-0.20442986,0.97610158,0
-2.8797388,-4.2669659,-1.4895735,-0.14765866,-0.96573943,-0.21341103,0
-0.26226187,5.076458,-0.057962418,0.14765866,0.96573943,0.21341103,0
3.3732347,2.2623653,1.5639607,0.98628736,-0.15986168,0.041004676,0
-2.6314168,-4.9283571,0.11078882,-0.14765866,-0.96573943,-0.21341103,0
2.9124057,-1.3868481,-1.9891946,0.98628736,-0.15986168,0.041004676,0
1.9410861,-5.1288095,-1.1475294,-0.14765866,-0.96573943,-0.21341103,0
1.5195565,4.9011507,0.81284904,0.14765866,0.96573943,0.21341103,0
-0.51790619,-4.9039083,-0.60810375,-0.14765866,-0.96573943,-0.21341103,0
-1.935643,0.07279706,-2.230864,0.073716082,0.20442986,-0.97610158,0
0.21585178,5.3317919,-0.14940786,0.14765866,0.96573943,0.21341103,0
1.8797657,4.1133318,-0.84323645,0.073716082,0.20442986,-0.97610158,0
0.81307453,4.505918,1.6230993,0.14765866,0.96573943,0.21341103,0
1.5365102,-5.2692623,-0.90391827,-0.14765866,-0.96573943,-0.21341103,0
-3.4973891,-2.4144561,-0.62194371,-0.98628736,0.15986168,-0.041004676,0
-1.1236672,-2.3205366,-2.5343757,0.073716082,0.20442986,-0.97610158,0
0.9150815,1.0022212,2.2908061,-0.073716082,-0.20442986,0.97610158,0
0.90900373,-4.828886,-2.4413562,-0.14765866,-0.96573943,-0.21341103,0
-0.19008298,-0.67174816,1.7456889,-0.073716082,-0.20442986,0.97610158,0
-2.3404751,3.1730738,0.005241394,-0.98628736,0.15986168,-0.041004676,0
3.1540866,4.3891144,0.66279554,0.14765866,0.96573943,0.21341103,0
-3.0563948,0.33106601,-1.2604733,-0.98628736,0.15986168,-0.041004676,0
-0.46072417,-4.4862156,-2.7967212,-0.14765866,-0.96573943,-0.21341103,0
1.4906801,4.9595971,-0.70608234,0.14765866,0.96573943,0.21341103,0
-1.2909695,0.48921227,2.1566927,-0.073716082,-0.20442986,0.97610158,0
1.3928957,4.3138671,2.0237374,0.14765866,0.96573943,0.21341103,0
1.9230206,4.8581228,0.070305824,0.14765866,0.96573943,0.21341103,0
3.7531841,3.714689,1.2352815,0.98628736,-0.15986168,0.041004676,0
3.4024858,2.3229051,-0.7890265,0.98628736,-0.15986168,0.041004676,0
1.0076776,-2.3880229,1.7250668,-0.073716082,-0.20442986,0.97610158,0
-2.7765923,0.45832527,-2.1275237,0.073716082,0.20442986,-0.97610158,0
2.0239778,4.6548409,-0.91763973,0.073716082,0.20442986,-0.97610158,0
0.14101762,2.3491549,-1.484104,0.073716082,0.20442986,-0.97610158,0
2.1808615,4.6552629,-0.75288343,0.073716082,0.20442986,-0.97610158,0
-1.7557659,-4.9442797,0.22970819,-0.14765866,-0.96573943,-0.21341103,0
3.0825131,-0.26927745,-1.7328106,0.073716082,0.20442986,-0.97610158,0
-3.2246981,-0.37879062,0.47813737,-0.98628736,0.15986168,-0.041004676,0
0.69167531,-1.0619109,2.0272465,-0.073716082,-0.20442986,0.97610158,0
-1.6946968,-1.4284141,1.5685337,-0.073716082,-0.20442986,0.97610158,0
-0.15970492,4.7987351,2.5611351,0.14765866,0.96573943,0.21341103,0
-3.2789392,-4.6346784,0.29403353,-0.14765866,-0.96573943,-0.21341103,0
-1.6903902,-0.15731704,-2.1851482,0.073716082,0.20442986,-0.97610158,0
-2.936533,0.79993099,-0.20387091,-0.98628736,0.15986168,-0.041004676,0
-3.290597,-2.9527552,-1.4214771,-0.98628736,0.15986168,-0.041004676,0
-0.71197313,-3.1387887,-2.8682771,0.073716082,0.20442986,-0.97610158,0
1.3397014,4.8929801,-0.046132565,0.14765866,0.96573943,0.21341103,0
-3.0430992,-4.0097704,-2.8938665,-0.14765866,-0.96573943,-0.21341103,0
0.69083691,-4.9022775,-2.6069417,-0.14765866,-0.96573943,-0.21341103,0
-3.1812713,-0.93625712,-0.3005451,-0.98628736,0.15986168,-0.041004676,0
-2.7103648,1.6050014,1.822998,-0.98628736,0.15986168,-0.041004676,0
0.72592205,-1.527467,-2.3545778,0.073716082,0.20442986,-0.97610158,0
1.1145766,-5.0224915,-1.4442587,-0.14765866,-0.96573943,-0.21341103,0
-2.2555997,2.4786975,2.5478518,-0.073716082,-0.20442986,0.97610158,0
2.5547259,4.9386959,-0.30142021,0.14765866,0.96573943,0.21341103,0
-2.974484,1.8565996,1.2956762,-0.98628736,0.15986168,-0.041004676,0
1.801412,4.9978609,-0.2733264,0.14765866,0.96573943,0.21341103,0
2.6467876,2.9469478,-1.3412237,0.073716082,0.20442986,-0.97610158,0
-3.2315419,-2.589937,-2.6998959,0.073716082,0.20442986,-0.97610158,0
-1.9620519,-4.2653046,-1.8456144,-0.14765866,-0.96573943,-0.21341103,0
2.3533635,4.43716,1.9231942,0.14765866,0.96573943,0.21341103,0
-3.7433913,-4.8866758,0.47130585,-0.14765866,-0.96573943,-0.21341103,0
-2.0258236,-4.4000268,-2.255899,-0.14765866,-0.96573943,-0.21341103,0
2.011518,-0.75028574,-2.0797975,0.073716082,0.20442986,-0.97610158,0
3.7446454,4.1814518,0.086735725,0.98628736,-0.15986168,0.041004676,0
2.4104822,-4.6416478,0.4651053,0.98628736,-0.15986168,0.041004676,0
1.0966558,-2.0110371,-2.3523314,0.073716082,0.20442986,-0.97610158,0
2.2324996,-3.9633472,-0.82673573,0.98628736,-0.15986168,0.041004676,0
-3.73071,-4.0419269,-2.542814,-0.98628736,0.15986168,-0.041004676,0
0.76590645,2.4983931,-1.3002787,0.073716082,0.20442986,-0.97610158,0
1.4386685,2.0026689,2.5708044,-0.073716082,-0.20442986,0.97610158,0
-3.4275372,-2.6010945,-1.6478491,-0.98628736,0.15986168,-0.041004676,0
-2.075222,-2.8344669,1.4127183,-0.073716082,-0.20442986,0.97610158,0
1.9439578,1.3193486,-1.8126669,0.073716082,0.20442986,-0.97610158,0
-2.8440928,-0.3404628,-1.8830857,-0.98628736,0.15986168,-0.041004676,0
2.2949786,0.39164889,2.1511431,-0.073716082,-0.20442986,0.97610158,0
-3.2430975,-0.78286821,-0.8904292,-0.98628736,0.15986168,-0.041004676,0
2.1986353,-4.3046951,1.1303596,0.98628736,-0.15986168,0.041004676,0
3.5716729,4.5353627,-0.2271862,0.14765866,0.96573943,0.21341103,0
2.155705,4.782783,0.24610662,0.14765866,0.96573943,0.21341103,0
3.334172,0.47000778,-0.43441141,0.98628736,-0.15986168,0.041004676,0
-3.5764878,-3.3520288,-0.13438058,-0.98628736,0.15986168,-0.041004676,0
-3.7664454,-4.1512833,-2.5227821,-0.14765866,-0.96573943,-0.21341103,0
-3.1226873,-2.454829,1.3720338,-0.073716082,-0.20442986,0.97610158,0
-2.861804,0.69570309,-0.66194111,-0.98628736,0.15986168,-0.041004676,0
-2.5315299,-4.3992615,-2.1438074,-0.14765866,-0.96573943,-0.21341103,0
2.1785204,-5.6312633,0.83646393,0.98628736,-0.15986168,0.041004676,0
1.9768617,4.5541577,0.928936,0.14765866,0.96573943,0.21341103,0
-3.1959386,-2.6642427,-2.582655,-0.98628736,0.15986168,-0.041004676,0
2.584692,4.8510642,-0.11211443,0.14765866,0.96573943,0.21341103,0
-0.6807515,-4.9063873,-1.2219784,-0.14765866,-0.96573943,-0.21341103,0
2.3650923,-2.7685027,-2.5037589,0.073716082,0.20442986,-0.97610158,0
-1.0851933,4.6271696,2.6530125,0.14765866,0.96573943,0.21341103,0
2.5145252,4.6847715,0.24108696,0.14765866,0.96573943,0.21341103,0
3.0204124,-0.13680676,0.4137713,0.98628736,-0.15986168,0.041004676,0
-2.5315669,1.9109025,-1.7031699,0.073716082,0.20442986,-0.97610158,0
2.8356891,0.39180541,2.1530716,0.98628736,-0.15986168,0.041004676,0
-1.1599298,4.7239246,2.2416697,0.14765866,0.96573943,0.21341103,0
-2.8755512,-0.44659945,-1.090847,-0.98628736,0.15986168,-0.041004676,0
1.9577422,-3.254055,1.5180995,-0.073716082,-0.20442986,0.97610158,0
0.24127156,4.8517661,1.1159191,0.14765866,0.96573943,0.21341103,0
-1.0799539,5.2155962,0.64133167,0.14765866,0.96573943,0.21341103,0
1.7019364,4.6901484,0.58593702,0.14765866,0.96573943,0.21341103,0
-2.7978547,0.74678206,0.44086611,-0.98628736,0.15986168,-0.041004676,0
3.7807548,4.5598769,0.87214231,0.14765866,0.96573943,0.21341103,0
-2.8164983,0.20870173,-1.8766694,-0.98628736,0.15986168,-0.041004676,0
2.6515594,-3.223299,1.6440699,0.98628736,-0.15986168,0.041004676,0
-1.2991816,-1.782269,1.4652632,-0.073716082,-0.20442986,0.97610158,0
-2.6725757,3.3566976,2.3795147,-0.98628736,0.15986168,-0.041004676,0
2.8710845,-0.94204581,1.7720476,0.98628736,-0.15986168,0.041004676,0
-1.1064943,0.65191197,-1.8235693,0.073716082,0.20442986,-0.97610158,0
-3.3322697,-2.0556128,-0.50177646,-0.98628736,0.15986168,-0.041004676,0
3.2790864,2.0338275,-0.8347249,0.98628736,-0.15986168,0.041004676,0
1.3153834,-5.7262778,0.77733612,-0.14765866,-0.96573943,-0.21341103,0
-2.3669853,-3.7849803,-3.1638982,0.073716082,0.20442986,-0.97610158,0
1.1768478,3.2641134,-1.459219,0.073716082,0.20442986,-0.97610158,0
1.2302008,-2.9706602,1.5870903,-0.073716082,-0.20442986,0.97610158,0
2.9860711,4.230576,2.8648026,0.14765866,0.96573943,0.21341103,0
-2.5344293,4.44803,2.9369082,-0.073716082,-0.20442986,0.97610158,0
-2.6691809,0.999174,-1.3767878,-0.98628736,0.15986168,-0.041004676,0
1.9832642,4.8878212,-0.79776192,0.14765866,0.96573943,0.21341103,0
2.147049,4.9376431,0.51753283,0.14765866,0.96573943,0.21341103,0
-3.4588945,-2.9575949,-3.0202351,-0.98628736,0.15986168,-0.041004676,0
0.90329003,-4.9668984,0.96004057,-0.073716082,-0.20442986,0.97610158,0
0.72154629,-3.7095582,-2.8081622,0.073716082,0.20442986,-0.97610158,0
-2.9693823,0.36598593,0.41801941,-0.98628736,0.15986168,-0.041004676,0
-2.4707639,4.4364009,0.071198702,-0.98628736,0.15986168,-0.041004676,0
2.3259454,0.054615974,-1.7567946,0.073716082,0.20442986,-0.97610158,0
2.2101488,4.0927677,2.580936,0.14765866,0.96573943,0.21341103,0
-2.4381428,-1.296875,1.6281067,-0.073716082,-0.20442986,0.97610158,0
-2.0423853,5.1921124,0.46534252,0.14765866,0.96573943,0.21341103,0
-3.0552199,-4.2921715,-1.4962895,-0.14765866,-0.96573943,-0.21341103,0
0.041546822,4.6917157,2.2957819,0.14765866,0.96573943,0.21341103,0
-2.6067493,3.5464575,1.0450239,-0.98628736,0.15986168,-0.041004676,0
-0.84592128,-0.97187543,1.8579046,-0.073716082,-0.20442986,0.97610158,0
-1.5135679,5.1102252,-1.0467405,0.073716082,0.20442986,-0.97610158,0
-3.587358,-2.4515567,1.0475059,-0.98628736,0.15986168,-0.041004676,0
-2.8046498,1.394662,1.8759813,-0.98628736,0.15986168,-0.041004676,0
1.564496,-5.51931,0.46195984,-0.14765866,-0.96573943,-0.21341103,0
0.039659142,5.3653889,-0.30286455,0.14765866,0.96573943,0.21341103,0
-2.3218884,-4.788794,-0.48495054,-0.14765866,-0.96573943,-0.21341103,0
-3.1073198,-1.4541309,-0.76105309,-0.98628736,0.15986168,-0.041004676,0
-2.0535314,-4.5739002,-0.94167233,-0.14765866,-0.96573943,-0.21341103,0
-2.7940772,2.9534223,1.7570707,-0.98628736,0.15986168,-0.041004676,0
-1.4938939,-2.1946166,-2.6948433,0.073716082,0.20442986,-0.97610158,0
-2.4561062,2.9959908,2.2273784,-0.98628736,0.15986168,-0.041004676,0
0.10751706,-1.8485203,1.6988397,-0.073716082,-0.20442986,0.97610158,0
-2.2542224,-4.4975414,-1.9513886,-0.14765866,-0.96573943,-0.21341103,0
-1.2733009,-4.3560934,-2.648869,-0.14765866,-0.96573943,-0.21341103,0
-3.5415626,-1.6618235,1.0459356,-0.98628736,0.15986168,-0.041004676,0
-1.6077262,0.23220134,2.0838437,-0.073716082,-0.20442986,0.97610158,0
1.7314444,-5.4103498,-0.99123621,-0.14765866,-0.96573943,-0.21341103,0
-2.0216184,4.9608674,2.1554365,0.14765866,0.96573943,0.21341103,0
-3.6941106,-4.5208111,0.43535423,-0.98628736,0.15986168,-0.041004676,0
-0.98487592,5.2720351,0.95937586,0.14765866,0.96573943,0.21341103,0
-2.8189368,1.3000431,1.2000854,-0.98628736,0.15986168,-0.041004676,0
0.79611158,-5.145637,-1.1793437,-0.14765866,-0.96573943,-0.21341103,0
-2.7207205,-3.2278295,1.2611709,-0.073716082,-0.20442986,0.97610158,0
-1.688498,2.8172865,-1.7315339,0.073716082,0.20442986,-0.97610158,0
3.7984304,4.2267213,1.4511547,0.14765866,0.96573943,0.21341103,0
-3.0618441,-2.3926945,-2.8640475,0.073716082,0.20442986,-0.97610158,0
-0.49808383,4.5289059,-1.0967624,0.073716082,0.20442986,-0.97610158,0
0.50472254,5.2975764,-0.99253893,0.073716082,0.20442986,-0.97610158,0
3.2212427,0.71790332,-0.01349926,0.98628736,-0.15986168,0.041004676,0
1.8749712,1.9689113,2.5391314,-0.073716082,-0.20442986,0.97610158,0
-2.3105013,3.9925661,0.25907445,-0.98628736,0.15986168,-0.041004676,0
-2.3650095,4.9983749,2.4088452,0.14765866,0.96573943,0.21341103,0
1.408947,-4.6052494,-3.0740366,0.073716082,0.20442986,-0.97610158,0
-0.93141127,2.4254181,-1.7814376,0.073716082,0.20442986,-0.97610158,0
-3.1063809,0.21596575,-1.1798842,-0.98628736,0.15986168,-0.041004676,0
-3.443563,-2.7896905,-2.7355771,-0.98628736,0.15986168,-0.041004676,0
2.0039232,5.026413,-0.58731222,0.14765866,0.96573943,0.21341103,0
3.5658031,2.381609,-0.41880465,0.98628736,-0.15986168,0.041004676,0
2.9590912,0.073130488,2.2384961,-0.073716082,-0.20442986,0.97610158,0
-0.91877437,-4.9924145,0.42599392,-0.14765866,-0.96573943,-0.21341103,0
2.6956201,3.7253106,-0.94204116,0.073716082,0.20442986,-0.97610158,0
-1.6568646,-4.5944734,-1.1235826,-0.14765866,-0.96573943,-0.21341103,0
0.75685358,4.425468,-0.97665119,0.073716082,0.20442986,-0.97610158,0
1.3338306,-2.5190835,-2.5143278,0.073716082,0.20442986,-0.97610158,0
-2.6125631,-4.1045594,1.0667658,-0.073716082,-0.20442986,0.97610158,0
1.5185082,1.0891707,-1.8702385,0.073716082,0.20442986,-0.97610158,0
-2.1554244,5.6132059,-0.76793385,0.14765866,0.96573943,0.21341103,0
0.52129018,4.5534554,2.6039937,0.14765866,0.96573943,0.21341103,0
3.0945625,1.7953808,2.7259121,0.98628736,-0.15986168,0.041004676,0
-3.5560606,-3.8034072,-2.4198663,-0.98628736,0.15986168,-0.041004676,0
0.0042233467,5.1940789,-0.78117752,0.14765866,0.96573943,0.21341103,0
-3.4383392,-4.2377315,-2.6343606,-0.14765866,-0.96573943,-0.21341103,0
3.3652086,0.89662886,-0.90112245,0.98628736,-0.15986168,0.041004676,0
2.1177716,-0.63205767,-1.8352928,0.073716082,0.20442986,-0.97610158,0
1.5232984,4.9308753,0.70924902,0.14765866,0.96573943,0.21341103,0
-1.0382409,5.0121021,0.84799027,0.14765866,0.96573943,0.21341103,0
-3.5178556,-2.9301491,-1.9574938,-0.98628736,0.15986168,-0.041004676,0
0.56480157,4.2538223,3.0473881,-0.073716082,-0.20442986,0.97610158,0
3.3381915,1.4223828,0.251562,0.98628736,-0.15986168,0.041004676,0
2.072634,-5.2208381,-0.51453733,0.98628736,-0.15986168,0.041004676,0
-1.1636434,2.4115067,-1.7341455,0.073716082,0.20442986,-0.97610158,0
-3.4005256,-2.1137366,0.69969654,-0.98628736,0.15986168,-0.041004676,0
1.6450578,4.2994566,3.0917799,0.14765866,0.96573943,0.21341103,0
-1.3113861,-4.1917553,-2.7497163,-0.14765866,-0.96573943,-0.21341103,0
0.78545523,0.94050121,-1.8792208,0.073716082,0.20442986,-0.97610158,0
-2.2412863,5.3511276,1.5826366,0.14765866,0.96573943,0.21341103,0
0.18621457,3.0824213,-1.5928557,0.073716082,0.20442986,-0.97610158,0
1.3830115,0.82021475,2.3475566,-0.073716082,-0.20442986,0.97610158,0
1.9014058,5.1994901,-0.54154253,0.14765866,0.96573943,0.21341103,0
-2.8697317,0.010117888,-2.4178009,0.073716082,0.20442986,-0.97610158,0
3.1327901,4.4038839,1.9997106,0.14765866,0.96573943,0.21341103,0
2.7061174,-1.4715334,-0.5195924,0.98628736,-0.15986168,0.041004676,0
3.060379,1.0579062,1.1304979,0.98628736,-0.15986168,0.041004676,0
3.3578205,0.8154676,-1.5069691,0.98628736,-0.15986168,0.041004676,0
2.9831867,-0.6456989,-1.7610538,0.98628736,-0.15986168,0.041004676,0
-2.6312046,1.8135977,2.0335245,-0.073716082,-0.20442986,0.97610158,0
3.7333274,3.2651219,-0.78689313,0.98628736,-0.15986168,0.041004676,0
-2.0386436,4.0224056,2.8194466,-0.073716082,-0.20442986,0.97610158,0
-2.8616371,-4.6349955,0.68608141,-0.073716082,-0.20442986,0.97610158,0
2.3702316,-3.3029172,-1.4627994,0.98628736,-0.15986168,0.041004676,0
3.400223,4.2892833,1.9970853,0.14765866,0.96573943,0.21341103,0
-1.2340918,2.7455971,-1.3776336,0.073716082,0.20442986,-0.97610158,0
-0.17371786,0.17928469,-1.9041986,0.073716082,0.20442986,-0.97610158,0
0.38136327,-5.023735,0.97567368,-0.073716082,-0.20442986,0.97610158,0
-3.0582168,-1.4459131,1.6823055,-0.073716082,-0.20442986,0.97610158,0
2.6144195,-3.2029247,-0.56484425,0.98628736,-0.15986168,0.041004676,0
2.1899483,-5.0111108,-1.229773,0.98628736,-0.15986168,0.041004676,0
-3.1098819,0.33054996,0.41557121,-0.98628736,0.15986168,-0.041004676,0
3.1835859,0.13257253,1.97611,0.98628736,-0.15986168,0.041004676,0
-2.3186529,4.4453282,0.021110058,-0.98628736,0.15986168,-0.041004676,0
-3.5868983,-3.9592304,-2.2036026,-0.14765866,-0.96573943,-0.21341103,0
0.83844864,-2.4663978,1.405664,-0.073716082,-0.20442986,0.97610158,0
1.5446093,3.177844,2.6527977,-0.073716082,-0.20442986,0.97610158,0
-3.3502479,-2.7784557,-3.0475981,-0.98628736,0.15986168,-0.041004676,0
1.6152561,-4.8736968,-2.8496292,-0.14765866,-0.96573943,-0.21341103,0
0.6489861,-4.8028345,-1.9807556,-0.14765866,-0.96573943,-0.21341103,0
0.3864857,-5.1758599,0.54263926,-0.14765866,-0.96573943,-0.21341103,0
-0.21309288,-2.1146779,-2.6868,0.073716082,0.20442986,-0.97610158,0
-3.1349738,-4.3421912,-1.9356291,-0.14765866,-0.96573943,-0.21341103,0
-1.9643688,0.25813627,-2.291518,0.073716082,0.20442986,-0.97610158,0
2.3935823,4.6791291,0.70799541,0.14765866,0.96573943,0.21341103,0
-2.0203125,3.2217002,2.565331,-0.073716082,-0.20442986,0.97610158,0
0.045297146,-5.0006275,-0.28375721,-0.14765866,-0.96573943,-0.21341103,0
3.3967836,2.0932128,-1.4910231,0.98628736,-0.15986168,0.041004676,0
-0.81651711,5.0641212,-1.0438714,0.073716082,0.20442986,-0.97610158,0
-3.3358059,-0.88604522,-0.050335288,-0.98628736,0.15986168,-0.041004676,0
-1.0390224,3.6277401,-1.3259873,0.073716082,0.20442986,-0.97610158,0
1.3495758,1.585171,-1.6816512,0.073716082,0.20442986,-0.97610158,0
-0.72331405,1.8852727,2.2861159,-0.073716082,-0.20442986,0.97610158,0
-2.9719632,1.101773,-1.2308615,-0.98628736,0.15986168,-0.041004676,0
1.7084408,-5.3715563,-0.29354858,-0.14765866,-0.96573943,-0.21341103,0
0.32673287,-2.3589289,1.653183,-0.073716082,-0.20442986,0.97610158,0
2.8619206,-2.6870263,-1.5584502,0.98628736,-0.15986168,0.041004676,0
-0.31950206,-2.2995944,-2.6378322,0.073716082,0.20442986,-0.97610158,0
-2.7537918,2.1607425,-1.054908,-0.98628736,0.15986168,-0.041004676,0
1.8723629,-2.4337497,1.6678615,-0.073716082,-0.20442986,0.97610158,0
-1.2753758,1.6678858,2.4466426,-0.073716082,-0.20442986,0.97610158,0
0.71633053,-5.2982831,-0.78953886,-0.14765866,-0.96573943,-0.21341103,0
3.3389156,0.67105722,-1.6351936,0.98628736,-0.15986168,0.041004676,0
-1.4853659,-4.4588962,-2.7876694,-0.14765866,-0.96573943,-0.21341103,0
0.65523636,-4.8011284,-1.6184638,-0.14765866,-0.96573943,-0.21341103,0
-0.42385256,4.9035153,1.3327971,0.14765866,0.96573943,0.21341103,0
3.0837336,4.4934821,1.7647908,0.14765866,0.96573943,0.21341103,0
-0.64859462,-5.2823024,0.71160364,-0.14765866,-0.96573943,-0.21341103,0
1.8716749,5.0112219,-0.61655855,0.14765866,0.96573943,0.21341103,0
2.0831757,4.4261074,1.7940531,0.14765866,0.96573943,0.21341103,0
0.38155842,-4.426084,-2.7321353,-0.14765866,-0.96573943,-0.21341103,0
-0.83359516,-4.4173789,-2.7692857,-0.14765866,-0.96573943,-0.21341103,0
-3.5132289,-4.0982447,-1.5925403,-0.98628736,0.15986168,-0.041004676,0
1.1700318,-4.6582298,-2.8404436,-0.14765866,-0.96573943,-0.21341103,0
