-1.5114417,-4.6085439,-2.067174,-0.5523349,-0.68490493,-0.47521734,0
-3.9289622,-3.8018608,-0.1116128,-0.5523349,-0.68490493,-0.47521734,0
0.74638605,5.0880966,0.26752377,-0.80032009,0.59518772,0.072383195,0
-3.3342156,-0.19094229,-2.4884894,-0.80032009,0.59518772,0.072383195,0
0.5898459,-3.0367196,-0.68333888,0.80032009,-0.59518772,-0.072383195,0
-3.1111703,-2.1224256,-3.86256,-0.5523349,-0.68490493,-0.47521734,0
2.3147218,2.7364831,3.6701667,0.5523349,0.68490493,0.47521734,0
2.3467393,2.9176676,3.9002233,0.5523349,0.68490493,0.47521734,0
2.702801,-0.68910128,0.05011934,0.80032009,-0.59518772,-0.072383195,0
1.5123982,4.1401176,-0.53634548,0.23326789,0.42030585,-0.87688613,0
-2.578501,-3.8435745,-1.7292085,-0.5523349,-0.68490493,-0.47521734,0
-3.3467741,-0.017999142,-0.16535079,-0.80032009,0.59518772,0.072383195,0
-4.5035434,-2.2468109,-2.1614885,-0.5523349,-0.68490493,-0.47521734,0
0.39671123,4.7278066,1.4122272,-0.80032009,0.59518772,0.072383195,0
-2.855731,0.057494104,0.0086758137,-0.80032009,0.59518772,0.072383195,0
1.8670437,-1.985755,-0.14305747,0.80032009,-0.59518772,-0.072383195,0
3.4442029,2.9869547,2.3928137,0.5523349,0.68490493,0.47521734,0
3.3195229,3.3879828,1.5580921,0.5523349,0.68490493,0.47521734,0
0.65159398,3.0888848,4.4827251,-0.23326789,-0.42030585,0.87688613,0
-4.0463314,-2.7815449,-1.8596802,-0.5523349,-0.68490493,-0.47521734,0
4.1251373,1.0393584,1.5847914,0.80032009,-0.59518772,-0.072383195,0
-1.9973178,-2.9489536,-4.2356977,-0.5523349,-0.68490493,-0.47521734,0
2.3298197,-1.1594616,-0.21659023,0.80032009,-0.59518772,-0.072383195,0
-1.1547511,-5.6704559,-0.67056465,0.80032009,-0.59518772,-0.072383195,0
0.63865769,-3.0674791,-0.3011992,0.80032009,-0.59518772,-0.072383195,0
-0.7167064,-4.7098942,-3.1767573,-0.5523349,-0.68490493,-0.47521734,0
-1.5141912,2.3737338,-1.1573415,-0.80032009,0.59518772,0.072383195,0
3.2846024,3.5558701,1.7905569,0.5523349,0.68490493,0.47521734,0
3.5530913,0.36182046,1.9832629,0.80032009,-0.59518772,-0.072383195,0
-0.82462394,-5.1887217,-1.4016352,0.80032009,-0.59518772,-0.072383195,0
-1.5672369,-2.8799191,1.002059,-0.23326789,-0.42030585,0.87688613,0
-2.252775,-4.0316749,-2.3436499,-0.5523349,-0.68490493,-0.47521734,0
-1.0186352,2.8950279,-0.12357855,-0.80032009,0.59518772,0.072383195,0
3.3489892,-0.062474966,0.97229838,0.80032009,-0.59518772,-0.072383195,0
-0.70256233,3.1100857,3.2362058,-0.80032009,0.59518772,0.072383195,0
1.228032,-2.7805243,1.08548,0.80032009,-0.59518772,-0.072383195,0
-1.0190413,0.79294515,-2.8066902,0.23326789,0.42030585,-0.87688613,0
3.0639579,4.7085133,0.55989408,0.5523349,0.68490493,0.47521734,0
-2.0895548,1.3049476,0.031995624,-0.80032009,0.59518772,0.072383195,0
0.45633018,0.039811611,3.0721374,-0.23326789,-0.42030585,0.87688613,0
-2.3621359,-3.8152359,-2.0603294,-0.5523349,-0.68490493,-0.47521734,0
-1.9812174,1.7522471,-0.91875899,-0.80032009,0.59518772,0.072383195,0
-3.6479769,-2.0495908,-2.9964452,-0.5523349,-0.68490493,-0.47521734,0
-2.5126913,0.83978832,-1.0162884,-0.80032009,0.59518772,0.072383195,0
-1.5296378,2.4305296,-2.055228,-0.80032009,0.59518772,0.072383195,0
-2.0551586,-2.8426371,0.82930326,-0.23326789,-0.42030585,0.87688613,0
-0.50267243,-4.2302494,-3.5230627,-0.5523349,-0.68490493,-0.47521734,0
-0.977319,2.7238207,0.30288529,-0.80032009,0.59518772,0.072383195,0
-1.2217767,-2.5107603,1.2086999,-0.23326789,-0.42030585,0.87688613,0
2.1047697,3.1908469,3.132679,0.5523349,0.68490493,0.47521734,0
0.98865712,4.9615588,2.105906,0.5523349,0.68490493,0.47521734,0
-3.1156795,0.11385113,0.80678564,-0.80032009,0.59518772,0.072383195,0
2.6368718,1.640023,-1.4002688,0.23326789,0.42030585,-0.87688613,0
1.8139193,4.4896536,1.8546762,0.5523349,0.68490493,0.47521734,0
-0.035118818,-4.0203304,-4.5880046,0.80032009,-0.59518772,-0.072383195,0
-4.305213,-1.8364457,1.0249047,-0.23326789,-0.42030585,0.87688613,0
2.7021451,0.80792165,-1.9443712,0.23326789,0.42030585,-0.87688613,0
-0.64064693,-0.35983372,2.3116884,-0.23326789,-0.42030585,0.87688613,0
-3.8210249,-1.5064058,-4.064496,-0.5523349,-0.68490493,-0.47521734,0
-2.6067011,1.0221982,-2.4456978,-0.80032009,0.59518772,0.072383195,0
-2.3190148,1.6822908,-2.5812607,-0.80032009,0.59518772,0.072383195,0
-3.9119868,-2.427783,-2.471189,-0.5523349,-0.68490493,-0.47521734,0
-4.0462661,-2.9623625,0.57206345,-0.23326789,-0.42030585,0.87688613,0
1.6895045,2.0955372,4.2409368,-0.23326789,-0.42030585,0.87688613,0
-1.8990142,-5.2886057,-0.36739635,-0.5523349,-0.68490493,-0.47521734,0
-0.025604248,3.7642524,2.1492765,-0.80032009,0.59518772,0.072383195,0
1.2809966,-2.3664176,-2.0799518,0.80032009,-0.59518772,-0.072383195,0
1.357241,-1.7324409,-3.0009215,0.80032009,-0.59518772,-0.072383195,0
0.41144234,2.0899539,3.9157925,-0.23326789,-0.42030585,0.87688613,0
1.7869163,4.5276952,1.8101263,0.5523349,0.68490493,0.47521734,0
3.9216704,3.3867273,0.82411337,0.5523349,0.68490493,0.47521734,0
-0.05930233,3.8617392,3.0942323,-0.80032009,0.59518772,0.072383195,0
1.7445564,-1.8871399,0.47159034,0.80032009,-0.59518772,-0.072383195,0
4.0772419,1.0424521,3.2557867,0.80032009,-0.59518772,-0.072383195,0
3.6402242,2.4064918,2.9915838,0.5523349,0.68490493,0.47521734,0
4.3498015,3.5258584,0.39723301,0.5523349,0.68490493,0.47521734,0
2.4082754,2.7138014,-0.73979664,0.23326789,0.42030585,-0.87688613,0
2.5959787,2.1731663,-1.2927995,0.23326789,0.42030585,-0.87688613,0
-4.1481781,-3.2891817,-1.0704737,-0.5523349,-0.68490493,-0.47521734,0
-1.1367441,2.6160355,-0.34606719,-0.80032009,0.59518772,0.072383195,0
-3.8448288,-2.5308459,0.41777134,-0.23326789,-0.42030585,0.87688613,0
-1.2316358,-3.9083002,-3.1943607,-0.5523349,-0.68490493,-0.47521734,0
-1.0355735,-4.7074871,0.37967014,-0.23326789,-0.42030585,0.87688613,0
-3.935811,-1.7984741,-3.5279577,-0.5523349,-0.68490493,-0.47521734,0
-2.4546199,-5.0113082,-0.34716034,-0.5523349,-0.68490493,-0.47521734,0
-1.9235905,1.7685384,-0.89091682,-0.80032009,0.59518772,0.072383195,0
4.0066485,3.0493114,1.8745599,0.5523349,0.68490493,0.47521734,0
-0.47599328,-4.7450261,-1.0384879,0.80032009,-0.59518772,-0.072383195,0
0.51966357,-3.7042084,1.1686227,-0.23326789,-0.42030585,0.87688613,0
2.9557114,4.4281082,0.74887419,0.5523349,0.68490493,0.47521734,0
-0.88305652,-0.47900558,-3.1296201,0.23326789,0.42030585,-0.87688613,0
0.88215524,-2.4895597,-3.1432989,0.80032009,-0.59518772,-0.072383195,0
-4.0862784,-3.8130541,-0.12616062,-0.5523349,-0.68490493,-0.47521734,0
2.4596617,4.2124538,1.4122357,0.5523349,0.68490493,0.47521734,0
1.4952049,1.2701073,4.0393686,-0.23326789,-0.42030585,0.87688613,0
0.95272881,0.32060266,-2.2221229,0.23326789,0.42030585,-0.87688613,0
1.5179098,-2.5686917,1.2063512,0.80032009,-0.59518772,-0.072383195,0
-2.9706051,-3.2406402,-2.2858343,-0.5523349,-0.68490493,-0.47521734,0
0.69208694,-3.2012172,-1.6289625,0.80032009,-0.59518772,-0.072383195,0
2.1074898,1.8884674,-1.3819988,0.23326789,0.42030585,-0.87688613,0
-0.58384532,-2.8425992,-4.1824389,0.23326789,0.42030585,-0.87688613,0
0.77121294,-2.4893956,-3.5581651,0.80032009,-0.59518772,-0.072383195,0
-0.80951643,3.1157451,-1.7260599,-0.80032009,0.59518772,0.072383195,0
0.35951555,0.93764305,-2.4696722,0.23326789,0.42030585,-0.87688613,0
2.2484071,2.3755808,4.4093394,-0.23326789,-0.42030585,0.87688613,0
2.2884855,1.5161693,-1.3421891,0.23326789,0.42030585,-0.87688613,0
3.4970405,0.12853289,0.89015436,0.80032009,-0.59518772,-0.072383195,0
3.9915125,2.0325282,-0.70918894,0.23326789,0.42030585,-0.87688613,0
-3.5441513,-0.9784463,1.0437572,-0.80032009,0.59518772,0.072383195,0
1.4190483,1.6277509,-1.6235807,0.23326789,0.42030585,-0.87688613,0
2.8000975,-0.29336023,3.310246,-0.23326789,-0.42030585,0.87688613,0
2.0165141,3.9588423,2.7321649,0.5523349,0.68490493,0.47521734,0
0.45153999,5.1349297,-0.14558697,-0.80032009,0.59518772,0.072383195,0
3.3875403,2.1451023,3.4286692,0.5523349,0.68490493,0.47521734,0
3.3145723,0.055596352,3.2107582,0.80032009,-0.59518772,-0.072383195,0
-4.821456,-2.8009598,-1.2561169,-0.5523349,-0.68490493,-0.47521734,0
3.3565502,0.054169893,1.4703095,0.80032009,-0.59518772,-0.072383195,0
2.6658995,-0.6866709,-1.772873,0.80032009,-0.59518772,-0.072383195,0
0.69494557,1.3548894,-2.0316842,0.23326789,0.42030585,-0.87688613,0
2.3395131,4.990324,0.17052889,0.23326789,0.42030585,-0.87688613,0
-0.45660961,1.0637679,3.0881934,-0.23326789,-0.42030585,0.87688613,0
4.2584109,1.7969143,0.49492884,0.80032009,-0.59518772,-0.072383195,0
-0.29051661,-2.0660801,1.8137184,-0.23326789,-0.42030585,0.87688613,0
3.5241525,0.68915606,0.5303936,0.80032009,-0.59518772,-0.072383195,0
-1.4342506,-5.7261906,-0.4007082,-0.23326789,-0.42030585,0.87688613,0
-1.5382699,-0.041388035,-3.4644427,0.23326789,0.42030585,-0.87688613,0
-0.42452896,3.1811361,3.6262672,-0.80032009,0.59518772,0.072383195,0
-3.5282125,-2.8892026,-1.9634662,-0.5523349,-0.68490493,-0.47521734,0
-2.3992407,0.76339328,1.9562306,-0.80032009,0.59518772,0.072383195,0
-1.1007208,2.8945625,0.54341531,-0.80032009,0.59518772,0.072383195,0
-2.2701168,-0.63503504,-3.9147611,0.23326789,0.42030585,-0.87688613,0
0.30476391,-3.5392871,-1.5400171,0.80032009,-0.59518772,-0.072383195,0
4.365273,0.98739815,4.2846546,0.5523349,0.68490493,0.47521734,0
4.1523776,3.7406011,0.54300737,0.5523349,0.68490493,0.47521734,0
-3.6398203,-2.9835913,-1.8274503,-0.5523349,-0.68490493,-0.47521734,0
-4.427299,-2.5396314,-1.920094,-0.5523349,-0.68490493,-0.47521734,0
4.1615152,3.1422825,1.2813349,0.5523349,0.68490493,0.47521734,0
1.4216526,2.1046686,-1.4769015,0.23326789,0.42030585,-0.87688613,0
-2.5999055,-3.5689867,-2.5039911,-0.5523349,-0.68490493,-0.47521734,0
-3.9094732,-0.95321417,-4.4138098,0.23326789,0.42030585,-0.87688613,0
1.9487789,-1.0754368,-1.5966526,0.80032009,-0.59518772,-0.072383195,0
2.1828074,2.9872689,4.0829592,0.5523349,0.68490493,0.47521734,0
2.1117017,-0.60662746,-2.3757749,0.23326789,0.42030585,-0.87688613,0
1.1261158,4.2856464,2.8462911,0.5523349,0.68490493,0.47521734,0
-2.9629717,0.45922899,-3.351831,-0.80032009,0.59518772,0.072383195,0
0.92853594,-0.45902085,2.9592483,-0.23326789,-0.42030585,0.87688613,0
1.0700698,-2.7078326,-1.2297707,0.80032009,-0.59518772,-0.072383195,0
2.4598513,-0.075144768,-2.134557,0.23326789,0.42030585,-0.87688613,0
-3.5260301,-2.8867099,-1.9060574,-0.5523349,-0.68490493,-0.47521734,0
1.1205051,4.8946066,-0.04581213,0.23326789,0.42030585,-0.87688613,0
0.16973364,-3.7191992,-4.1627283,0.80032009,-0.59518772,-0.072383195,0
4.2931314,1.1174335,2.2287788,0.80032009,-0.59518772,-0.072383195,0
-0.97241426,-4.7643676,-2.3389907,-0.5523349,-0.68490493,-0.47521734,0
-2.1686616,1.1742343,-0.77233529,-0.80032009,0.59518772,0.072383195,0
4.5627365,3.4172497,-0.02387476,0.5523349,0.68490493,0.47521734,0
-2.6987975,-4.8536205,-0.58632374,-0.5523349,-0.68490493,-0.47521734,0
2.7817948,-0.8777262,1.1009424,0.80032009,-0.59518772,-0.072383195,0
0.044461727,-1.9306653,1.9549904,-0.23326789,-0.42030585,0.87688613,0
4.3103223,0.92816162,3.0881255,0.80032009,-0.59518772,-0.072383195,0
2.9153726,4.1798258,-0.10235977,0.23326789,0.42030585,-0.87688613,0
-0.41505575,-4.7672443,-0.90615177,0.80032009,-0.59518772,-0.072383195,0
3.9686167,0.57749271,3.1521952,0.80032009,-0.59518772,-0.072383195,0
2.1508856,4.5318842,1.2476087,0.5523349,0.68490493,0.47521734,0
-1.800933,-4.1397328,-2.1308494,-0.5523349,-0.68490493,-0.47521734,0
1.7885979,-2.0579271,-0.51371098,0.80032009,-0.59518772,-0.072383195,0
-2.2162213,0.73632836,-2.9464169,0.23326789,0.42030585,-0.87688613,0
-0.25483894,2.1194482,-1.6834257,0.23326789,0.42030585,-0.87688613,0
0.2398901,1.8939748,-1.9936261,0.23326789,0.42030585,-0.87688613,0
4.1731625,2.4840534,2.3650937,0.5523349,0.68490493,0.47521734,0
-0.89567059,0.36923409,-2.9811301,0.23326789,0.42030585,-0.87688613,0
3.2764449,4.1186948,1.1917791,0.5523349,0.68490493,0.47521734,0
1.7845463,5.0080624,1.4743056,0.5523349,0.68490493,0.47521734,0
4.6285148,1.7558817,2.3511105,0.5523349,0.68490493,0.47521734,0
-2.7759693,0.74843407,-0.21053302,-0.80032009,0.59518772,0.072383195,0
1.348766,4.5132046,2.2019591,0.5523349,0.68490493,0.47521734,0
4.1177011,2.5594873,1.6310687,0.5523349,0.68490493,0.47521734,0
3.6277835,0.43035245,2.1608446,0.80032009,-0.59518772,-0.072383195,0
-4.4423709,-3.3515418,-0.15379477,-0.23326789,-0.42030585,0.87688613,0
-1.0087047,-2.0867677,-4.0052748,0.23326789,0.42030585,-0.87688613,0
-0.39392161,3.9891529,-1.0037029,-0.80032009,0.59518772,0.072383195,0
-2.2342355,1.5899417,-2.3918233,-0.80032009,0.59518772,0.072383195,0
2.6692429,3.1919911,-0.82347965,0.23326789,0.42030585,-0.87688613,0
-0.79382366,2.7961555,2.5983171,-0.80032009,0.59518772,0.072383195,0
-4.6339355,-2.4641633,0.53052664,-0.23326789,-0.42030585,0.87688613,0
-3.1531088,0.23044991,-0.83251297,-0.80032009,0.59518772,0.072383195,0
3.3280897,2.4692333,3.4422691,0.5523349,0.68490493,0.47521734,0
-0.86662316,0.38101411,-2.7202027,0.23326789,0.42030585,-0.87688613,0
-2.8690252,-3.0942802,-2.613276,-0.5523349,-0.68490493,-0.47521734,0
4.4759445,2.6364279,1.8644309,0.5523349,0.68490493,0.47521734,0
-0.58388424,-1.6505976,2.0644338,-0.23326789,-0.42030585,0.87688613,0
3.7270212,1.2926812,3.9613607,0.5523349,0.68490493,0.47521734,0
2.6413836,1.9599357,-1.3878515,0.23326789,0.42030585,-0.87688613,0
-0.020741761,0.17156672,-2.9217267,0.23326789,0.42030585,-0.87688613,0
-1.9247367,0.68234825,2.8507307,-0.23326789,-0.42030585,0.87688613,0
-2.731544,0.45645785,-1.303653,-0.80032009,0.59518772,0.072383195,0
2.3327971,3.7177563,2.0899715,0.5523349,0.68490493,0.47521734,0
-3.1974516,0.060658544,0.2497772,-0.80032009,0.59518772,0.072383195,0
-0.99148345,1.6519988,3.4137549,-0.23326789,-0.42030585,0.87688613,0
-1.4713472,-0.95712185,2.0361001,-0.23326789,-0.42030585,0.87688613,0
-0.76477098,-4.3558264,0.65203476,-0.23326789,-0.42030585,0.87688613,0
0.68394053,-3.4801474,0.21319032,0.80032009,-0.59518772,-0.072383195,0
2.2449496,-1.2220342,1.2242684,0.80032009,-0.59518772,-0.072383195,0
-2.406718,1.1986982,-1.2519808,-0.80032009,0.59518772,0.072383195,0
1.0948435,-2.8151736,1.3386985,0.80032009,-0.59518772,-0.072383195,0
0.99714053,5.298789,1.1054249,-0.80032009,0.59518772,0.072383195,0
-3.2670441,-2.8483295,-2.4187908,-0.5523349,-0.68490493,-0.47521734,0
-1.8518181,-5.0190558,-0.2193675,-0.23326789,-0.42030585,0.87688613,0
4.3947191,1.430518,0.29874802,0.80032009,-0.59518772,-0.072383195,0
-1.5731068,1.9563084,0.27916801,-0.80032009,0.59518772,0.072383195,0
3.3637624,2.5966775,2.7761536,0.5523349,0.68490493,0.47521734,0
-4.1504898,-3.6363795,-0.073453903,-0.5523349,-0.68490493,-0.47521734,0
-3.27122,-2.7538035,0.46279621,-0.23326789,-0.42030585,0.87688613,0
-0.069775462,4.1966133,0.72074795,-0.80032009,0.59518772,0.072383195,0
3.9401109,1.2957884,0.25483656,0.80032009,-0.59518772,-0.072383195,0
0.25685549,-0.4998858,-3.0286746,0.23326789,0.42030585,-0.87688613,0
-4.2390146,-1.5775752,-3.1399705,-0.5523349,-0.68490493,-0.47521734,0
-0.4532432,0.59263611,-2.6284657,0.23326789,0.42030585,-0.87688613,0
3.2234635,1.7305851,4.5868902,0.5523349,0.68490493,0.47521734,0
-1.7882105,-3.6876609,-2.8951516,-0.5523349,-0.68490493,-0.47521734,0
-2.9077983,-3.5622616,0.46181774,-0.23326789,-0.42030585,0.87688613,0
3.2252727,3.4065197,1.8815885,0.5523349,0.68490493,0.47521734,0
-3.6282601,-0.48524117,-2.6201828,-0.80032009,0.59518772,0.072383195,0
-2.2539482,-2.7462153,-3.6592836,-0.5523349,-0.68490493,-0.47521734,0
4.0635886,1.345747,3.7186637,0.5523349,0.68490493,0.47521734,0
-2.380599,-2.8300171,-3.9465263,-0.5523349,-0.68490493,-0.47521734,0
-2.8210797,-3.0745053,-3.0201001,-0.5523349,-0.68490493,-0.47521734,0
-4.1879892,-3.7928104,-0.49566031,-0.5523349,-0.68490493,-0.47521734,0
-3.1709309,-2.9699924,-2.7546253,-0.5523349,-0.68490493,-0.47521734,0
1.6567937,-1.867543,-2.1884875,0.80032009,-0.59518772,-0.072383195,0
-3.1170959,0.18339634,-3.382659,0.23326789,0.42030585,-0.87688613,0
0.14276294,1.5301352,3.8403258,-0.23326789,-0.42030585,0.87688613,0
-4.4654355,-3.0206356,-1.2161674,-0.5523349,-0.68490493,-0.47521734,0
-0.36515296,3.219728,2.8720124,-0.80032009,0.59518772,0.072383195,0
1.5665011,2.6963544,4.3952332,-0.23326789,-0.42030585,0.87688613,0
-2.1551604,-2.5146723,-4.7850733,-0.5523349,-0.68490493,-0.47521734,0
-0.43217075,3.6903322,1.0384822,-0.80032009,0.59518772,0.072383195,0
3.4079196,3.367456,1.6291842,0.5523349,0.68490493,0.47521734,0
-0.27697936,0.38845539,2.7762287,-0.23326789,-0.42030585,0.87688613,0
3.1297321,3.9603553,1.2819033,0.5523349,0.68490493,0.47521734,0
-4.8815565,-2.6110411,0.20284748,-0.23326789,-0.42030585,0.87688613,0
0.16410363,2.3130336,-1.7029088,0.23326789,0.42030585,-0.87688613,0
1.0848844,4.1889458,-0.52279902,0.23326789,0.42030585,-0.87688613,0
1.0246763,-3.1247849,0.19400167,0.80032009,-0.59518772,-0.072383195,0
2.4510746,4.1777592,1.3226423,0.5523349,0.68490493,0.47521734,0
3.0834706,1.8948493,4.4364309,0.5523349,0.68490493,0.47521734,0
1.1890732,4.7883406,2.6573019,0.5523349,0.68490493,0.47521734,0
4.4429283,1.898397,-0.64289522,0.80032009,-0.59518772,-0.072383195,0
1.8219813,-1.6724195,0.30626678,0.80032009,-0.59518772,-0.072383195,0
-0.35054159,-4.1288333,-3.4711351,0.80032009,-0.59518772,-0.072383195,0
-2.0209908,-3.1013918,-3.3978267,-0.5523349,-0.68490493,-0.47521734,0
1.8613496,4.8137913,1.2839561,0.5523349,0.68490493,0.47521734,0
-3.598474,-1.3319293,1.2698941,-0.23326789,-0.42030585,0.87688613,0
-1.0892406,2.95663,-0.43846035,-0.80032009,0.59518772,0.072383195,0
3.6761768,3.6902194,0.99747133,0.5523349,0.68490493,0.47521734,0
1.6076019,5.1525955,-0.048799515,0.23326789,0.42030585,-0.87688613,0
-1.6098583,-3.3811135,-4.180378,-0.5523349,-0.68490493,-0.47521734,0
2.6451936,4.0737615,-0.19593382,0.23326789,0.42030585,-0.87688613,0
-3.5525432,-0.22601509,-2.4553742,-0.80032009,0.59518772,0.072383195,0
-3.8709903,-4.1732111,-0.35881615,-0.5523349,-0.68490493,-0.47521734,0
4.5594058,1.373261,2.2059216,0.80032009,-0.59518772,-0.072383195,0
-0.55469215,-3.7438798,-4.5494685,-0.5523349,-0.68490493,-0.47521734,0
0.50850952,4.9434028,1.967936,-0.80032009,0.59518772,0.072383195,0
0.1815995,-3.8935313,-0.51735353,0.80032009,-0.59518772,-0.072383195,0
2.4779406,2.8169899,3.2352357,0.5523349,0.68490493,0.47521734,0
-1.3526884,-4.5978508,-2.4591594,-0.5523349,-0.68490493,-0.47521734,0
1.5099922,-2.0151918,0.3255496,0.80032009,-0.59518772,-0.072383195,0
-2.4674685,-4.3720803,-1.2980523,-0.5523349,-0.68490493,-0.47521734,0
3.7894084,1.0349044,0.75239277,0.80032009,-0.59518772,-0.072383195,0
-2.4665101,-4.8409023,-0.93223524,-0.5523349,-0.68490493,-0.47521734,0
-1.7525164,-1.6234572,1.4853506,-0.23326789,-0.42030585,0.87688613,0
3.0098481,4.4443712,0.45261383,0.5523349,0.68490493,0.47521734,0
2.7194188,3.8512025,1.399848,0.5523349,0.68490493,0.47521734,0
-2.0207255,-3.388561,-3.0111117,-0.5523349,-0.68490493,-0.47521734,0
-3.7951751,-0.6669457,-2.9204557,-0.80032009,0.59518772,0.072383195,0
-1.9945298,-1.1374488,-3.7273774,0.23326789,0.42030585,-0.87688613,0
1.3193665,4.424881,2.8810215,0.5523349,0.68490493,0.47521734,0
-1.0688633,-5.2411327,-2.0359187,-0.5523349,-0.68490493,-0.47521734,0
-1.3117033,2.3531332,-1.5859053,-0.80032009,0.59518772,0.072383195,0
-1.791548,1.5549667,-0.68263954,-0.80032009,0.59518772,0.072383195,0
-0.76553118,3.0909431,1.4971201,-0.80032009,0.59518772,0.072383195,0
0.032457709,3.2259073,-1.1763065,0.23326789,0.42030585,-0.87688613,0
0.38388681,4.5515184,-0.25456762,-0.80032009,0.59518772,0.072383195,0
1.6216131,4.7865939,-0.29288721,0.23326789,0.42030585,-0.87688613,0
-3.0578947,-1.4580131,-4.4872828,-0.5523349,-0.68490493,-0.47521734,0
-0.40648586,-1.7838768,1.6618149,-0.23326789,-0.42030585,0.87688613,0
2.8666151,3.7910938,2.0080328,0.5523349,0.68490493,0.47521734,0
2.6006961,2.6055708,-0.93473029,0.23326789,0.42030585,-0.87688613,0
-3.8520784,-1.1462803,-4.1409702,-0.5523349,-0.68490493,-0.47521734,0
0.73375762,-1.1779268,2.5459087,-0.23326789,-0.42030585,0.87688613,0
2.8884606,4.1355467,1.4020238,0.5523349,0.68490493,0.47521734,0
-1.7649852,-4.7189193,-1.419663,-0.5523349,-0.68490493,-0.47521734,0
-3.7618284,-0.53520823,-2.2372723,-0.80032009,0.59518772,0.072383195,0
0.84042031,1.7181801,-1.7447335,0.23326789,0.42030585,-0.87688613,0
1.2719638,2.2238426,-1.5727717,0.23326789,0.42030585,-0.87688613,0
-1.1160593,2.6615744,-1.4613112,-0.80032009,0.59518772,0.072383195,0
-3.3282998,-0.11291504,-3.0900207,-0.80032009,0.59518772,0.072383195,0
-2.573375,0.5746969,-0.74169266,-0.80032009,0.59518772,0.072383195,0
2.4491119,-0.73620129,-1.941937,0.80032009,-0.59518772,-0.072383195,0
4.5860038,1.6033366,2.6281688,0.5523349,0.68490493,0.47521734,0
-3.2244673,-4.0879574,-0.77223349,-0.5523349,-0.68490493,-0.47521734,0
-1.8664143,1.41688,-0.40178069,-0.80032009,0.59518772,0.072383195,0
2.3023374,4.7466145,0.61008167,0.5523349,0.68490493,0.47521734,0
2.5102229,4.7463169,0.73714828,0.5523349,0.68490493,0.47521734,0
1.3988335,4.2954392,2.7254577,0.5523349,0.68490493,0.47521734,0
-1.9735937,-2.3355987,-4.4423132,0.23326789,0.42030585,-0.87688613,0
0.24406691,-1.5752041,-3.4356337,0.23326789,0.42030585,-0.87688613,0
1.2294101,5.2962198,1.5672722,0.5523349,0.68490493,0.47521734,0
4.5542674,1.4536135,3.0352395,0.5523349,0.68490493,0.47521734,0
-3.3093722,-0.10844517,-2.618639,-0.80032009,0.59518772,0.072383195,0
2.5371799,3.476131,-0.53216076,0.23326789,0.42030585,-0.87688613,0
1.5419098,0.38755035,-2.2252045,0.23326789,0.42030585,-0.87688613,0
1.4452051,5.143857,1.6360607,0.5523349,0.68490493,0.47521734,0
-0.47894883,3.4333858,0.67142081,-0.80032009,0.59518772,0.072383195,0
-3.7930119,-3.9663005,-0.35095501,-0.5523349,-0.68490493,-0.47521734,0
1.6516036,2.8824842,4.5157681,0.5523349,0.68490493,0.47521734,0
-4.1383247,-1.4952745,-3.7538714,-0.5523349,-0.68490493,-0.47521734,0
-1.7684146,-3.7414756,0.42655611,-0.23326789,-0.42030585,0.87688613,0
-4.0901132,-0.4899168,-4.0617542,-0.80032009,0.59518772,0.072383195,0
-1.6344373,1.5824878,1.8749461,-0.80032009,0.59518772,0.072383195,0
-3.6910005,-3.5547128,-1.0104375,-0.5523349,-0.68490493,-0.47521734,0
1.848768,-1.9745103,0.55135351,0.80032009,-0.59518772,-0.072383195,0
-1.0914911,-4.8579407,-2.4082823,-0.5523349,-0.68490493,-0.47521734,0
-3.7503643,-3.135149,-1.4547448,-0.5523349,-0.68490493,-0.47521734,0
1.5587015,5.5123549,0.53998947,0.5523349,0.68490493,0.47521734,0
1.7605648,5.383666,0.90288925,0.5523349,0.68490493,0.47521734,0
-0.14945227,-3.3267503,-4.3854737,0.23326789,0.42030585,-0.87688613,0
1.8734933,4.026794,2.9133382,0.5523349,0.68490493,0.47521734,0
3.0309606,3.7303352,1.5296974,0.5523349,0.68490493,0.47521734,0
-3.0270724,0.1584996,-1.1308255,-0.80032009,0.59518772,0.072383195,0
-3.1157331,-0.0075413585,-0.22716475,-0.80032009,0.59518772,0.072383195,0
-0.28511167,-4.4296889,-2.8461027,0.80032009,-0.59518772,-0.072383195,0
0.11623931,-4.0201674,-2.9086709,0.80032009,-0.59518772,-0.072383195,0
-0.35535842,-3.7633274,-4.6575384,-0.5523349,-0.68490493,-0.47521734,0
-0.59964013,-5.1380935,0.071784496,0.80032009,-0.59518772,-0.072383195,0
1.3739603,5.0837326,1.5423675,0.5523349,0.68490493,0.47521734,0
-0.19128096,-4.4513435,-2.4714079,0.80032009,-0.59518772,-0.072383195,0
3.8255477,3.6144228,0.89005041,0.5523349,0.68490493,0.47521734,0
1.9216928,-1.407795,0.82056969,0.80032009,-0.59518772,-0.072383195,0
1.2226486,-2.0962038,-3.1467381,0.80032009,-0.59518772,-0.072383195,0
0.87101042,5.1873207,2.4256554,0.5523349,0.68490493,0.47521734,0
-2.5636911,0.2807405,2.3010001,-0.80032009,0.59518772,0.072383195,0
1.2534125,1.6579709,-1.9411783,0.23326789,0.42030585,-0.87688613,0
-3.0503931,0.39884377,-3.4786901,-0.80032009,0.59518772,0.072383195,0
-0.55668557,-4.53689,-1.6359386,0.80032009,-0.59518772,-0.072383195,0
-3.2631526,-0.67962527,1.5625143,-0.80032009,0.59518772,0.072383195,0
1.2749304,4.1520958,3.0582685,0.5523349,0.68490493,0.47521734,0
4.827755,1.8771778,2.4678693,0.80032009,-0.59518772,-0.072383195,0
2.2672937,1.8610973,4.2363129,-0.23326789,-0.42030585,0.87688613,0
-2.3059268,-4.5842447,-1.3904057,-0.5523349,-0.68490493,-0.47521734,0
-0.76522839,-0.15565634,-3.1828375,0.23326789,0.42030585,-0.87688613,0
4.2430763,1.150768,1.0729365,0.80032009,-0.59518772,-0.072383195,0
-4.5463643,-2.4400063,-1.3014283,-0.5523349,-0.68490493,-0.47521734,0
0.16932696,0.45721507,-2.7849364,0.23326789,0.42030585,-0.87688613,0
-2.3260498,1.2257392,-0.025333762,-0.80032009,0.59518772,0.072383195,0
-0.2895357,-2.2708199,-4.0674858,0.23326789,0.42030585,-0.87688613,0
3.2379293,2.7278049,2.8490648,0.5523349,0.68490493,0.47521734,0
3.9423738,2.5058935,2.4688253,0.5523349,0.68490493,0.47521734,0
-3.4484587,-4.2390471,-0.75499105,-0.5523349,-0.68490493,-0.47521734,0
2.841507,3.7531576,2.0658798,0.5523349,0.68490493,0.47521734,0
-0.67498219,-5.1544476,-1.4850898,0.80032009,-0.59518772,-0.072383195,0
-1.196254,-5.928597,-0.21530724,0.80032009,-0.59518772,-0.072383195,0
3.8676095,3.4985461,1.0947948,0.5523349,0.68490493,0.47521734,0
-0.24820459,-2.5075731,-3.9289725,0.23326789,0.42030585,-0.87688613,0
2.9388237,-0.4191637,2.764158,0.80032009,-0.59518772,-0.072383195,0
-2.9965305,0.40374696,-1.4479415,-0.80032009,0.59518772,0.072383195,0
2.5289075,4.8016243,0.36099625,0.5523349,0.68490493,0.47521734,0
2.0859513,-1.1837094,-1.42071,0.80032009,-0.59518772,-0.072383195,0
-4.4202833,-2.1260154,-2.2713757,-0.5523349,-0.68490493,-0.47521734,0
2.5455215,-1.1626458,2.0373271,0.80032009,-0.59518772,-0.072383195,0
1.7702533,1.3331637,4.1821928,-0.23326789,-0.42030585,0.87688613,0
-1.9058868,-4.5488625,-1.8882799,-0.5523349,-0.68490493,-0.47521734,0
-1.7156341,-4.4343677,0.11179781,-0.23326789,-0.42030585,0.87688613,0
-1.2121426,-5.3758845,0.014202118,-0.23326789,-0.42030585,0.87688613,0
-4.1158295,-1.8646731,0.99502826,-0.23326789,-0.42030585,0.87688613,0
2.1954238,-1.5202731,0.073485792,0.80032009,-0.59518772,-0.072383195,0
3.6916897,0.42803055,0.75731683,0.80032009,-0.59518772,-0.072383195,0
0.90763503,1.3638256,-1.955564,0.23326789,0.42030585,-0.87688613,0
-2.083986,1.7698684,-1.264213,-0.80032009,0.59518772,0.072383195,0
0.70420766,3.5248041,-1.1081092,0.23326789,0.42030585,-0.87688613,0
0.765131,-3.0624566,1.7555799,-0.23326789,-0.42030585,0.87688613,0
-4.7408762,-3.2902014,0.11604929,-0.5523349,-0.68490493,-0.47521734,0
-2.9559822,-3.3610642,-1.8727217,-0.5523349,-0.68490493,-0.47521734,0
-0.5291518,3.6718559,-0.48278284,-0.80032009,0.59518772,0.072383195,0
-3.1879349,-3.8429036,0.075721264,-0.23326789,-0.42030585,0.87688613,0
1.760654,5.4941306,0.97334671,0.5523349,0.68490493,0.47521734,0
2.1126571,5.3846464,0.68052197,0.5523349,0.68490493,0.47521734,0
4.0123715,2.3070571,2.5969195,0.5523349,0.68490493,0.47521734,0
-1.8615649,-4.3621426,-2.4000072,-0.5523349,-0.68490493,-0.47521734,0
1.8698878,2.1262028,-1.3977025,0.23326789,0.42030585,-0.87688613,0
1.671778,3.622735,3.6588726,0.5523349,0.68490493,0.47521734,0
-1.2354641,2.5796261,2.1899884,-0.80032009,0.59518772,0.072383195,0
2.9712329,2.3548808,-1.0339212,0.23326789,0.42030585,-0.87688613,0
-1.6977727,-5.7776985,-0.61388302,-0.5523349,-0.68490493,-0.47521734,0
1.884825,-1.8540598,-0.28438187,0.80032009,-0.59518772,-0.072383195,0
4.3980274,2.0041299,-0.52114582,0.23326789,0.42030585,-0.87688613,0
-1.2437353,-4.7169151,-2.0611897,-0.5523349,-0.68490493,-0.47521734,0
-3.7924266,-0.45493937,-4.0062513,0.23326789,0.42030585,-0.87688613,0
3.9338605,3.4703584,0.54690218,0.5523349,0.68490493,0.47521734,0
-2.4622853,0.41182184,1.6961148,-0.80032009,0.59518772,0.072383195,0
-1.8469659,0.55397272,-3.1455405,0.23326789,0.42030585,-0.87688613,0
0.00094008446,-1.7104883,1.9496607,-0.23326789,-0.42030585,0.87688613,0
2.3726094,-0.95123553,-0.53737497,0.80032009,-0.59518772,-0.072383195,0
-2.6403985,-0.22688675,-3.6419649,0.23326789,0.42030585,-0.87688613,0
4.6325712,2.7573032,-0.14619923,0.23326789,0.42030585,-0.87688613,0
-4.1868219,-1.4755845,-1.1394835,-0.80032009,0.59518772,0.072383195,0
-3.6064939,-3.4965506,0.27224445,-0.23326789,-0.42030585,0.87688613,0
-2.3274455,-1.0119646,1.8386427,-0.23326789,-0.42030585,0.87688613,0
2.6438808,3.6976445,1.7537694,0.5523349,0.68490493,0.47521734,0
0.68320709,3.8172245,4.0643544,0.5523349,0.68490493,0.47521734,0
1.8640183,2.0850172,-1.4346931,0.23326789,0.42030585,-0.87688613,0
3.6048446,2.5670011,-0.5739336,0.23326789,0.42030585,-0.87688613,0
-4.0325828,-0.97286177,-3.668447,-0.80032009,0.59518772,0.072383195,0
3.5296457,0.37934494,4.115334,-0.23326789,-0.42030585,0.87688613,0
0.55829406,-2.3116748,2.0956557,-0.23326789,-0.42030585,0.87688613,0
-1.8363473,-4.4155631,-2.3366055,-0.5523349,-0.68490493,-0.47521734,0
-2.9280529,-3.5511913,-1.8410354,-0.5523349,-0.68490493,-0.47521734,0
1.6865807,1.4069257,-1.7802464,0.23326789,0.42030585,-0.87688613,0
-2.692251,-2.8957944,-2.9169183,-0.5523349,-0.68490493,-0.47521734,0
-4.5396791,-1.5592561,-3.2934542,-0.80032009,0.59518772,0.072383195,0
-3.2822213,0.17046118,-1.0632002,-0.80032009,0.59518772,0.072383195,0
-0.87280142,-3.593766,1.1189747,-0.23326789,-0.42030585,0.87688613,0
-0.046460629,-4.2515168,0.87828493,0.80032009,-0.59518772,-0.072383195,0
2.6690075,3.2951117,2.6895313,0.5523349,0.68490493,0.47521734,0
1.6084793,3.5820837,3.7019048,0.5523349,0.68490493,0.47521734,0
-2.8585167,0.23682725,-0.80768311,-0.80032009,0.59518772,0.072383195,0
-1.7858276,-2.8033278,-4.0822086,-0.5523349,-0.68490493,-0.47521734,0
0.87938082,5.1422868,0.48700953,-0.80032009,0.59518772,0.072383195,0
-1.9125823,1.8522558,-1.9102292,-0.80032009,0.59518772,0.072383195,0
2.3853064,4.7116671,0.55234337,0.5523349,0.68490493,0.47521734,0
-2.3747044,-3.3193231,-2.5851521,-0.5523349,-0.68490493,-0.47521734,0
-1.6128103,-1.619071,1.5409583,-0.23326789,-0.42030585,0.87688613,0
1.3912582,3.3508196,4.1882982,0.5523349,0.68490493,0.47521734,0
-2.3866603,0.42093277,2.2060034,-0.80032009,0.59518772,0.072383195,0
-4.1611414,-1.3645083,-2.0829942,-0.80032009,0.59518772,0.072383195,0
-4.1991062,-2.8536704,0.5230794,-0.23326789,-0.42030585,0.87688613,0
0.95941603,-1.6846662,-3.6172347,0.23326789,0.42030585,-0.87688613,0
2.3320041,4.5068021,1.4822826,0.5523349,0.68490493,0.47521734,0
-4.2449403,-1.6200175,-3.4584074,-0.5523349,-0.68490493,-0.47521734,0
3.048527,2.3948159,-0.85472107,0.23326789,0.42030585,-0.87688613,0
-3.3325055,-3.277195,-1.8697901,-0.5523349,-0.68490493,-0.47521734,0
-0.7761969,-4.3471389,-3.2185922,-0.5523349,-0.68490493,-0.47521734,0
1.2086922,-2.5577688,-0.57308888,0.80032009,-0.59518772,-0.072383195,0
-1.105103,0.65980649,2.9782059,-0.23326789,-0.42030585,0.87688613,0
-0.66196638,3.140187,3.5942609,-0.80032009,0.59518772,0.072383195,0
1.9030204,4.0630956,-0.30533743,0.23326789,0.42030585,-0.87688613,0
-2.4973543,-2.2334695,1.1871734,-0.23326789,-0.42030585,0.87688613,0
3.2424536,-0.29058599,3.5984926,-0.23326789,-0.42030585,0.87688613,0
-0.34845048,0.40792441,-2.7117908,0.23326789,0.42030585,-0.87688613,0
3.5152788,0.68733871,1.130403,0.80032009,-0.59518772,-0.072383195,0
-2.0143657,0.21348834,2.2767909,-0.23326789,-0.42030585,0.87688613,0
-2.3625026,0.94260204,1.1727364,-0.80032009,0.59518772,0.072383195,0
2.2243073,0.53977203,3.7436745,-0.23326789,-0.42030585,0.87688613,0
4.0067511,3.5274942,0.59544563,0.5523349,0.68490493,0.47521734,0
4.1443453,1.2240148,-0.29079485,0.80032009,-0.59518772,-0.072383195,0
-3.3319299,0.18940258,-3.4008169,-0.80032009,0.59518772,0.072383195,0
-2.8568485,-4.2166653,-0.99795008,-0.5523349,-0.68490493,-0.47521734,0
-0.47293782,3.0893323,4.0459671,-0.80032009,0.59518772,0.072383195,0
3.668684,2.7227981,2.1619053,0.5523349,0.68490493,0.47521734,0
2.3356519,2.845367,4.0356555,0.5523349,0.68490493,0.47521734,0
-3.3592801,-1.6661553,-3.8190911,-0.5523349,-0.68490493,-0.47521734,0
-3.961802,-2.8954546,-1.8384929,-0.5523349,-0.68490493,-0.47521734,0
3.2297821,2.7036464,2.6314673,0.5523349,0.68490493,0.47521734,0
2.0185611,3.8581007,2.6361947,0.5523349,0.68490493,0.47521734,0
3.1707072,1.7241139,4.5666227,0.5523349,0.68490493,0.47521734,0
1.8083791,-1.7642272,2.2517705,0.80032009,-0.59518772,-0.072383195,0
2.6531343,2.1047144,-1.2112005,0.23326789,0.42030585,-0.87688613,0
-2.9956622,-2.6843891,-3.1509027,-0.5523349,-0.68490493,-0.47521734,0
-2.0199945,-0.53152514,-3.6029577,0.23326789,0.42030585,-0.87688613,0
1.5478208,0.90901351,3.6656451,-0.23326789,-0.42030585,0.87688613,0
2.7356553,4.5740142,0.45314646,0.5523349,0.68490493,0.47521734,0
3.1134791,2.9701548,2.3178391,0.5523349,0.68490493,0.47521734,0
-1.7511897,-3.4289742,-3.7018361,-0.5523349,-0.68490493,-0.47521734,0
-0.48362839,-4.7606106,-3.1262579,0.80032009,-0.59518772,-0.072383195,0
2.0526078,3.7972348,-0.66988182,0.23326789,0.42030585,-0.87688613,0
-4.8904276,-3.0604358,0.060094357,-0.23326789,-0.42030585,0.87688613,0
3.9314349,0.8501606,3.658684,0.80032009,-0.59518772,-0.072383195,0
-0.77865928,-3.6573493,-4.4951057,-0.5523349,-0.68490493,-0.47521734,0
-1.559732,-3.0521545,-4.4570656,-0.5523349,-0.68490493,-0.47521734,0
5.3778372,2.938386,0.33321762,0.5523349,0.68490493,0.47521734,0
3.7439396,0.95369166,0.40259004,0.80032009,-0.59518772,-0.072383195,0
0.72518289,-2.0961137,1.8143826,-0.23326789,-0.42030585,0.87688613,0
0.31083888,3.7708831,4.6583691,-0.23326789,-0.42030585,0.87688613,0
1.5522195,3.8508494,-0.72307253,0.23326789,0.42030585,-0.87688613,0
0.32681119,-1.3062747,-3.4207704,0.23326789,0.42030585,-0.87688613,0
0.4187288,-1.1066351,-3.0636823,0.23326789,0.42030585,-0.87688613,0
-0.9405598,-2.5656881,1.3368483,-0.23326789,-0.42030585,0.87688613,0
2.7979295,2.87485,3.5127335,0.5523349,0.68490493,0.47521734,0
-0.96361685,2.3573599,1.7504864,-0.80032009,0.59518772,0.072383195,0
-0.39436507,3.6938114,-0.12332535,-0.80032009,0.59518772,0.072383195,0
2.4448442,-1.0173373,0.78717858,0.80032009,-0.59518772,-0.072383195,0
2.1728182,5.3410993,0.34749603,0.5523349,0.68490493,0.47521734,0
2.9203007,1.6718779,4.203877,-0.23326789,-0.42030585,0.87688613,0
4.0932112,2.338203,1.9733038,0.5523349,0.68490493,0.47521734,0
3.3958631,3.8563344,0.62123966,0.5523349,0.68490493,0.47521734,0
0.70120716,-2.6201892,1.7365276,-0.23326789,-0.42030585,0.87688613,0
1.8062334,0.85457683,-1.8407733,0.23326789,0.42030585,-0.87688613,0
-2.3108563,1.1508234,-0.26452196,-0.80032009,0.59518772,0.072383195,0
3.0190315,-0.16406965,-0.79487002,0.80032009,-0.59518772,-0.072383195,0
-3.9671025,-3.6263051,-0.98087358,-0.5523349,-0.68490493,-0.47521734,0
-2.7799621,0.88295889,-2.8023996,-0.80032009,0.59518772,0.072383195,0
-0.28967822,-4.7488432,-1.267458,0.80032009,-0.59518772,-0.072383195,0
1.6134953,5.2655101,0.69446468,0.5523349,0.68490493,0.47521734,0
4.4723282,3.1516488,1.0163136,0.5523349,0.68490493,0.47521734,0
-1.7890966,-0.011949778,2.1580095,-0.23326789,-0.42030585,0.87688613,0
-0.9620508,-4.1174569,-3.0944176,-0.5523349,-0.68490493,-0.47521734,0
-3.453063,-0.80505395,0.39216518,-0.80032009,0.59518772,0.072383195,0
1.7978524,-1.9378182,0.04235363,0.80032009,-0.59518772,-0.072383195,0
-0.50892204,-3.3152025,-4.7218761,0.23326789,0.42030585,-0.87688613,0
3.4489875,2.3375862,2.9489465,0.5523349,0.68490493,0.47521734,0
-0.94489419,1.2744653,-2.6353748,0.23326789,0.42030585,-0.87688613,0
-0.9264456,1.3988507,-2.5521734,0.23326789,0.42030585,-0.87688613,0
-0.737939,-4.8126388,-0.46172857,0.80032009,-0.59518772,-0.072383195,0
-2.6682425,-1.2319221,1.3618467,-0.23326789,-0.42030585,0.87688613,0
-4.278079,-2.5775044,-1.9353237,-0.5523349,-0.68490493,-0.47521734,0
-2.5000916,-4.6336803,-0.56527805,-0.5523349,-0.68490493,-0.47521734,0
3.1713943,0.43729517,-0.46461058,0.80032009,-0.59518772,-0.072383195,0
0.91370499,-1.2656984,2.6234004,-0.23326789,-0.42030585,0.87688613,0
5.0875597,2.7874346,0.77399778,0.5523349,0.68490493,0.47521734,0
3.7161288,3.1141908,1.973444,0.5523349,0.68490493,0.47521734,0
-4.0368958,-2.3863204,0.75224686,-0.23326789,-0.42030585,0.87688613,0
-3.1597829,-1.5332775,-4.4862986,-0.5523349,-0.68490493,-0.47521734,0
3.1683233,3.2762747,-0.28848028,0.23326789,0.42030585,-0.87688613,0
-0.62162292,-4.6928639,-0.3105092,0.80032009,-0.59518772,-0.072383195,0
1.5909592,-1.876651,-3.0307336,0.80032009,-0.59518772,-0.072383195,0
0.14047503,-2.5531642,-4.0671072,0.23326789,0.42030585,-0.87688613,0
-3.1079285,0.37469244,-3.3387823,-0.80032009,0.59518772,0.072383195,0
-0.049763024,-0.059877634,-2.9462416,0.23326789,0.42030585,-0.87688613,0
-0.75951397,0.71568394,2.8903227,-0.23326789,-0.42030585,0.87688613,0
-0.69355953,-4.8063412,-1.9450436,0.80032009,-0.59518772,-0.072383195,0
-3.7664812,-4.0345144,-0.27037859,-0.5523349,-0.68490493,-0.47521734,0
1.4560099,0.47693205,-2.3278222,0.23326789,0.42030585,-0.87688613,0
0.96842194,5.6410427,1.0712285,-0.80032009,0.59518772,0.072383195,0
-4.5774693,-2.7101169,-1.6365671,-0.5523349,-0.68490493,-0.47521734,0
2.7813451,3.1176355,2.4677548,0.5523349,0.68490493,0.47521734,0
3.02386,-0.82174492,3.3599117,0.80032009,-0.59518772,-0.072383195,0
1.7467297,1.5096493,4.2247119,-0.23326789,-0.42030585,0.87688613,0
-3.5369096,-3.2392306,-1.9794979,-0.5523349,-0.68490493,-0.47521734,0
-4.5673919,-2.2477095,0.76349354,-0.23326789,-0.42030585,0.87688613,0
4.3326983,3.309896,1.0651264,0.5523349,0.68490493,0.47521734,0
3.3812788,4.4961634,0.52798891,0.5523349,0.68490493,0.47521734,0
1.6338207,-2.042099,0.76245791,0.80032009,-0.59518772,-0.072383195,0
-0.41154182,-4.1014571,0.67813778,-0.23326789,-0.42030585,0.87688613,0
3.695164,1.1922711,-1.0404589,0.80032009,-0.59518772,-0.072383195,0
-0.99933153,-3.0911758,-4.5774784,0.23326789,0.42030585,-0.87688613,0
-4.395936,-3.4672363,-0.12888908,-0.23326789,-0.42030585,0.87688613,0
-2.3616598,-2.6848328,-4.0420051,-0.5523349,-0.68490493,-0.47521734,0
1.3489126,-2.6345022,0.24228811,0.80032009,-0.59518772,-0.072383195,0
-4.1170721,-0.9230988,-2.5109932,-0.80032009,0.59518772,0.072383195,0
1.8154783,5.365272,0.55964756,0.5523349,0.68490493,0.47521734,0
0.77697414,4.0190201,4.1973963,0.5523349,0.68490493,0.47521734,0
-2.0881407,1.4528356,-0.66990942,-0.80032009,0.59518772,0.072383195,0
-0.35884929,-4.2880011,-3.7825766,-0.5523349,-0.68490493,-0.47521734,0
-3.2355223,-0.30909956,1.0113109,-0.80032009,0.59518772,0.072383195,0
3.2466254,2.439965,-0.89563799,0.23326789,0.42030585,-0.87688613,0
2.4673455,3.8542519,1.9889731,0.5523349,0.68490493,0.47521734,0
3.6732771,1.2426457,4.1281805,0.5523349,0.68490493,0.47521734,0
2.9048259,2.1233325,3.9227703,0.5523349,0.68490493,0.47521734,0
0.86603725,4.4790401,2.8178883,0.5523349,0.68490493,0.47521734,0
-1.1734232,-1.5428299,1.804256,-0.23326789,-0.42030585,0.87688613,0
1.6280351,4.6869326,1.6429458,0.5523349,0.68490493,0.47521734,0
-1.2712336,0.59856987,-2.9387493,0.23326789,0.42030585,-0.87688613,0
-4.0004897,-1.2478604,1.3288245,-0.23326789,-0.42030585,0.87688613,0
2.6466241,-0.37256575,3.4748859,-0.23326789,-0.42030585,0.87688613,0
-2.2585766,-3.3788557,-3.2901211,-0.5523349,-0.68490493,-0.47521734,0
-1.3196552,-6.0222054,-0.44340372,-0.5523349,-0.68490493,-0.47521734,0
-4.4934225,-2.9057317,0.25206041,-0.23326789,-0.42030585,0.87688613,0
-1.7850634,-3.7380817,-2.7959957,-0.5523349,-0.68490493,-0.47521734,0
3.8487353,3.726512,0.39975214,0.5523349,0.68490493,0.47521734,0
0.13075376,2.5953674,-1.3655286,0.23326789,0.42030585,-0.87688613,0
3.6639085,4.1172285,0.12630033,0.5523349,0.68490493,0.47521734,0
-2.5647557,-0.65203476,-3.7763669,0.23326789,0.42030585,-0.87688613,0
0.80960846,4.9508295,0.73142147,-0.80032009,0.59518772,0.072383195,0
0.56541884,-2.6174114,1.7687249,-0.23326789,-0.42030585,0.87688613,0
4.247602,1.22036,3.6024384,0.5523349,0.68490493,0.47521734,0
-0.76505321,0.39703989,2.9844003,-0.23326789,-0.42030585,0.87688613,0
-0.74971551,2.9370246,3.8954222,-0.23326789,-0.42030585,0.87688613,0
-4.7669883,-1.9998956,-1.4755502,-0.80032009,0.59518772,0.072383195,0
1.7614372,1.7534072,-1.435907,0.23326789,0.42030585,-0.87688613,0
-0.38160515,-4.4701943,-1.0732584,0.80032009,-0.59518772,-0.072383195,0
2.4313865,2.2631025,4.2460542,0.5523349,0.68490493,0.47521734,0
1.047298,-2.4262285,-2.9552617,0.80032009,-0.59518772,-0.072383195,0
-2.3266194,-3.4429216,-2.4414334,-0.5523349,-0.68490493,-0.47521734,0
1.6379226,-1.5677577,-0.92493045,0.80032009,-0.59518772,-0.072383195,0
3.5622835,1.1718826,4.213964,-0.23326789,-0.42030585,0.87688613,0
-2.9012818,-2.0346191,1.2096972,-0.23326789,-0.42030585,0.87688613,0
0.53343868,-3.1953795,-3.7597399,0.80032009,-0.59518772,-0.072383195,0
-3.5347028,-0.39333302,0.71973217,-0.80032009,0.59518772,0.072383195,0
-1.064809,-3.6584203,-3.9774895,-0.5523349,-0.68490493,-0.47521734,0
-1.7047999,-3.6377072,-3.285418,-0.5523349,-0.68490493,-0.47521734,0
-1.2061545,-5.2915773,-1.4884405,-0.5523349,-0.68490493,-0.47521734,0
1.9568925,-1.4333205,-1.4483211,0.80032009,-0.59518772,-0.072383195,0
-2.8629942,-4.6944857,-0.047644615,-0.23326789,-0.42030585,0.87688613,0
-1.4965209,-5.0775166,0.064383507,-0.23326789,-0.42030585,0.87688613,0
0.12513876,-1.3446791,2.3117051,-0.23326789,-0.42030585,0.87688613,0
-1.8276721,-5.3712225,-0.37223577,-0.5523349,-0.68490493,-0.47521734,0
-2.6389129,-3.0629735,-2.9450827,-0.5523349,-0.68490493,-0.47521734,0
4.4609613,1.5074756,2.8989086,0.80032009,-0.59518772,-0.072383195,0
-2.9424417,-0.65841103,1.6493701,-0.23326789,-0.42030585,0.87688613,0
4.0507531,1.3377557,3.8794453,0.5523349,0.68490493,0.47521734,0
-3.2830637,-2.5654087,-2.7650666,-0.5523349,-0.68490493,-0.47521734,0
1.0116287,-2.3354142,-2.5567455,0.80032009,-0.59518772,-0.072383195,0
-2.3364296,0.76831961,1.8252776,-0.80032009,0.59518772,0.072383195,0
1.2846336,-0.82786846,-3.0222785,0.23326789,0.42030585,-0.87688613,0
1.9971542,3.0994911,3.584923,0.5523349,0.68490493,0.47521734,0
-0.88878477,-5.5768862,-1.107429,0.80032009,-0.59518772,-0.072383195,0
-2.6232901,0.60843682,-1.6571249,-0.80032009,0.59518772,0.072383195,0
0.88291335,5.5352201,0.65056038,-0.80032009,0.59518772,0.072383195,0
4.4918633,2.0485258,-0.62200308,0.80032009,-0.59518772,-0.072383195,0
-3.9876456,-3.6280079,-1.0258694,-0.5523349,-0.68490493,-0.47521734,0
-1.2423534,-5.289331,-1.2221479,-0.5523349,-0.68490493,-0.47521734,0
-4.462862,-2.5085306,-2.1384273,-0.5523349,-0.68490493,-0.47521734,0
2.0751793,1.2596197,4.1528215,-0.23326789,-0.42030585,0.87688613,0
0.069204807,-3.929565,-1.6782398,0.80032009,-0.59518772,-0.072383195,0
4.6212106,1.9112027,-0.48029566,0.23326789,0.42030585,-0.87688613,0
-1.7262897,1.7639059,1.245115,-0.80032009,0.59518772,0.072383195,0
-1.5654025,2.2651317,0.39723802,-0.80032009,0.59518772,0.072383195,0
2.1554201,4.5919194,-0.13323069,0.23326789,0.42030585,-0.87688613,0
2.5235257,-1.2470263,1.5238609,0.80032009,-0.59518772,-0.072383195,0
2.2191813,4.7550135,1.3514061,0.5523349,0.68490493,0.47521734,0
-0.43794799,-1.829813,-4.0140295,0.23326789,0.42030585,-0.87688613,0
-1.8623549,-4.8220649,-1.7868276,-0.5523349,-0.68490493,-0.47521734,0
3.8145671,0.68139821,-0.70416379,0.80032009,-0.59518772,-0.072383195,0
-2.9310226,-3.1091156,-2.8229623,-0.5523349,-0.68490493,-0.47521734,0
-3.7260466,-1.13519,-4.1711617,0.23326789,0.42030585,-0.87688613,0
2.0059226,3.546741,2.8540382,0.5523349,0.68490493,0.47521734,0
1.8898126,-1.4849012,-1.4621334,0.80032009,-0.59518772,-0.072383195,0
0.6161648,-0.91092515,-3.0195386,0.23326789,0.42030585,-0.87688613,0
-2.4890978,0.61355209,0.37754852,-0.80032009,0.59518772,0.072383195,0
-4.1705465,-4.048059,0.013455391,-0.23326789,-0.42030585,0.87688613,0
2.7621608,1.6230004,-1.3412173,0.23326789,0.42030585,-0.87688613,0
1.0304413,-2.554934,-1.5953894,0.80032009,-0.59518772,-0.072383195,0
2.3479276,4.4694743,0.97221947,0.5523349,0.68490493,0.47521734,0
-3.1680365,-3.1684661,-2.1995816,-0.5523349,-0.68490493,-0.47521734,0
0.08377298,-1.0996754,-3.4939437,0.23326789,0.42030585,-0.87688613,0
1.7220979,-1.8933641,0.38045889,0.80032009,-0.59518772,-0.072383195,0
-2.3904467,-3.2278895,-2.8479934,-0.5523349,-0.68490493,-0.47521734,0
0.68359649,-2.3651457,1.9037373,-0.23326789,-0.42030585,0.87688613,0
-4.2773962,-1.3492734,-3.2538869,-0.80032009,0.59518772,0.072383195,0
-0.67209268,-2.5773451,-4.0803366,0.23326789,0.42030585,-0.87688613,0
-2.718106,0.79691958,-3.1963606,0.23326789,0.42030585,-0.87688613,0
1.535092,2.6006367,4.6314225,0.5523349,0.68490493,0.47521734,0
0.42157388,4.3863802,3.865025,0.5523349,0.68490493,0.47521734,0
0.61826074,0.6422379,-2.4587584,0.23326789,0.42030585,-0.87688613,0
-3.6604185,-0.83786869,-1.2486408,-0.80032009,0.59518772,0.072383195,0
1.2111033,-2.3469677,-3.3317666,0.80032009,-0.59518772,-0.072383195,0
-0.99106914,0.75486588,-2.6282001,0.23326789,0.42030585,-0.87688613,0
-0.076785266,0.38953686,-2.6178887,0.23326789,0.42030585,-0.87688613,0
2.6234848,3.720804,1.9018359,0.5523349,0.68490493,0.47521734,0
-3.7431645,-2.018733,-3.4538741,-0.5523349,-0.68490493,-0.47521734,0
-2.7813754,0.29610395,-3.2842636,0.23326789,0.42030585,-0.87688613,0
3.4326434,0.85635161,-1.1774931,0.80032009,-0.59518772,-0.072383195,0
-3.1719074,-3.0693254,-2.1486034,-0.5523349,-0.68490493,-0.47521734,0
-2.78825,0.4380621,-0.03299129,-0.80032009,0.59518772,0.072383195,0
-2.8744259,-1.6384249,-4.1758776,0.23326789,0.42030585,-0.87688613,0
2.7729132,4.6356916,1.0258756,0.5523349,0.68490493,0.47521734,0
0.95419109,5.3830166,-0.20927048,0.23326789,0.42030585,-0.87688613,0
-2.362901,-4.5150542,-0.95915461,-0.5523349,-0.68490493,-0.47521734,0
1.4788994,-2.0554361,-3.2566993,0.80032009,-0.59518772,-0.072383195,0
2.4058249,0.6301496,-1.9677413,0.23326789,0.42030585,-0.87688613,0
-0.51566315,-1.7085876,-3.7033417,0.23326789,0.42030585,-0.87688613,0
-1.8484354,1.1765426,1.7817625,-0.80032009,0.59518772,0.072383195,0
1.8871347,0.22324324,3.6003399,-0.23326789,-0.42030585,0.87688613,0
4.0596004,1.6525034,-0.50056124,0.80032009,-0.59518772,-0.072383195,0
2.9498222,2.9912882,2.4214282,0.5523349,0.68490493,0.47521734,0
2.0849762,-0.85414863,-2.5601144,0.23326789,0.42030585,-0.87688613,0
2.386553,0.90840864,4.0047183,-0.23326789,-0.42030585,0.87688613,0
0.58599591,5.0900483,-0.18709946,-0.80032009,0.59518772,0.072383195,0
-3.3714194,-4.283349,-0.11745262,-0.23326789,-0.42030585,0.87688613,0
3.3358183,3.1337759,1.9703031,0.5523349,0.68490493,0.47521734,0
1.6684966,-1.6677983,-2.3624372,0.80032009,-0.59518772,-0.072383195,0
0.96316433,4.2838488,-0.42235422,0.23326789,0.42030585,-0.87688613,0
-4.5109248,-1.8194646,0.23363066,-0.80032009,0.59518772,0.072383195,0
-1.623059,-4.5349264,-2.4987149,-0.5523349,-0.68490493,-0.47521734,0
0.91569138,-3.1115918,1.8212155,-0.23326789,-0.42030585,0.87688613,0
-0.19337201,-4.7431693,-0.075358868,0.80032009,-0.59518772,-0.072383195,0
-4.3586597,-3.2512932,-0.86746407,-0.5523349,-0.68490493,-0.47521734,0
2.1271861,3.5719547,2.6156688,0.5523349,0.68490493,0.47521734,0
1.1196265,4.2872787,3.2807536,0.5523349,0.68490493,0.47521734,0
2.4401016,3.2169495,-0.82437754,0.23326789,0.42030585,-0.87688613,0
3.1613619,4.4214144,0.49361897,0.5523349,0.68490493,0.47521734,0
3.5674491,2.2204463,2.9284954,0.5523349,0.68490493,0.47521734,0
-0.60904199,2.9407611,2.6281259,-0.80032009,0.59518772,0.072383195,0
2.4497843,5.0498405,0.44742346,0.5523349,0.68490493,0.47521734,0
-1.0079385,-5.5927958,-0.27258825,0.80032009,-0.59518772,-0.072383195,0
-2.8862953,-3.6257792,-2.2922335,-0.5523349,-0.68490493,-0.47521734,0
-2.776309,1.1064627,-2.551373,-0.80032009,0.59518772,0.072383195,0
-1.8565544,-4.7351661,-1.683435,-0.5523349,-0.68490493,-0.47521734,0
-0.30389389,-3.3116298,-4.6820579,0.23326789,0.42030585,-0.87688613,0
4.0704212,1.1023679,1.7410009,0.80032009,-0.59518772,-0.072383195,0
3.8328688,1.2454615,4.3813229,0.5523349,0.68490493,0.47521734,0
-1.0986352,2.751667,-1.2669523,-0.80032009,0.59518772,0.072383195,0
-4.2479744,-1.5288774,0.84588027,-0.80032009,0.59518772,0.072383195,0
3.0834355,-0.12640667,3.2211435,0.80032009,-0.59518772,-0.072383195,0
1.9156821,3.0310993,4.3135257,0.5523349,0.68490493,0.47521734,0
-0.47074544,-4.6215234,-3.0044479,0.80032009,-0.59518772,-0.072383195,0
-3.1364615,-4.0293674,-0.67359304,-0.5523349,-0.68490493,-0.47521734,0
-2.0090899,-5.4928684,-0.60912657,-0.5523349,-0.68490493,-0.47521734,0
-3.1053443,-2.5175695,0.72187281,-0.23326789,-0.42030585,0.87688613,0
-2.7909656,-2.5685852,-3.9719758,-0.5523349,-0.68490493,-0.47521734,0
2.6159778,-0.44468513,0.34455341,0.80032009,-0.59518772,-0.072383195,0
-0.22228652,0.61718965,3.2576663,-0.23326789,-0.42030585,0.87688613,0
