-4.3401823,0.54176998,0.94742429,-0.30592152,0.32470578,0.89497387,0
2.1798258,-3.2012765,1.7441509,-0.34516639,-0.91391385,0.21359202,0
-1.816592,2.8902133,-1.5148375,0.34516639,0.91391385,-0.21359202,0
0.16868663,2.0624874,-2.951025,0.34516639,0.91391385,-0.21359202,0
-3.5963335,-1.8294709,-1.5067246,-0.34516639,-0.91391385,0.21359202,0
3.6986279,-2.2919688,-0.85359859,0.30592152,-0.32470578,-0.89497387,0
-1.617451,0.35280561,2.2098861,-0.30592152,0.32470578,0.89497387,0
-5.1852627,-0.56953454,0.20737839,-0.88728356,0.2435725,-0.39166343,0
1.4444153,-2.4716358,3.9045541,-0.34516639,-0.91391385,0.21359202,0
-5.2412167,-0.24511695,0.52676344,-0.88728356,0.2435725,-0.39166343,0
5.1623077,0.26171017,-0.25221562,0.88728356,-0.2435725,0.39166343,0
1.7174121,2.2733917,0.28837538,0.34516639,0.91391385,-0.21359202,0
0.31252766,0.94900191,-3.1039915,0.30592152,-0.32470578,-0.89497387,0
-1.1997833,-2.4109209,-0.82756776,-0.34516639,-0.91391385,0.21359202,0
-1.9901916,2.5959883,-3.2032285,0.34516639,0.91391385,-0.21359202,0
4.4227099,-1.1876745,1.2337329,0.88728356,-0.2435725,0.39166343,0
1.8049204,1.486468,-1.5457658,0.34516639,0.91391385,-0.21359202,0
2.0728142,-3.4513988,-0.1718967,-0.34516639,-0.91391385,0.21359202,0
-2.0273304,-1.4141835,2.0662489,-0.34516639,-0.91391385,0.21359202,0
4.905755,0.0021100044,0.15366507,0.88728356,-0.2435725,0.39166343,0
3.1187596,2.1865439,2.5566003,0.34516639,0.91391385,-0.21359202,0
-3.5295637,-0.00052725524,-3.9788156,-0.88728356,0.2435725,-0.39166343,0
-2.7742755,3.3677845,0.66877913,-0.30592152,0.32470578,0.89497387,0
-2.519119,3.0070984,0.8428514,-0.30592152,0.32470578,0.89497387,0
-4.4559417,-0.088278294,-1.4181149,-0.88728356,0.2435725,-0.39166343,0
1.020514,2.1191697,-1.5258342,0.34516639,0.91391385,-0.21359202,0
-4.8984652,1.495173,0.50090098,-0.88728356,0.2435725,-0.39166343,0
-0.76818454,3.1391404,0.021004438,0.34516639,0.91391385,-0.21359202,0
4.0717149,0.7760185,2.5071435,0.88728356,-0.2435725,0.39166343,0
1.2676233,0.75305581,-2.636436,0.30592152,-0.32470578,-0.89497387,0
1.6533825,-0.20507532,3.3074906,-0.30592152,0.32470578,0.89497387,0
-3.0348918,3.4727147,-0.90681672,0.34516639,0.91391385,-0.21359202,0
-1.2977109,3.0641003,1.299033,-0.30592152,0.32470578,0.89497387,0
4.2784619,-0.80808568,-0.84801078,0.30592152,-0.32470578,-0.89497387,0
-2.6867352,2.243964,-3.8945243,-0.88728356,0.2435725,-0.39166343,0
-4.5441585,-1.2624435,-1.2452953,-0.34516639,-0.91391385,0.21359202,0
-3.966279,-1.5084,-3.6065218,-0.88728356,0.2435725,-0.39166343,0
-0.99695551,0.51874042,-3.3144078,0.30592152,-0.32470578,-0.89497387,0
-4.5215335,0.12165856,-1.2008486,-0.88728356,0.2435725,-0.39166343,0
0.04236269,-0.092085242,-2.5881546,0.30592152,-0.32470578,-0.89497387,0
4.4858561,-0.72584414,0.75588965,0.88728356,-0.2435725,0.39166343,0
-0.66992539,1.0125293,2.3530872,-0.30592152,0.32470578,0.89497387,0
-1.2881596,2.3128538,1.3411397,-0.30592152,0.32470578,0.89497387,0
-3.4374213,1.666012,1.1562268,-0.30592152,0.32470578,0.89497387,0
-0.549312,-2.5229061,0.064455986,-0.34516639,-0.91391385,0.21359202,0
-3.1768923,0.068180822,-3.7667665,0.30592152,-0.32470578,-0.89497387,0
-4.486465,1.2461231,-0.37667751,-0.88728356,0.2435725,-0.39166343,0
1.3310926,1.640017,-2.6101141,0.34516639,0.91391385,-0.21359202,0
4.6146469,-2.4229538,-0.053826094,0.88728356,-0.2435725,0.39166343,0
-1.4575915,-2.4132991,-2.3822594,0.30592152,-0.32470578,-0.89497387,0
-3.8768191,3.3975968,-0.39648819,-0.88728356,0.2435725,-0.39166343,0
-3.7485461,1.7312002,0.67946196,-0.30592152,0.32470578,0.89497387,0
-0.42404914,2.4121723,-2.4104362,0.34516639,0.91391385,-0.21359202,0
2.3877859,-1.7097974,4.3348923,-0.30592152,0.32470578,0.89497387,0
-3.9687662,-1.7415832,-2.321023,-0.34516639,-0.91391385,0.21359202,0
4.1873474,-0.25858831,1.3426392,0.88728356,-0.2435725,0.39166343,0
0.11566305,2.1551089,1.9800009,-0.30592152,0.32470578,0.89497387,0
3.6371684,-0.4903447,3.0233552,0.88728356,-0.2435725,0.39166343,0
2.7972701,-1.222075,-1.233789,0.30592152,-0.32470578,-0.89497387,0
2.0857413,-2.9518518,-0.91621327,0.30592152,-0.32470578,-0.89497387,0
1.654294,2.5212653,1.0417337,0.34516639,0.91391385,-0.21359202,0
-0.38504314,-2.6877601,-0.28336203,-0.34516639,-0.91391385,0.21359202,0
5.0292015,0.79680705,0.73331571,0.88728356,-0.2435725,0.39166343,0
-2.6248751,3.6870379,0.49126768,0.34516639,0.91391385,-0.21359202,0
-3.76578,1.2060003,0.92899108,-0.30592152,0.32470578,0.89497387,0
1.2678491,2.4414835,-0.093209386,0.34516639,0.91391385,-0.21359202,0
-4.3172011,0.26325428,-1.5760186,-0.88728356,0.2435725,-0.39166343,0
-2.0280857,-1.648093,1.4921539,-0.34516639,-0.91391385,0.21359202,0
0.37727159,2.8485451,1.6235631,0.34516639,0.91391385,-0.21359202,0
0.47458386,-2.4330802,2.3652081,-0.34516639,-0.91391385,0.21359202,0
0.52943802,-0.81537867,-2.3430097,0.30592152,-0.32470578,-0.89497387,0
-3.5974126,-0.36665559,1.6112353,-0.30592152,0.32470578,0.89497387,0
1.214041,-0.567514,3.5402215,-0.30592152,0.32470578,0.89497387,0
4.8532043,0.24108553,0.64113903,0.88728356,-0.2435725,0.39166343,0
-3.0932178,0.36114407,1.6622902,-0.30592152,0.32470578,0.89497387,0
4.0980349,-0.1393702,-1.32796,0.30592152,-0.32470578,-0.89497387,0
-1.3379205,1.087658,2.1277449,-0.30592152,0.32470578,0.89497387,0
-2.5936236,1.8449509,-4.1030788,-0.88728356,0.2435725,-0.39166343,0
-5.0698805,-0.87569642,-0.25359011,-0.88728356,0.2435725,-0.39166343,0
-3.22896,-1.7904927,-3.248472,0.30592152,-0.32470578,-0.89497387,0
1.0879517,0.43554747,-2.5818925,0.30592152,-0.32470578,-0.89497387,0
-0.13094199,-3.1186662,-1.2328732,-0.34516639,-0.91391385,0.21359202,0
-2.0181627,3.3507066,0.92544734,-0.30592152,0.32470578,0.89497387,0
-1.2230352,1.7121575,1.5748791,-0.30592152,0.32470578,0.89497387,0
3.2413335,-4.0303793,-0.1370821,-0.34516639,-0.91391385,0.21359202,0
-1.9777114,3.4858584,-0.21581316,0.34516639,0.91391385,-0.21359202,0
2.7989781,-2.9492321,3.6349921,0.88728356,-0.2435725,0.39166343,0
1.768564,-3.0261981,-1.2841611,0.30592152,-0.32470578,-0.89497387,0
3.7280807,2.0276618,2.7297676,0.34516639,0.91391385,-0.21359202,0
5.0543714,-0.58943677,-0.50776744,0.88728356,-0.2435725,0.39166343,0
-3.3659761,-1.5922405,-1.4812493,-0.34516639,-0.91391385,0.21359202,0
-3.7518513,1.4219877,-1.9577072,-0.88728356,0.2435725,-0.39166343,0
-4.4921927,0.69852328,-0.56535912,-0.88728356,0.2435725,-0.39166343,0
0.75550073,0.30027878,2.7857313,-0.30592152,0.32470578,0.89497387,0
3.8102987,1.6095285,1.5192606,0.34516639,0.91391385,-0.21359202,0
-1.0778053,2.5487521,1.6299062,-0.30592152,0.32470578,0.89497387,0
3.3580914,-0.39503214,3.8179681,0.88728356,-0.2435725,0.39166343,0
-4.7573256,0.66823578,0.83926415,-0.30592152,0.32470578,0.89497387,0
3.6464643,-0.87974,-1.0529996,0.30592152,-0.32470578,-0.89497387,0
0.17757559,-2.8271947,-0.49307168,-0.34516639,-0.91391385,0.21359202,0
-1.9675008,-2.3183029,-0.85178888,-0.34516639,-0.91391385,0.21359202,0
1.7947026,2.014138,-0.10043183,0.34516639,0.91391385,-0.21359202,0
3.4040422,1.7009223,1.6549408,0.34516639,0.91391385,-0.21359202,0
2.9931064,1.9235961,1.7060249,0.34516639,0.91391385,-0.21359202,0
2.84676,-1.6565174,4.0307102,0.88728356,-0.2435725,0.39166343,0
3.6341994,0.62494648,3.2137613,0.88728356,-0.2435725,0.39166343,0
3.8517098,-1.110376,2.454663,0.88728356,-0.2435725,0.39166343,0
3.1807058,-2.9529042,2.3025022,0.88728356,-0.2435725,0.39166343,0
-2.4595079,3.6225672,-1.0507562,0.34516639,0.91391385,-0.21359202,0
1.1470712,-3.0386953,0.42030168,-0.34516639,-0.91391385,0.21359202,0
-2.4864364,-1.5575792,0.17390847,-0.34516639,-0.91391385,0.21359202,0
0.34633744,-0.70325106,3.280163,-0.30592152,0.32470578,0.89497387,0
4.4068594,0.58444041,2.257766,0.88728356,-0.2435725,0.39166343,0
0.97979486,2.8079123,2.308928,-0.30592152,0.32470578,0.89497387,0
4.6226387,1.4547446,1.5311767,0.34516639,0.91391385,-0.21359202,0
3.33779,1.3790267,-0.72965991,0.34516639,0.91391385,-0.21359202,0
-1.6846434,-2.2723272,-0.92029005,-0.34516639,-0.91391385,0.21359202,0
3.2385468,-0.72960144,4.0048923,0.88728356,-0.2435725,0.39166343,0
4.2408972,0.85621142,2.6454444,0.88728356,-0.2435725,0.39166343,0
-2.0390286,-2.3096161,-0.5378499,-0.34516639,-0.91391385,0.21359202,0
3.4830289,-0.41532403,2.8569586,0.88728356,-0.2435725,0.39166343,0
3.4540293,-3.3187671,1.2686706,0.88728356,-0.2435725,0.39166343,0
0.62482947,2.847997,1.3781722,0.34516639,0.91391385,-0.21359202,0
3.3398986,-1.9049842,-0.83269536,0.30592152,-0.32470578,-0.89497387,0
4.3136511,0.34554148,2.2227848,0.88728356,-0.2435725,0.39166343,0
5.0690026,0.79523873,0.46653247,0.88728356,-0.2435725,0.39166343,0
1.9275317,1.5477623,-2.591876,0.34516639,0.91391385,-0.21359202,0
-4.0253034,-1.5355821,-2.9972486,-0.88728356,0.2435725,-0.39166343,0
-1.9028189,3.5023739,0.7039578,-0.30592152,0.32470578,0.89497387,0
-3.6166239,3.7644601,-0.8179245,-0.88728356,0.2435725,-0.39166343,0
2.3514993,0.79630208,-2.3063786,0.30592152,-0.32470578,-0.89497387,0
-3.4673824,3.4585991,-1.9522529,-0.88728356,0.2435725,-0.39166343,0
-3.2359281,3.2170537,0.47634459,-0.30592152,0.32470578,0.89497387,0
4.6751328,1.5305521,2.1926317,0.88728356,-0.2435725,0.39166343,0
-5.3273668,-0.14471197,-0.0036606789,-0.88728356,0.2435725,-0.39166343,0
-4.7301393,1.8957517,0.27393222,-0.88728356,0.2435725,-0.39166343,0
-0.18285382,0.1713028,-3.1074846,0.30592152,-0.32470578,-0.89497387,0
5.0154014,-1.1564708,-0.68912315,0.88728356,-0.2435725,0.39166343,0
-2.9703732,2.9585767,-2.600533,-0.88728356,0.2435725,-0.39166343,0
3.4630656,-0.088814914,3.3766255,0.88728356,-0.2435725,0.39166343,0
3.808238,-0.16401148,2.8744853,0.88728356,-0.2435725,0.39166343,0
-1.5283391,-2.2587368,-2.6731019,0.30592152,-0.32470578,-0.89497387,0
-2.1877131,2.5983613,-3.4647989,0.34516639,0.91391385,-0.21359202,0
-4.3024988,0.29457581,-1.9253881,-0.88728356,0.2435725,-0.39166343,0
3.2954741,-1.0257295,2.9084487,0.88728356,-0.2435725,0.39166343,0
-0.3496201,-1.7374562,3.1915665,-0.30592152,0.32470578,0.89497387,0
4.8733096,0.32770634,0.55034614,0.88728356,-0.2435725,0.39166343,0
2.4751709,0.931036,-2.4507868,0.30592152,-0.32470578,-0.89497387,0
-2.2763536,2.3382597,1.2232137,-0.30592152,0.32470578,0.89497387,0
2.0100861,1.9113709,-0.87000662,0.34516639,0.91391385,-0.21359202,0
-1.3552163,3.5116725,1.1089947,0.34516639,0.91391385,-0.21359202,0
-2.3124292,-1.2647896,2.5357003,-0.30592152,0.32470578,0.89497387,0
-3.4447145,1.321311,-2.9961979,-0.88728356,0.2435725,-0.39166343,0
-2.2845788,2.7609468,-3.1836548,0.34516639,0.91391385,-0.21359202,0
-3.8305244,-0.72881186,-3.6704602,-0.88728356,0.2435725,-0.39166343,0
5.5420527,0.38069177,-0.51762438,0.88728356,-0.2435725,0.39166343,0
-4.9429889,0.40404558,-0.03259182,-0.88728356,0.2435725,-0.39166343,0
-2.9187446,2.336266,1.0531962,-0.30592152,0.32470578,0.89497387,0
-1.9720424,3.3776562,-0.74757552,0.34516639,0.91391385,-0.21359202,0
-4.1513743,1.4975264,-0.85512185,-0.88728356,0.2435725,-0.39166343,0
1.8807539,-3.1703267,-0.85501838,0.30592152,-0.32470578,-0.89497387,0
-4.5247564,-0.74407792,-1.5112121,-0.88728356,0.2435725,-0.39166343,0
0.48751688,1.2877939,-3.2663131,0.30592152,-0.32470578,-0.89497387,0
3.9112587,0.30721045,3.2256317,0.88728356,-0.2435725,0.39166343,0
4.34795,-0.28611374,1.0299332,0.88728356,-0.2435725,0.39166343,0
-1.8901129,3.2592566,-1.1074936,0.34516639,0.91391385,-0.21359202,0
-3.0308673,1.147853,-3.4075785,-0.88728356,0.2435725,-0.39166343,0
4.1174498,-0.90407228,-1.0098721,0.30592152,-0.32470578,-0.89497387,0
2.1656685,-1.4714935,-1.5228566,0.30592152,-0.32470578,-0.89497387,0
1.3706017,-2.3560548,3.4857781,-0.34516639,-0.91391385,0.21359202,0
-3.2171488,3.4869313,-1.6530168,-0.88728356,0.2435725,-0.39166343,0
-0.64687562,0.50839484,2.5119162,-0.30592152,0.32470578,0.89497387,0
-2.7812464,1.746318,-3.8703487,-0.88728356,0.2435725,-0.39166343,0
-3.2735698,1.2495687,-3.1165605,-0.88728356,0.2435725,-0.39166343,0
0.30585468,-2.8664165,-0.038652062,-0.34516639,-0.91391385,0.21359202,0
4.0264521,-0.10868454,1.9968944,0.88728356,-0.2435725,0.39166343,0
2.2513404,-1.0677063,-1.6140162,0.30592152,-0.32470578,-0.89497387,0
-3.5684714,0.76428664,-3.07549,-0.88728356,0.2435725,-0.39166343,0
2.9671092,-1.0414667,4.3430614,-0.30592152,0.32470578,0.89497387,0
-3.2089126,-1.6900896,-0.21633035,-0.34516639,-0.91391385,0.21359202,0
3.992147,1.3546818,0.59870946,0.34516639,0.91391385,-0.21359202,0
4.5976243,-1.986407,-0.06758976,0.88728356,-0.2435725,0.39166343,0
-2.5685773,3.5340335,0.13062477,0.34516639,0.91391385,-0.21359202,0
-4.1859102,2.5796349,-0.16287446,-0.88728356,0.2435725,-0.39166343,0
3.9461813,-2.3925085,0.7928021,0.88728356,-0.2435725,0.39166343,0
3.4170809,-1.0945823,2.7700393,0.88728356,-0.2435725,0.39166343,0
0.69062316,0.57903719,3.0000198,-0.30592152,0.32470578,0.89497387,0
1.1663388,0.39597869,-2.42294,0.30592152,-0.32470578,-0.89497387,0
-3.9299259,-1.1431454,-3.0088391,-0.88728356,0.2435725,-0.39166343,0
-2.6235073,2.2087874,-4.0662098,-0.88728356,0.2435725,-0.39166343,0
-3.4784684,-0.78596079,-3.5015686,0.30592152,-0.32470578,-0.89497387,0
-2.057117,-0.94994891,2.3533218,-0.30592152,0.32470578,0.89497387,0
4.1570311,-3.6953659,0.095586777,0.88728356,-0.2435725,0.39166343,0
3.5955873,0.30080947,3.5386,0.88728356,-0.2435725,0.39166343,0
-4.1912861,-0.31149638,-1.7638476,-0.88728356,0.2435725,-0.39166343,0
-1.3550258,2.5500674,-2.725275,0.34516639,0.91391385,-0.21359202,0
-1.9103711,-1.958837,-2.8123832,0.30592152,-0.32470578,-0.89497387,0
0.10759997,-1.2793329,3.2976832,-0.30592152,0.32470578,0.89497387,0
0.26401973,2.2887435,-2.1526132,0.34516639,0.91391385,-0.21359202,0
4.3135858,0.8003127,1.9537146,0.88728356,-0.2435725,0.39166343,0
-1.6234455,-1.4078971,2.3341193,-0.34516639,-0.91391385,0.21359202,0
-3.105823,1.5836957,1.0360751,-0.30592152,0.32470578,0.89497387,0
-4.8100882,0.24232483,-0.75042629,-0.88728356,0.2435725,-0.39166343,0
-1.3803058,-0.50202513,2.3076272,-0.30592152,0.32470578,0.89497387,0
-1.1845896,0.59120476,2.0402122,-0.30592152,0.32470578,0.89497387,0
5.3125033,-0.086889744,-0.79524446,0.88728356,-0.2435725,0.39166343,0
3.8902063,0.89259821,2.8104978,0.88728356,-0.2435725,0.39166343,0
-2.6427016,-1.1999949,1.5446298,-0.34516639,-0.91391385,0.21359202,0
3.8326795,-0.061680079,3.1931331,0.88728356,-0.2435725,0.39166343,0
-2.4383576,0.24701643,2.0697794,-0.30592152,0.32470578,0.89497387,0
-0.26433301,3.1122501,0.71087027,0.34516639,0.91391385,-0.21359202,0
-2.8613806,1.7343016,-4.3752422,-0.88728356,0.2435725,-0.39166343,0
3.5276704,0.37818468,3.5270138,0.88728356,-0.2435725,0.39166343,0
3.6255295,0.51392537,3.2290163,0.88728356,-0.2435725,0.39166343,0
0.17914999,2.2308321,-1.123855,0.34516639,0.91391385,-0.21359202,0
-0.83245969,1.4595495,-3.5415146,0.30592152,-0.32470578,-0.89497387,0
-3.2479758,1.6063362,-2.8899398,-0.88728356,0.2435725,-0.39166343,0
0.38743985,-0.053513765,-2.4280207,0.30592152,-0.32470578,-0.89497387,0
-3.3324382,3.5077195,-1.3295424,-0.88728356,0.2435725,-0.39166343,0
-3.7579188,1.095091,-2.267277,-0.88728356,0.2435725,-0.39166343,0
-0.29431155,-1.390275,-2.4363108,0.30592152,-0.32470578,-0.89497387,0
-4.204525,2.4284995,-0.54822707,-0.88728356,0.2435725,-0.39166343,0
-2.6965151,3.1066885,-2.8973272,0.34516639,0.91391385,-0.21359202,0
2.8028393,-1.6767051,4.4069805,0.88728356,-0.2435725,0.39166343,0
-0.056117773,2.3739297,-1.690981,0.34516639,0.91391385,-0.21359202,0
-0.59287429,3.0742953,0.53379881,0.34516639,0.91391385,-0.21359202,0
-3.7045698,1.4326705,-2.2795434,-0.88728356,0.2435725,-0.39166343,0
3.4254885,1.348436,-0.92053998,0.34516639,0.91391385,-0.21359202,0
3.4793372,-1.6052403,2.4425011,0.88728356,-0.2435725,0.39166343,0
2.6466618,-0.18956304,-1.9442567,0.30592152,-0.32470578,-0.89497387,0
2.848664,-1.381914,4.09832,0.88728356,-0.2435725,0.39166343,0
-3.3950365,-0.61412901,-3.6742961,0.30592152,-0.32470578,-0.89497387,0
-2.5717573,-1.8973355,-1.1335372,-0.34516639,-0.91391385,0.21359202,0
-0.85913116,3.4355114,1.0202839,0.34516639,0.91391385,-0.21359202,0
0.29201996,-2.6883562,0.020477533,-0.34516639,-0.91391385,0.21359202,0
-4.2086582,1.0508103,1.0700488,-0.30592152,0.32470578,0.89497387,0
-2.7213547,2.1566262,-3.7057302,-0.88728356,0.2435725,-0.39166343,0
4.556777,-1.5356963,-0.023106098,0.88728356,-0.2435725,0.39166343,0
-2.9306803,1.3046782,1.2414285,-0.30592152,0.32470578,0.89497387,0
-3.6196852,0.62501127,-2.8306651,-0.88728356,0.2435725,-0.39166343,0
3.1064577,-1.4681319,3.6485143,0.88728356,-0.2435725,0.39166343,0
-3.7833314,1.256386,-1.6640964,-0.88728356,0.2435725,-0.39166343,0
-1.0019803,0.1528511,2.2157388,-0.30592152,0.32470578,0.89497387,0
4.9299526,0.38527274,0.70485878,0.88728356,-0.2435725,0.39166343,0
-2.952955,3.7084002,0.19882131,0.34516639,0.91391385,-0.21359202,0
2.2628901,2.4324977,2.307301,0.34516639,0.91391385,-0.21359202,0
4.4680748,0.050109148,1.3003848,0.88728356,-0.2435725,0.39166343,0
3.5477312,-0.9299345,3.2578504,0.88728356,-0.2435725,0.39166343,0
1.002215,-2.9492316,1.3188758,-0.34516639,-0.91391385,0.21359202,0
3.1620169,-2.3114901,2.5597484,0.88728356,-0.2435725,0.39166343,0
5.1718745,-0.24374795,-0.33707261,0.88728356,-0.2435725,0.39166343,0
4.4031353,-1.3659515,0.68469572,0.88728356,-0.2435725,0.39166343,0
2.8329213,-2.9169536,3.3769276,-0.34516639,-0.91391385,0.21359202,0
-3.4927664,1.4213673,-2.5035682,-0.88728356,0.2435725,-0.39166343,0
3.529742,-0.8747704,-1.2436093,0.30592152,-0.32470578,-0.89497387,0
3.3497505,2.0249975,3.0048046,-0.30592152,0.32470578,0.89497387,0
1.3279719,-1.5743393,3.890182,-0.30592152,0.32470578,0.89497387,0
0.38670111,-2.5973852,1.6118129,-0.34516639,-0.91391385,0.21359202,0
-2.836652,3.7897034,0.0026371479,0.34516639,0.91391385,-0.21359202,0
3.4321737,-1.758759,2.2054515,0.88728356,-0.2435725,0.39166343,0
5.0523729,-0.42744875,-0.64483166,0.88728356,-0.2435725,0.39166343,0
-3.6663542,-0.066638231,1.7751637,-0.30592152,0.32470578,0.89497387,0
-4.2132907,0.056788325,-1.5954792,-0.88728356,0.2435725,-0.39166343,0
2.3837509,1.9669216,0.97688198,0.34516639,0.91391385,-0.21359202,0
-1.2511091,-1.2507277,-2.8693545,0.30592152,-0.32470578,-0.89497387,0
5.234108,0.97672582,0.2754252,0.34516639,0.91391385,-0.21359202,0
4.0013843,-1.7280002,-0.75424671,0.30592152,-0.32470578,-0.89497387,0
-3.914156,-1.3056757,-0.15477657,-0.34516639,-0.91391385,0.21359202,0
-0.2412411,-0.50833929,-2.5498652,0.30592152,-0.32470578,-0.89497387,0
2.4658751,-2.8303876,3.7178357,0.88728356,-0.2435725,0.39166343,0
0.094731808,-0.34350383,-2.6790755,0.30592152,-0.32470578,-0.89497387,0
-3.7255883,-0.29997361,-2.948245,-0.88728356,0.2435725,-0.39166343,0
-1.4770856,-2.2360768,0.40340945,-0.34516639,-0.91391385,0.21359202,0
-2.0688577,-2.4117925,-1.4374009,-0.34516639,-0.91391385,0.21359202,0
-1.5867368,2.7486053,-2.6140914,0.34516639,0.91391385,-0.21359202,0
-4.3712392,-0.55107605,-1.5924668,-0.88728356,0.2435725,-0.39166343,0
-2.5322633,-2.1837773,-3.010906,0.30592152,-0.32470578,-0.89497387,0
-2.8776226,-1.5386451,-3.2879677,0.30592152,-0.32470578,-0.89497387,0
-4.2590518,-0.75818014,-2.2353911,-0.88728356,0.2435725,-0.39166343,0
3.1120491,-3.19626,-0.47520661,0.30592152,-0.32470578,-0.89497387,0
2.7988267,1.6622305,-0.52150393,0.34516639,0.91391385,-0.21359202,0
-4.6686411,-0.67884481,-1.1566045,-0.88728356,0.2435725,-0.39166343,0
-4.4689264,2.3170867,-0.21636105,-0.88728356,0.2435725,-0.39166343,0
-1.2910414,1.4564067,1.9278669,-0.30592152,0.32470578,0.89497387,0
-5.4581518,-0.31639075,0.86428142,-0.88728356,0.2435725,-0.39166343,0
-3.9919138,3.2418108,0.27018428,-0.30592152,0.32470578,0.89497387,0
0.087908149,-2.5285931,-1.6878628,0.30592152,-0.32470578,-0.89497387,0
-2.0191014,2.6436751,-2.9283388,0.34516639,0.91391385,-0.21359202,0
-0.25427485,2.5370932,-1.6886828,0.34516639,0.91391385,-0.21359202,0
-2.7657938,1.9647171,-3.8956025,-0.88728356,0.2435725,-0.39166343,0
-0.94372374,-2.8322334,-1.430218,-0.34516639,-0.91391385,0.21359202,0
-2.2364631,1.2139184,-4.0712342,0.30592152,-0.32470578,-0.89497387,0
-3.1677814,0.95680463,-3.2775204,-0.88728356,0.2435725,-0.39166343,0
-4.4853101,-1.2524585,-1.955551,-0.88728356,0.2435725,-0.39166343,0
-4.3576288,-0.03843987,-1.4408324,-0.88728356,0.2435725,-0.39166343,0
-3.6203513,3.6527348,-1.019042,-0.88728356,0.2435725,-0.39166343,0
-3.2685852,-1.3975873,1.2694409,-0.34516639,-0.91391385,0.21359202,0
-1.8082908,3.03231,-0.93606043,0.34516639,0.91391385,-0.21359202,0
-3.95679,3.3618793,-0.29635906,-0.88728356,0.2435725,-0.39166343,0
2.9481544,0.59838694,3.6803854,-0.30592152,0.32470578,0.89497387,0
1.3288174,-2.8353722,0.78770852,-0.34516639,-0.91391385,0.21359202,0
3.5798979,-0.72789812,3.2838972,0.88728356,-0.2435725,0.39166343,0
1.0307503,2.2362659,-0.55770862,0.34516639,0.91391385,-0.21359202,0
0.74662614,-2.679827,1.8007902,-0.34516639,-0.91391385,0.21359202,0
3.960155,-3.7619097,0.50088978,0.88728356,-0.2435725,0.39166343,0
-3.6606693,-1.2818868,0.64391315,-0.34516639,-0.91391385,0.21359202,0
-3.769073,-1.9318144,-1.8759238,-0.34516639,-0.91391385,0.21359202,0
4.3885417,-2.4244723,0.21665192,0.88728356,-0.2435725,0.39166343,0
-1.1643616,-1.3574629,-2.6398473,0.30592152,-0.32470578,-0.89497387,0
-0.18875778,2.6902187,-0.63026929,0.34516639,0.91391385,-0.21359202,0
0.9216584,-3.3038878,-1.0951297,-0.34516639,-0.91391385,0.21359202,0
4.0370002,-0.39431226,2.1954305,0.88728356,-0.2435725,0.39166343,0
4.3402715,1.2682073,1.6653746,0.34516639,0.91391385,-0.21359202,0
-3.3752108,1.1262751,1.1900549,-0.30592152,0.32470578,0.89497387,0
-2.2137656,-1.3893182,1.8391354,-0.34516639,-0.91391385,0.21359202,0
1.5100433,-2.6533837,3.3109031,-0.34516639,-0.91391385,0.21359202,0
-4.3825068,2.2673364,-0.07019043,-0.88728356,0.2435725,-0.39166343,0
4.984004,0.35145211,0.22467113,0.88728356,-0.2435725,0.39166343,0
0.4874723,-2.469223,1.4178038,-0.34516639,-0.91391385,0.21359202,0
2.4437568,-2.5537186,3.858803,-0.34516639,-0.91391385,0.21359202,0
-2.0862749,-2.3275895,-1.9487062,-0.34516639,-0.91391385,0.21359202,0
0.11345363,1.7526119,-3.5439277,0.30592152,-0.32470578,-0.89497387,0
-4.484633,-0.69548297,1.3237932,-0.34516639,-0.91391385,0.21359202,0
1.8977302,1.7445841,-1.3416959,0.34516639,0.91391385,-0.21359202,0
-4.321619,2.5884762,0.42453861,-0.30592152,0.32470578,0.89497387,0
0.86391401,-2.9708047,0.63643956,-0.34516639,-0.91391385,0.21359202,0
-2.3034368,2.4514105,-4.3525925,0.30592152,-0.32470578,-0.89497387,0
-2.6457238,-1.6530901,-3.0068138,0.30592152,-0.32470578,-0.89497387,0
-2.1386778,0.43164405,-3.8196783,0.30592152,-0.32470578,-0.89497387,0
2.5287728,1.8819764,3.0000086,-0.30592152,0.32470578,0.89497387,0
3.5935578,1.8375248,1.241793,0.34516639,0.91391385,-0.21359202,0
-5.20397,-0.035197735,0.44447589,-0.88728356,0.2435725,-0.39166343,0
1.9495237,-3.5896537,-0.16125083,-0.34516639,-0.91391385,0.21359202,0
-2.220027,1.0064006,-4.0711427,0.30592152,-0.32470578,-0.89497387,0
-3.8826981,-1.2681897,0.38652706,-0.34516639,-0.91391385,0.21359202,0
-0.17058527,2.6027224,-0.98188102,0.34516639,0.91391385,-0.21359202,0
-4.0513821,0.30948997,-1.6878526,-0.88728356,0.2435725,-0.39166343,0
-3.0511675,0.55369139,-3.8282003,-0.88728356,0.2435725,-0.39166343,0
1.1697943,2.7359366,2.0643587,0.34516639,0.91391385,-0.21359202,0
0.83316123,2.6666069,0.40859413,0.34516639,0.91391385,-0.21359202,0
0.28704429,0.80081356,-3.0590897,0.30592152,-0.32470578,-0.89497387,0
-2.6179652,3.729197,-0.56393981,0.34516639,0.91391385,-0.21359202,0
2.9769456,-1.3428886,4.1190019,-0.30592152,0.32470578,0.89497387,0
1.5366092,-0.28589946,3.5692663,-0.30592152,0.32470578,0.89497387,0
3.611058,-1.5210576,-1.0712388,0.30592152,-0.32470578,-0.89497387,0
1.1090611,2.5277157,2.4107161,-0.30592152,0.32470578,0.89497387,0
3.14223,-2.0196426,3.6242201,0.88728356,-0.2435725,0.39166343,0
-0.83239079,0.61654812,-3.3134899,0.30592152,-0.32470578,-0.89497387,0
0.92001235,-1.501165,3.5960395,-0.30592152,0.32470578,0.89497387,0
-3.9531209,1.3495286,1.1557349,-0.30592152,0.32470578,0.89497387,0
-1.9336965,0.22163486,1.8777245,-0.30592152,0.32470578,0.89497387,0
-1.0724993,1.7001451,1.7050574,-0.30592152,0.32470578,0.89497387,0
4.3086715,-2.3913543,0.36678815,0.88728356,-0.2435725,0.39166343,0
3.341311,-1.2230202,2.7617102,0.88728356,-0.2435725,0.39166343,0
1.6218593,1.3757157,-2.4153457,0.34516639,0.91391385,-0.21359202,0
1.7175349,-0.64886338,3.6161685,-0.30592152,0.32470578,0.89497387,0
1.6632719,-0.22018909,-2.1033449,0.30592152,-0.32470578,-0.89497387,0
-3.3357143,-1.6674513,-0.25954086,-0.34516639,-0.91391385,0.21359202,0
-4.1254191,-1.5981945,-1.9131446,-0.34516639,-0.91391385,0.21359202,0
4.2732539,-1.0572793,0.65563154,0.88728356,-0.2435725,0.39166343,0
-0.0081040859,2.1838608,-2.3507264,0.34516639,0.91391385,-0.21359202,0
0.79619884,2.346976,-1.287145,0.34516639,0.91391385,-0.21359202,0
2.2010162,1.209378,-2.0619442,0.34516639,0.91391385,-0.21359202,0
1.0571376,-2.7188053,-1.3673022,0.30592152,-0.32470578,-0.89497387,0
1.8871489,-0.79066539,3.7411737,-0.30592152,0.32470578,0.89497387,0
2.1146364,-3.4118552,0.35944891,-0.34516639,-0.91391385,0.21359202,0
-0.89913338,-2.6268454,-1.7176161,-0.34516639,-0.91391385,0.21359202,0
-3.2711139,3.0913711,-1.81569,-0.88728356,0.2435725,-0.39166343,0
3.0620055,0.27283281,3.6716192,-0.30592152,0.32470578,0.89497387,0
3.1792903,-3.5373502,1.402812,-0.34516639,-0.91391385,0.21359202,0
0.15632081,-2.3688071,2.7472858,-0.34516639,-0.91391385,0.21359202,0
-3.4216011,2.6083529,-2.0183077,-0.88728356,0.2435725,-0.39166343,0
1.1354682,-0.04875946,-2.5009727,0.30592152,-0.32470578,-0.89497387,0
-4.0046997,-1.3723861,-3.3933706,-0.88728356,0.2435725,-0.39166343,0
0.77780533,0.27205813,2.7923627,-0.30592152,0.32470578,0.89497387,0
-2.5675416,-0.54457271,-3.5445824,0.30592152,-0.32470578,-0.89497387,0
3.8126953,-1.808071,1.303582,0.88728356,-0.2435725,0.39166343,0
3.7542086,0.087766051,2.5435317,0.88728356,-0.2435725,0.39166343,0
-1.4207846,2.6214542,-2.6985335,0.34516639,0.91391385,-0.21359202,0
-0.48764944,2.3644676,-2.4414332,0.34516639,0.91391385,-0.21359202,0
0.86623549,-0.21562696,3.1000006,-0.30592152,0.32470578,0.89497387,0
-0.98990643,2.1789746,1.7162715,-0.30592152,0.32470578,0.89497387,0
2.5202079,-3.6782532,-0.2531054,-0.34516639,-0.91391385,0.21359202,0
-3.405127,0.67415226,-3.2537425,-0.88728356,0.2435725,-0.39166343,0
-3.8361089,3.1320627,-0.39498711,-0.88728356,0.2435725,-0.39166343,0
-1.4023502,-2.2844718,-2.6476188,0.30592152,-0.32470578,-0.89497387,0
-1.5099785,0.96492612,1.8323103,-0.30592152,0.32470578,0.89497387,0
-2.0239925,2.76808,-3.3626425,0.34516639,0.91391385,-0.21359202,0
0.62516773,-2.6620278,1.1123959,-0.34516639,-0.91391385,0.21359202,0
-0.58409029,3.0666504,1.6684011,-0.30592152,0.32470578,0.89497387,0
4.3780317,0.96155334,-0.2221452,0.34516639,0.91391385,-0.21359202,0
4.2915764,-1.1983726,1.220448,0.88728356,-0.2435725,0.39166343,0
1.4640968,-2.3925533,3.892483,-0.34516639,-0.91391385,0.21359202,0
-4.3480611,-1.4924991,-2.5351329,-0.88728356,0.2435725,-0.39166343,0
-3.4620335,2.859468,-1.9376385,-0.88728356,0.2435725,-0.39166343,0
1.3924803,-3.3034191,-1.1079971,-0.34516639,-0.91391385,0.21359202,0
1.2652152,-1.7526543,-1.6237019,0.30592152,-0.32470578,-0.89497387,0
1.1493979,-3.1538136,-0.65817344,-0.34516639,-0.91391385,0.21359202,0
-0.091139555,2.3223743,-2.4588141,0.34516639,0.91391385,-0.21359202,0
1.9899755,-2.9162784,1.8148427,-0.34516639,-0.91391385,0.21359202,0
-3.7748566,4.0623693,-0.73610592,-0.88728356,0.2435725,-0.39166343,0
0.13165271,2.5443802,1.7867217,-0.30592152,0.32470578,0.89497387,0
-1.4281691,-2.6812496,-1.1926394,-0.34516639,-0.91391385,0.21359202,0
4.9670706,-0.72101712,-0.029924154,0.88728356,-0.2435725,0.39166343,0
-3.1323879,2.0281925,-3.6215954,-0.88728356,0.2435725,-0.39166343,0
4.0116968,1.4614031,3.78861,0.88728356,-0.2435725,0.39166343,0
2.6690829,2.0190883,2.9818847,-0.30592152,0.32470578,0.89497387,0
-0.295542,1.3086489,-3.1925948,0.30592152,-0.32470578,-0.89497387,0
-3.3652182,-1.993561,-2.1329601,-0.34516639,-0.91391385,0.21359202,0
-4.4474406,0.050698519,-1.7987881,-0.88728356,0.2435725,-0.39166343,0
-5.2637434,-0.67083502,0.72481298,-0.34516639,-0.91391385,0.21359202,0
2.3611188,-3.3906555,-0.60621452,0.30592152,-0.32470578,-0.89497387,0
-3.0623834,2.0981741,-3.6685472,-0.88728356,0.2435725,-0.39166343,0
-3.9637737,0.50485086,-2.6905231,-0.88728356,0.2435725,-0.39166343,0
-4.4081349,-1.6763031,-2.0410457,-0.88728356,0.2435725,-0.39166343,0
3.8559501,-1.3883271,-0.81078863,0.30592152,-0.32470578,-0.89497387,0
-5.0574331,0.030474424,0.19421458,-0.88728356,0.2435725,-0.39166343,0
-4.1746631,0.75710022,-1.3378143,-0.88728356,0.2435725,-0.39166343,0
-3.1494601,2.1429477,-3.4386227,-0.88728356,0.2435725,-0.39166343,0
-2.5691478,-0.19425061,-3.5751786,0.30592152,-0.32470578,-0.89497387,0
4.2485065,1.8640493,2.2841945,0.34516639,0.91391385,-0.21359202,0
4.8798723,0.67634273,-1.0947624,0.34516639,0.91391385,-0.21359202,0
2.053175,1.6528797,-1.9271213,0.34516639,0.91391385,-0.21359202,0
-2.1257203,-2.3587487,-2.2656839,-0.34516639,-0.91391385,0.21359202,0
1.3971419,-0.35968614,-2.1061931,0.30592152,-0.32470578,-0.89497387,0
3.4306777,1.8214471,2.0715919,0.34516639,0.91391385,-0.21359202,0
3.4918447,1.248199,0.19712794,0.34516639,0.91391385,-0.21359202,0
-4.7956715,0.92587876,-0.15097332,-0.88728356,0.2435725,-0.39166343,0
-1.6673137,-1.8348231,1.1739405,-0.34516639,-0.91391385,0.21359202,0
2.2302318,-3.584563,0.60009551,-0.34516639,-0.91391385,0.21359202,0
-3.5529981,0.62393558,-2.543658,-0.88728356,0.2435725,-0.39166343,0
-0.67184579,2.6917067,1.7479242,-0.30592152,0.32470578,0.89497387,0
2.8341641,-2.8318207,3.7638562,0.88728356,-0.2435725,0.39166343,0
-0.65405965,-1.8750188,3.2131734,-0.34516639,-0.91391385,0.21359202,0
0.26032686,1.8309076,-3.0449715,0.34516639,0.91391385,-0.21359202,0
-4.3515792,1.8340161,0.72873068,-0.30592152,0.32470578,0.89497387,0
0.20219231,-2.3960803,1.7407391,-0.34516639,-0.91391385,0.21359202,0
-1.0637193,-1.6631527,2.3372002,-0.34516639,-0.91391385,0.21359202,0
-2.7670465,2.8464718,-3.1377432,-0.88728356,0.2435725,-0.39166343,0
3.4395571,0.18414572,3.4316173,0.88728356,-0.2435725,0.39166343,0
0.77327704,1.3095355,2.7039409,-0.30592152,0.32470578,0.89497387,0
-3.5345547,4.0427089,-0.75574112,0.34516639,0.91391385,-0.21359202,0
4.1495156,-1.9087243,0.96007729,0.88728356,-0.2435725,0.39166343,0
0.62891293,2.8030474,1.2035718,0.34516639,0.91391385,-0.21359202,0
-3.4622107,1.6493683,-2.95274,-0.88728356,0.2435725,-0.39166343,0
1.5320486,-2.7506795,3.2759223,-0.34516639,-0.91391385,0.21359202,0
-0.90944493,0.22918999,2.2782485,-0.30592152,0.32470578,0.89497387,0
-3.5109301,0.94283438,-3.0790446,-0.88728356,0.2435725,-0.39166343,0
-3.2082834,-1.4835813,0.64540923,-0.34516639,-0.91391385,0.21359202,0
4.6763706,-0.95448041,0.52716804,0.88728356,-0.2435725,0.39166343,0
-0.61891901,-0.51778758,2.6825399,-0.30592152,0.32470578,0.89497387,0
-1.6475878,0.80098587,-3.8180609,0.30592152,-0.32470578,-0.89497387,0
2.2463603,-2.6387982,4.0996447,-0.34516639,-0.91391385,0.21359202,0
5.0137305,-0.25763893,-0.039248705,0.88728356,-0.2435725,0.39166343,0
-1.3825252,2.4220972,-4.1659842,0.34516639,0.91391385,-0.21359202,0
-1.0378014,2.8553038,-0.40407729,0.34516639,0.91391385,-0.21359202,0
-1.8262341,2.4090385,1.1554713,-0.30592152,0.32470578,0.89497387,0
-0.36395356,-0.85433912,-2.4277451,0.30592152,-0.32470578,-0.89497387,0
-1.8273028,2.1941285,1.5251474,-0.30592152,0.32470578,0.89497387,0
0.20255733,-0.9045558,-2.5044158,0.30592152,-0.32470578,-0.89497387,0
-3.4182138,2.0319321,-2.7659605,-0.88728356,0.2435725,-0.39166343,0
-4.2014031,3.195642,0.3151567,-0.30592152,0.32470578,0.89497387,0
-4.7565727,-0.13349628,-0.74682832,-0.88728356,0.2435725,-0.39166343,0
-4.0075622,0.23549694,-2.6357603,-0.88728356,0.2435725,-0.39166343,0
-0.84845448,-1.77341,2.9533722,-0.34516639,-0.91391385,0.21359202,0
1.5112646,-1.9309601,-1.6503648,0.30592152,-0.32470578,-0.89497387,0
-2.0882666,3.475749,0.9764936,-0.30592152,0.32470578,0.89497387,0
-2.8638582,-2.0719798,-1.7556088,-0.34516639,-0.91391385,0.21359202,0
-4.6680412,-0.015454531,1.285531,-0.30592152,0.32470578,0.89497387,0
0.25834143,2.3949089,-0.17897606,0.34516639,0.91391385,-0.21359202,0
-0.3928701,-2.5435154,-2.0187979,0.30592152,-0.32470578,-0.89497387,0
-5.0868921,-0.61645818,-0.28997707,-0.88728356,0.2435725,-0.39166343,0
2.9475002,1.6938871,0.31063348,0.34516639,0.91391385,-0.21359202,0
2.2208147,-3.7756474,-0.51283383,-0.34516639,-0.91391385,0.21359202,0
4.932446,-0.19959259,-0.15361166,0.88728356,-0.2435725,0.39166343,0
-3.0247436,-1.2909611,0.67661881,-0.34516639,-0.91391385,0.21359202,0
1.7735553,-3.365073,0.55079937,-0.34516639,-0.91391385,0.21359202,0
-4.2421212,3.6199982,-0.032858372,-0.30592152,0.32470578,0.89497387,0
-4.7211618,-1.2673199,-0.54514909,-0.34516639,-0.91391385,0.21359202,0
4.7159052,-0.46748877,0.11355543,0.88728356,-0.2435725,0.39166343,0
-4.834199,1.1544173,-0.23236275,-0.88728356,0.2435725,-0.39166343,0
-0.54066861,3.0941842,0.44062424,0.34516639,0.91391385,-0.21359202,0
2.120398,2.3843479,2.6709273,0.34516639,0.91391385,-0.21359202,0
1.5252032,1.9730108,2.7978241,-0.30592152,0.32470578,0.89497387,0
-2.1267147,1.2823935,1.4596987,-0.30592152,0.32470578,0.89497387,0
1.9827507,-3.4468443,-1.0299357,0.30592152,-0.32470578,-0.89497387,0
2.9926536,1.9887991,3.1286337,-0.30592152,0.32470578,0.89497387,0
2.8428841,-2.8972559,3.1111834,-0.34516639,-0.91391385,0.21359202,0
0.053530455,3.0383868,0.87192357,0.34516639,0.91391385,-0.21359202,0
2.6128151,0.57558596,3.4491081,-0.30592152,0.32470578,0.89497387,0
4.3247776,-2.2706034,0.028746367,0.88728356,-0.2435725,0.39166343,0
-2.0503087,3.7026398,0.62576056,-0.30592152,0.32470578,0.89497387,0
0.70421362,2.2194328,-1.3884916,0.34516639,0.91391385,-0.21359202,0
4.2733917,-2.3302088,0.020859718,0.88728356,-0.2435725,0.39166343,0
1.3326385,-3.0978432,1.4519343,-0.34516639,-0.91391385,0.21359202,0
-0.42428362,-0.65240049,2.6934907,-0.30592152,0.32470578,0.89497387,0
1.7345064,2.2495472,2.6086397,-0.30592152,0.32470578,0.89497387,0
-0.35114408,2.5715697,-2.1640687,0.34516639,0.91391385,-0.21359202,0
2.8760991,-3.7011023,0.82704687,-0.34516639,-0.91391385,0.21359202,0
2.1497381,1.2817231,-2.3590205,0.34516639,0.91391385,-0.21359202,0
4.0876045,-3.1261663,-0.12921762,0.88728356,-0.2435725,0.39166343,0
3.9072948,-4.0188112,0.11567354,0.30592152,-0.32470578,-0.89497387,0
3.3196511,-2.5702145,-0.83630252,0.30592152,-0.32470578,-0.89497387,0
3.1123431,-3.4790101,2.2726018,-0.34516639,-0.91391385,0.21359202,0
4.0459137,-2.5361829,-0.44725895,0.30592152,-0.32470578,-0.89497387,0
3.7803087,-3.1389458,1.3143704,0.88728356,-0.2435725,0.39166343,0
2.9307141,-3.6397421,-0.44741297,0.30592152,-0.32470578,-0.89497387,0
2.3296337,-2.776835,4.1272993,0.88728356,-0.2435725,0.39166343,0
1.0209682,-2.8251519,-1.4850749,0.30592152,-0.32470578,-0.89497387,0
2.3001113,2.2649937,1.055199,0.34516639,0.91391385,-0.21359202,0
-1.063882,-2.5894523,-0.61400402,-0.34516639,-0.91391385,0.21359202,0
0.242697,-2.142571,2.1052065,-0.34516639,-0.91391385,0.21359202,0
-2.7521162,2.1989677,-3.3930225,-0.88728356,0.2435725,-0.39166343,0
3.8889246,-3.9728649,0.1235404,0.88728356,-0.2435725,0.39166343,0
-3.191844,3.5233569,0.53945279,-0.30592152,0.32470578,0.89497387,0
2.431195,-3.0914102,3.14258,-0.34516639,-0.91391385,0.21359202,0
2.7665138,-3.1339028,2.8715773,0.88728356,-0.2435725,0.39166343,0
3.1164303,-0.076087579,3.9070156,0.88728356,-0.2435725,0.39166343,0
-2.5813246,3.5241218,-1.6717114,0.34516639,0.91391385,-0.21359202,0
-3.3437462,0.01769257,-3.6005199,-0.88728356,0.2435725,-0.39166343,0
-1.1214993,0.56811488,2.2341995,-0.30592152,0.32470578,0.89497387,0
-1.4814229,-2.253675,-0.54254234,-0.34516639,-0.91391385,0.21359202,0
3.53438,-0.75215459,3.318207,0.88728356,-0.2435725,0.39166343,0
-4.2222037,-0.050651312,-2.3141642,-0.88728356,0.2435725,-0.39166343,0
-3.8311734,1.923425,-1.7544253,-0.88728356,0.2435725,-0.39166343,0
3.0765767,-1.6113675,3.4067831,0.88728356,-0.2435725,0.39166343,0
2.3529117,-1.8714852,-1.5186045,0.30592152,-0.32470578,-0.89497387,0
2.131433,-2.9190025,3.1706154,-0.34516639,-0.91391385,0.21359202,0
-0.68938732,-0.92714822,3.1060827,-0.30592152,0.32470578,0.89497387,0
-2.0461929,-1.5785692,2.3719049,-0.34516639,-0.91391385,0.21359202,0
1.4749649,-2.7609613,2.6540942,-0.34516639,-0.91391385,0.21359202,0
2.4002471,-0.91194582,-1.5869002,0.30592152,-0.32470578,-0.89497387,0
-1.6374972,-1.3077531,2.5909865,-0.30592152,0.32470578,0.89497387,0
-3.2592759,-0.80854487,-3.5482008,0.30592152,-0.32470578,-0.89497387,0
5.2090836,0.87937427,-0.40598834,0.34516639,0.91391385,-0.21359202,0
-1.0677414,-2.0011232,1.6577232,-0.34516639,-0.91391385,0.21359202,0
-2.5522792,1.2679849,-4.2782097,0.30592152,-0.32470578,-0.89497387,0
2.8880754,1.2248362,-1.7967155,0.34516639,0.91391385,-0.21359202,0
-4.2325864,-1.7056293,-2.6518955,-0.88728356,0.2435725,-0.39166343,0
5.0711398,0.79219937,-0.065687895,0.34516639,0.91391385,-0.21359202,0
5.0709977,-0.58688402,-0.76173043,0.88728356,-0.2435725,0.39166343,0
-4.2561979,2.7579229,-0.6201632,-0.88728356,0.2435725,-0.39166343,0
-4.7020826,-0.077021122,1.2580289,-0.30592152,0.32470578,0.89497387,0
-5.4633188,-0.37144852,0.84587491,-0.88728356,0.2435725,-0.39166343,0
3.4566419,2.1222172,3.189342,-0.30592152,0.32470578,0.89497387,0
3.7202013,1.0460666,3.2285047,0.88728356,-0.2435725,0.39166343,0
2.6180439,2.3939872,2.2985206,0.34516639,0.91391385,-0.21359202,0
3.1567957,-3.5767536,0.85204387,-0.34516639,-0.91391385,0.21359202,0
-0.4121002,-2.4643164,0.0037919283,-0.34516639,-0.91391385,0.21359202,0
-4.7336674,1.6922147,0.7462182,-0.30592152,0.32470578,0.89497387,0
-2.7479405,-1.617934,0.43066815,-0.34516639,-0.91391385,0.21359202,0
1.4559747,-0.88169032,3.4162698,-0.30592152,0.32470578,0.89497387,0
4.6860375,-0.012995005,0.45280075,0.88728356,-0.2435725,0.39166343,0
4.0336418,-1.454212,1.3593588,0.88728356,-0.2435725,0.39166343,0
4.1937089,-0.94696808,-1.2048044,0.30592152,-0.32470578,-0.89497387,0
0.68719828,-0.03382051,-2.7361178,0.30592152,-0.32470578,-0.89497387,0
4.4818845,-1.2520621,0.28730679,0.88728356,-0.2435725,0.39166343,0
-4.9248214,-0.81649733,1.1172509,-0.34516639,-0.91391385,0.21359202,0
-3.5430851,0.91914731,-2.9029438,-0.88728356,0.2435725,-0.39166343,0
-2.1706443,3.6155405,-0.38711262,0.34516639,0.91391385,-0.21359202,0
4.2301679,-0.9960568,-0.93035114,0.30592152,-0.32470578,-0.89497387,0
3.8498528,-1.379228,1.7285533,0.88728356,-0.2435725,0.39166343,0
-0.82351375,1.7184181,-3.4961095,0.30592152,-0.32470578,-0.89497387,0
2.8597765,-2.6138093,3.2933242,0.88728356,-0.2435725,0.39166343,0
-3.5464687,1.0661653,-3.0325429,-0.88728356,0.2435725,-0.39166343,0
3.6725588,-3.8255901,-0.30414295,0.30592152,-0.32470578,-0.89497387,0
-3.6280544,-1.6843443,-3.5682554,0.30592152,-0.32470578,-0.89497387,0
-3.6355114,0.49138233,-3.389663,-0.88728356,0.2435725,-0.39166343,0
3.8439488,-3.7721224,0.73874235,0.88728356,-0.2435725,0.39166343,0
0.0087976456,-1.1313288,-2.4038293,0.30592152,-0.32470578,-0.89497387,0
3.6402318,0.74455583,3.3109155,0.88728356,-0.2435725,0.39166343,0
-2.9014206,-2.0106456,-1.8857911,-0.34516639,-0.91391385,0.21359202,0
-3.6910319,3.5364342,-0.64457035,-0.88728356,0.2435725,-0.39166343,0
1.9958425,0.27068388,3.4811811,-0.30592152,0.32470578,0.89497387,0
3.2725244,-1.6873574,2.660763,0.88728356,-0.2435725,0.39166343,0
3.8300736,-3.1545966,-0.44330144,0.30592152,-0.32470578,-0.89497387,0
-4.4179702,-0.83111429,0.94145179,-0.34516639,-0.91391385,0.21359202,0
2.3659465,-3.1924114,1.3589475,-0.34516639,-0.91391385,0.21359202,0
-0.63741541,0.33681893,2.5047636,-0.30592152,0.32470578,0.89497387,0
1.8052056,-0.62903476,-2.1659286,0.30592152,-0.32470578,-0.89497387,0
2.407769,-1.1478617,4.0397525,-0.30592152,0.32470578,0.89497387,0
-2.7027376,2.0771179,-3.9246063,-0.88728356,0.2435725,-0.39166343,0
-4.7170572,0.77319026,0.70792723,-0.30592152,0.32470578,0.89497387,0
3.5170975,1.8079629,0.99635494,0.34516639,0.91391385,-0.21359202,0
-3.8799839,2.9541554,0.2436049,-0.30592152,0.32470578,0.89497387,0
0.22665381,0.40044248,-2.9919782,0.30592152,-0.32470578,-0.89497387,0
-4.199831,2.1196399,-1.0304239,-0.88728356,0.2435725,-0.39166343,0
0.044713259,2.7043548,0.0061897039,0.34516639,0.91391385,-0.21359202,0
4.2107463,-2.4324398,0.067491293,0.88728356,-0.2435725,0.39166343,0
3.4182196,-2.3240402,-0.9495399,0.30592152,-0.32470578,-0.89497387,0
3.2836189,-0.9305203,-1.5370326,0.30592152,-0.32470578,-0.89497387,0
1.8882313,-0.15162945,-2.1037524,0.30592152,-0.32470578,-0.89497387,0
4.8962536,0.60799277,0.62306428,0.88728356,-0.2435725,0.39166343,0
1.0077758,-3.0579746,0.23851919,-0.34516639,-0.91391385,0.21359202,0
-3.3280797,-0.16953444,1.6824915,-0.30592152,0.32470578,0.89497387,0
4.1620622,1.6143882,2.2607515,0.34516639,0.91391385,-0.21359202,0
-5.1835032,-0.47779679,-0.33693385,-0.88728356,0.2435725,-0.39166343,0
-1.8274471,1.6803217,-3.9398205,0.30592152,-0.32470578,-0.89497387,0
1.5344943,-3.2367582,-0.59606934,-0.34516639,-0.91391385,0.21359202,0
3.8780096,1.0104327,-0.4325968,0.34516639,0.91391385,-0.21359202,0
-4.8858862,1.0209236,0.81421733,-0.30592152,0.32470578,0.89497387,0
-1.2595296,-1.723473,2.727468,-0.34516639,-0.91391385,0.21359202,0
0.62634391,0.033311844,2.9451201,-0.30592152,0.32470578,0.89497387,0
-1.5477527,-1.7234192,1.3573291,-0.34516639,-0.91391385,0.21359202,0
-1.1592755,2.877445,-0.85255718,0.34516639,0.91391385,-0.21359202,0
0.2862668,2.1822462,-2.0443125,0.34516639,0.91391385,-0.21359202,0
-4.9450912,0.75806069,0.42236304,-0.88728356,0.2435725,-0.39166343,0
-4.4353828,-0.71146393,1.5844744,-0.30592152,0.32470578,0.89497387,0
-3.0249448,-1.7034875,0.4199003,-0.34516639,-0.91391385,0.21359202,0
-1.1233122,-1.8890729,2.0409272,-0.34516639,-0.91391385,0.21359202,0
-0.47848091,1.6712254,1.9087877,-0.30592152,0.32470578,0.89497387,0
3.4524775,-1.8049529,2.0927031,0.88728356,-0.2435725,0.39166343,0
-3.918916,-1.5888456,-1.5732292,-0.34516639,-0.91391385,0.21359202,0
0.42428279,1.7857965,-3.1177199,0.34516639,0.91391385,-0.21359202,0
3.3986971,-2.3232546,2.5677745,0.88728356,-0.2435725,0.39166343,0
-2.9836507,3.1003008,-2.6692817,-0.88728356,0.2435725,-0.39166343,0
2.7091491,-3.3262677,2.0819585,-0.34516639,-0.91391385,0.21359202,0
-1.8437567,3.1731501,-1.1302559,0.34516639,0.91391385,-0.21359202,0
3.2505283,1.4658556,-0.27049035,0.34516639,0.91391385,-0.21359202,0
-3.9330645,-1.8121186,-3.3193419,0.30592152,-0.32470578,-0.89497387,0
1.6339021,1.1624123,-2.6142099,0.30592152,-0.32470578,-0.89497387,0
1.5562972,0.012467921,3.4693084,-0.30592152,0.32470578,0.89497387,0
-4.5008969,0.26145077,-0.77398109,-0.88728356,0.2435725,-0.39166343,0
-2.6162918,2.5571103,-3.5892909,-0.88728356,0.2435725,-0.39166343,0
2.9655149,1.6310339,3.3193855,-0.30592152,0.32470578,0.89497387,0
2.2681704,-1.8035471,-1.4274099,0.30592152,-0.32470578,-0.89497387,0
0.49366212,-2.2586327,3.7721214,-0.34516639,-0.91391385,0.21359202,0
3.1641407,2.2502275,2.8022168,0.34516639,0.91391385,-0.21359202,0
-0.42803502,-1.9876733,2.2162752,-0.34516639,-0.91391385,0.21359202,0
3.541297,0.22397561,3.8271971,0.88728356,-0.2435725,0.39166343,0
-4.9697342,-0.46863914,0.96906126,-0.34516639,-0.91391385,0.21359202,0
-1.838989,-0.82849896,2.281626,-0.30592152,0.32470578,0.89497387,0
2.5552444,-2.2941637,4.2249026,0.88728356,-0.2435725,0.39166343,0
-2.1838109,-1.4944167,-2.8465433,0.30592152,-0.32470578,-0.89497387,0
-4.5428171,0.90281987,-1.0203631,-0.88728356,0.2435725,-0.39166343,0
5.5696077,0.19441557,-0.58801746,0.88728356,-0.2435725,0.39166343,0
5.3906536,0.4476006,-0.91085219,0.30592152,-0.32470578,-0.89497387,0
-1.7284665,2.9990721,-1.4261127,0.34516639,0.91391385,-0.21359202,0
-4.1217184,-2.0664184,-3.0306318,-0.88728356,0.2435725,-0.39166343,0
-3.6876407,0.98886192,-2.9817302,-0.88728356,0.2435725,-0.39166343,0
-3.8772628,3.8555114,-0.0077786446,-0.88728356,0.2435725,-0.39166343,0
-4.1548433,1.842484,-0.68298888,-0.88728356,0.2435725,-0.39166343,0
-1.5028709,-0.59164864,-2.9470775,0.30592152,-0.32470578,-0.89497387,0
-1.6512787,3.3552542,-0.85931921,0.34516639,0.91391385,-0.21359202,0
4.5910378,-0.26608443,1.2219553,0.88728356,-0.2435725,0.39166343,0
2.78702,1.2540382,-1.1750848,0.34516639,0.91391385,-0.21359202,0
3.7276495,0.19000292,-1.5454404,0.30592152,-0.32470578,-0.89497387,0
-3.8297534,0.52738732,-2.9193299,-0.88728356,0.2435725,-0.39166343,0
1.1169065,-3.1975586,0.56059194,-0.34516639,-0.91391385,0.21359202,0
-1.1798048,2.355989,-3.384727,0.34516639,0.91391385,-0.21359202,0
3.458751,-1.7956786,-0.93072736,0.30592152,-0.32470578,-0.89497387,0
1.1745977,-2.6915078,1.2964699,-0.34516639,-0.91391385,0.21359202,0
1.8642504,1.3505702,2.9147413,-0.30592152,0.32470578,0.89497387,0
1.8719785,1.94328,-0.86715817,0.34516639,0.91391385,-0.21359202,0
-3.3788519,0.1225898,-3.8203304,0.30592152,-0.32470578,-0.89497387,0
2.9086399,1.3111621,-1.9288174,0.34516639,0.91391385,-0.21359202,0
1.8734224,-3.5095582,-0.19054461,-0.34516639,-0.91391385,0.21359202,0
1.8707942,2.4253163,1.5408273,0.34516639,0.91391385,-0.21359202,0
-0.06398657,2.1492734,2.026783,-0.30592152,0.32470578,0.89497387,0
-0.87610936,2.0680611,1.5765973,-0.30592152,0.32470578,0.89497387,0
-2.2266879,-0.97888315,2.5513237,-0.30592152,0.32470578,0.89497387,0
4.0399041,-0.8330338,1.9968112,0.88728356,-0.2435725,0.39166343,0
-0.48119456,2.4555588,1.6908268,-0.30592152,0.32470578,0.89497387,0
-4.0010052,-1.7388337,-2.2840147,-0.34516639,-0.91391385,0.21359202,0
4.918663,0.57638884,0.72613859,0.88728356,-0.2435725,0.39166343,0
1.3539867,2.4920223,0.79051208,0.34516639,0.91391385,-0.21359202,0
-3.6567583,-0.16168682,-3.767746,-0.88728356,0.2435725,-0.39166343,0
3.2709761,2.1067052,1.9062029,0.34516639,0.91391385,-0.21359202,0
0.12876058,2.5676093,0.13914227,0.34516639,0.91391385,-0.21359202,0
2.1788898,-2.9146268,3.3659074,-0.34516639,-0.91391385,0.21359202,0
4.3896856,1.5147401,2.6922395,0.88728356,-0.2435725,0.39166343,0
-3.0063548,3.8293557,-0.73592782,0.34516639,0.91391385,-0.21359202,0
4.7111793,0.80383813,0.86558819,0.88728356,-0.2435725,0.39166343,0
1.879447,1.9920064,2.5100551,-0.30592152,0.32470578,0.89497387,0
1.9085188,1.7504977,3.0334907,-0.30592152,0.32470578,0.89497387,0
4.1705089,-0.21733415,1.5364466,0.88728356,-0.2435725,0.39166343,0
4.6204782,-0.73384643,-0.92471468,0.30592152,-0.32470578,-0.89497387,0
3.8854375,-1.9063216,1.159245,0.88728356,-0.2435725,0.39166343,0
-5.131556,-0.0079057217,1.0369402,-0.30592152,0.32470578,0.89497387,0
-3.6001048,4.1020107,-0.34721136,-0.88728356,0.2435725,-0.39166343,0
0.88448608,-3.2482779,-1.1742033,-0.34516639,-0.91391385,0.21359202,0
4.3379192,-1.3451375,1.2476625,0.88728356,-0.2435725,0.39166343,0
-0.97771305,-0.89479584,-2.7853558,0.30592152,-0.32470578,-0.89497387,0
0.44393563,2.8775826,0.66638857,0.34516639,0.91391385,-0.21359202,0
-4.2633519,3.0625608,-0.012254715,-0.88728356,0.2435725,-0.39166343,0
0.91076231,0.39743221,-2.6384971,0.30592152,-0.32470578,-0.89497387,0
-0.048593044,2.2516689,-1.9573263,0.34516639,0.91391385,-0.21359202,0
-2.2245317,0.58279443,1.6003363,-0.30592152,0.32470578,0.89497387,0
4.2633185,0.50173903,2.0001311,0.88728356,-0.2435725,0.39166343,0
-3.787215,2.1486561,0.71435022,-0.30592152,0.32470578,0.89497387,0
3.9303284,-2.33887,1.4617717,0.88728356,-0.2435725,0.39166343,0
-1.5962981,1.116227,-3.8959491,0.30592152,-0.32470578,-0.89497387,0
-4.1350598,1.2254877,-1.2011037,-0.88728356,0.2435725,-0.39166343,0
-4.7640948,-0.73143744,-1.5530851,-0.88728356,0.2435725,-0.39166343,0
0.1739428,-1.3576488,3.3613689,-0.30592152,0.32470578,0.89497387,0
0.45840988,-1.2670689,-2.0992315,0.30592152,-0.32470578,-0.89497387,0
-4.2748981,3.392472,-0.054163456,-0.88728356,0.2435725,-0.39166343,0
1.5773342,2.3457239,0.8501516,0.34516639,0.91391385,-0.21359202,0
2.5853534,-3.7567272,-0.42959332,-0.34516639,-0.91391385,0.21359202,0
0.30162525,2.123117,2.1210542,-0.30592152,0.32470578,0.89497387,0
-0.49569988,1.8534255,1.8916866,-0.30592152,0.32470578,0.89497387,0
4.2434587,1.658618,2.5028281,0.34516639,0.91391385,-0.21359202,0
5.112782,0.71038318,0.28454685,0.34516639,0.91391385,-0.21359202,0
0.016898215,2.9507151,1.7632329,-0.30592152,0.32470578,0.89497387,0
