4.1446562,-5.6146812,0.17773449,-0.011333585,-0.90562826,-0.42392078,0
-3.185142,-5.0162692,-1.4060373,-0.011333585,-0.90562826,-0.42392078,0
4.0508404,3.5966275,3.7064819,0.011333585,0.90562826,0.42392078,0
-4.0646467,-4.1358757,-2.9472351,-0.011333585,-0.90562826,-0.42392078,0
-4.7746825,4.3898249,0.13408947,-0.95271695,0.1385192,-0.27044934,0
-1.5339794,3.9749575,2.9337387,0.011333585,0.90562826,0.42392078,0
-5.188427,2.9397969,1.5191815,-0.95271695,0.1385192,-0.27044934,0
4.0573301,-0.040671289,3.8865039,-0.3036477,-0.40081137,0.86437738,0
-5.1402159,3.4011152,0.63126421,-0.95271695,0.1385192,-0.27044934,0
-3.4086621,-3.662257,-3.8989062,-0.011333585,-0.90562826,-0.42392078,0
0.66829109,-3.985739,-2.9338915,-0.011333585,-0.90562826,-0.42392078,0
4.4972034,-1.0445397,2.0069327,0.95271695,-0.1385192,0.27044934,0
-4.3411093,2.5384738,-1.3072414,-0.95271695,0.1385192,-0.27044934,0
4.3171391,-1.7140454,2.8916805,0.95271695,-0.1385192,0.27044934,0
-4.7511096,4.2009602,0.12222171,-0.95271695,0.1385192,-0.27044934,0
-3.3024833,2.6632738,-2.2316256,0.3036477,0.40081137,-0.86437738,0
-2.4418879,-1.8751205,0.38734865,-0.3036477,-0.40081137,0.86437738,0
4.1970472,-4.5479693,0.86388874,0.95271695,-0.1385192,0.27044934,0
2.0889921,-4.7813292,-1.8592002,-0.011333585,-0.90562826,-0.42392078,0
-5.1723433,-2.1581147,-0.71988678,-0.3036477,-0.40081137,0.86437738,0
-4.35497,-3.670285,-3.8139114,-0.011333585,-0.90562826,-0.42392078,0
-3.8619201,-4.7192078,-1.6499219,-0.011333585,-0.90562826,-0.42392078,0
4.6148601,-4.8999147,-1.4765294,-0.011333585,-0.90562826,-0.42392078,0
-2.295192,-4.7498326,-1.4758825,-0.011333585,-0.90562826,-0.42392078,0
-4.4590626,1.6557462,-1.6970949,-0.95271695,0.1385192,-0.27044934,0
-2.0600853,-3.676919,-4.3270378,-0.011333585,-0.90562826,-0.42392078,0
-3.3761005,5.1798086,0.67382687,0.011333585,0.90562826,0.42392078,0
-0.13496828,4.5297861,1.92123,0.011333585,0.90562826,0.42392078,0
-3.593662,-1.2697247,-4.0091133,0.3036477,0.40081137,-0.86437738,0
-4.7632723,1.1875799,-0.54222274,-0.95271695,0.1385192,-0.27044934,0
-4.5205045,0.038536429,-2.9969139,-0.95271695,0.1385192,-0.27044934,0
-4.4505682,5.027401,-0.92654538,-0.95271695,0.1385192,-0.27044934,0
0.94469547,-4.7864113,-1.7504811,-0.011333585,-0.90562826,-0.42392078,0
0.41586757,-0.57340205,-2.3742857,0.3036477,0.40081137,-0.86437738,0
-4.5895042,3.7820711,2.5011659,-0.3036477,-0.40081137,0.86437738,0
-5.0314207,1.2952948,-0.82115769,-0.95271695,0.1385192,-0.27044934,0
-5.0631394,4.4259548,2.1332517,-0.95271695,0.1385192,-0.27044934,0
4.56563,-2.1797245,1.3777423,0.95271695,-0.1385192,0.27044934,0
-2.3330038,-3.4669671,-4.2546482,-0.011333585,-0.90562826,-0.42392078,0
-4.6925163,4.9481864,-0.13196802,-0.95271695,0.1385192,-0.27044934,0
-5.0224128,-1.7553244,-2.2330356,-0.95271695,0.1385192,-0.27044934,0
-3.7175775,4.4750476,2.4061618,0.011333585,0.90562826,0.42392078,0
-5.051507,1.2587082,0.0063140392,-0.95271695,0.1385192,-0.27044934,0
4.7820244,-1.6201551,1.4848175,0.95271695,-0.1385192,0.27044934,0
-5.1391106,4.4380622,2.3654318,0.011333585,0.90562826,0.42392078,0
1.9849827,2.5382056,4.2282166,-0.3036477,-0.40081137,0.86437738,0
4.5841994,-3.2143404,1.4199998,0.95271695,-0.1385192,0.27044934,0
-5.141202,1.2192323,-0.47088933,-0.95271695,0.1385192,-0.27044934,0
0.60333776,-4.9281411,-0.91521609,-0.011333585,-0.90562826,-0.42392078,0
5.0773668,-1.2336378,0.53578806,0.95271695,-0.1385192,0.27044934,0
5.2384052,-2.6859703,-1.8824896,0.3036477,0.40081137,-0.86437738,0
-4.1276636,3.9344766,2.7466071,-0.3036477,-0.40081137,0.86437738,0
5.1504879,1.4750092,1.5035691,0.95271695,-0.1385192,0.27044934,0
-5.0550489,4.6273155,2.2687154,0.011333585,0.90562826,0.42392078,0
-2.7328672,4.5294886,2.150275,0.011333585,0.90562826,0.42392078,0
-2.8032293,-4.1091261,-2.8615417,-0.011333585,-0.90562826,-0.42392078,0
-3.6007366,4.8046937,1.1992664,0.011333585,0.90562826,0.42392078,0
3.2007933,-4.0942297,-3.1496363,0.3036477,0.40081137,-0.86437738,0
-2.0770867,1.1579435,2.0927825,-0.3036477,-0.40081137,0.86437738,0
2.7935793,-0.60024399,2.7988327,-0.3036477,-0.40081137,0.86437738,0
1.7332048,-0.074614614,2.7433538,-0.3036477,-0.40081137,0.86437738,0
-4.7472448,-0.32850158,-2.2408071,-0.95271695,0.1385192,-0.27044934,0
-4.8859787,-2.7066624,-2.0597157,-0.95271695,0.1385192,-0.27044934,0
-3.3343954,-0.64069295,0.9492774,-0.3036477,-0.40081137,0.86437738,0
4.2201924,-2.7529044,1.7172282,0.95271695,-0.1385192,0.27044934,0
0.31359339,-4.9480391,-1.4830288,-0.011333585,-0.90562826,-0.42392078,0
-5.3869414,-4.4628043,-1.663414,-0.95271695,0.1385192,-0.27044934,0
-0.93491554,4.6894617,2.2088418,0.011333585,0.90562826,0.42392078,0
1.501348,1.6153898,3.5685773,-0.3036477,-0.40081137,0.86437738,0
5.1211333,0.11583591,1.1848831,0.95271695,-0.1385192,0.27044934,0
-2.3120756,1.9369447,2.1750309,-0.3036477,-0.40081137,0.86437738,0
4.2345324,4.7150574,1.8388896,0.011333585,0.90562826,0.42392078,0
2.1720908,1.5358584,3.8949559,-0.3036477,-0.40081137,0.86437738,0
4.5836773,1.2681748,3.4194148,0.95271695,-0.1385192,0.27044934,0
-5.0876288,1.2452226,-0.0067234039,-0.95271695,0.1385192,-0.27044934,0
1.0271263,-3.8831739,0.77920085,-0.3036477,-0.40081137,0.86437738,0
1.1873884,-4.1171741,-3.4593613,-0.011333585,-0.90562826,-0.42392078,0
-5.1581726,4.2917743,1.792734,-0.95271695,0.1385192,-0.27044934,0
4.7506075,-3.0563307,-0.38175321,0.95271695,-0.1385192,0.27044934,0
4.5549226,1.8132085,2.6523538,0.95271695,-0.1385192,0.27044934,0
3.8927908,4.7214251,1.5678258,0.011333585,0.90562826,0.42392078,0
-4.685153,3.4654353,0.109478,-0.95271695,0.1385192,-0.27044934,0
3.0469933,0.81505609,-0.89769387,0.3036477,0.40081137,-0.86437738,0
-4.2222571,-0.62409896,-3.3673029,-0.95271695,0.1385192,-0.27044934,0
-5.3018432,1.8036842,0.6980865,-0.95271695,0.1385192,-0.27044934,0
-3.7126169,-1.3625522,0.54256678,-0.3036477,-0.40081137,0.86437738,0
0.43424165,2.2404175,-0.92953861,0.3036477,0.40081137,-0.86437738,0
-5.2625594,-2.5226426,-1.05373,-0.95271695,0.1385192,-0.27044934,0
-2.0394316,3.689621,3.5007987,0.011333585,0.90562826,0.42392078,0
3.3462965,3.504931,0.36516333,0.3036477,0.40081137,-0.86437738,0
4.2677555,-0.25350583,2.9725926,0.95271695,-0.1385192,0.27044934,0
0.33540583,-4.5119371,0.36696398,-0.3036477,-0.40081137,0.86437738,0
4.6110692,-2.5203242,0.4520812,0.95271695,-0.1385192,0.27044934,0
-2.6782644,-1.7059587,-4.1921959,0.3036477,0.40081137,-0.86437738,0
-5.1247377,-1.1268079,-1.6143541,-0.95271695,0.1385192,-0.27044934,0
0.21501923,-4.015614,-3.4120829,-0.011333585,-0.90562826,-0.42392078,0
4.4687099,-5.2755189,0.35631728,0.95271695,-0.1385192,0.27044934,0
-1.7098567,-4.4176555,-0.45290899,-0.3036477,-0.40081137,0.86437738,0
3.9060075,3.5568004,4.5170937,0.011333585,0.90562826,0.42392078,0
-4.9685335,2.1095369,-0.46729326,-0.95271695,0.1385192,-0.27044934,0
5.1748767,-4.2643828,-2.4889073,-0.011333585,-0.90562826,-0.42392078,0
4.300622,-2.6566253,1.7414722,0.95271695,-0.1385192,0.27044934,0
-3.1842973,-0.20907831,1.2489475,-0.3036477,-0.40081137,0.86437738,0
-3.2686605,3.3836939,2.9172864,-0.3036477,-0.40081137,0.86437738,0
1.4704362,2.3324747,-0.90260684,0.3036477,0.40081137,-0.86437738,0
4.1435194,-1.9164414,2.7850895,-0.3036477,-0.40081137,0.86437738,0
-0.93821812,3.5953639,-1.2074094,0.3036477,0.40081137,-0.86437738,0
5.2226534,0.22890663,-0.28584337,0.95271695,-0.1385192,0.27044934,0
-2.1087797,2.1025066,-2.004241,0.3036477,0.40081137,-0.86437738,0
1.0303421,3.1850333,4.3055987,-0.3036477,-0.40081137,0.86437738,0
-3.9513998,0.40031004,1.0278168,-0.3036477,-0.40081137,0.86437738,0
-4.6613946,4.7646465,1.8110838,0.011333585,0.90562826,0.42392078,0
-4.6188598,-3.7766094,-3.5054131,-0.95271695,0.1385192,-0.27044934,0
4.5703845,-2.0392053,1.5921686,0.95271695,-0.1385192,0.27044934,0
2.5801177,-3.94771,-3.203217,0.3036477,0.40081137,-0.86437738,0
-1.4049921,-3.569056,-3.7029786,-0.011333585,-0.90562826,-0.42392078,0
-3.8842993,0.66679716,1.1177042,-0.3036477,-0.40081137,0.86437738,0
-3.9597528,-3.4603083,-4.3395147,-0.011333585,-0.90562826,-0.42392078,0
5.1225357,-3.2233534,-1.7357564,0.95271695,-0.1385192,0.27044934,0
-2.9356701,5.6785545,0.042903483,0.011333585,0.90562826,0.42392078,0
4.7505612,2.6178467,3.3944893,0.95271695,-0.1385192,0.27044934,0
-4.3278298,3.9272509,2.388366,-0.3036477,-0.40081137,0.86437738,0
1.9628506,-4.0000648,-3.4256144,-0.011333585,-0.90562826,-0.42392078,0
-3.2521203,-5.0375967,-1.3765378,-0.011333585,-0.90562826,-0.42392078,0
-2.341666,-4.4440541,-1.992975,-0.011333585,-0.90562826,-0.42392078,0
1.8221463,0.43507433,-1.6503042,0.3036477,0.40081137,-0.86437738,0
3.8814027,3.1840923,0.43415356,0.3036477,0.40081137,-0.86437738,0
2.2508664,0.91265643,3.3415794,-0.3036477,-0.40081137,0.86437738,0
-5.0806437,-2.8673997,-2.5471311,-0.95271695,0.1385192,-0.27044934,0
4.8253913,-4.9516096,-0.35455513,0.95271695,-0.1385192,0.27044934,0
0.53080463,-3.96351,-3.7827294,-0.011333585,-0.90562826,-0.42392078,0
1.4930682,3.775557,0.11753941,0.3036477,0.40081137,-0.86437738,0
0.20705128,3.8655744,3.8315005,0.011333585,0.90562826,0.42392078,0
-1.3010054,4.7281551,1.3940513,0.011333585,0.90562826,0.42392078,0
-4.0526128,1.5308013,1.7597067,-0.3036477,-0.40081137,0.86437738,0
-1.7540648,-4.4400234,-2.7137504,-0.011333585,-0.90562826,-0.42392078,0
1.3547027,1.3138862,3.2642064,-0.3036477,-0.40081137,0.86437738,0
4.5531635,3.0375962,0.76116323,0.3036477,0.40081137,-0.86437738,0
-4.4919243,-3.5894656,-1.0310497,-0.3036477,-0.40081137,0.86437738,0
4.1055322,-3.4363925,1.8816025,0.95271695,-0.1385192,0.27044934,0
1.6820428,-3.1528103,1.3513309,-0.3036477,-0.40081137,0.86437738,0
-1.0836644,3.6996713,3.5434899,0.011333585,0.90562826,0.42392078,0
-4.7826228,2.124135,-0.14986277,-0.95271695,0.1385192,-0.27044934,0
0.6222685,-0.70840371,2.3665133,-0.3036477,-0.40081137,0.86437738,0
-4.4929185,-4.6744161,-1.3584013,-0.011333585,-0.90562826,-0.42392078,0
-5.2166548,0.84435749,0.72232795,-0.95271695,0.1385192,-0.27044934,0
3.1619058,3.5577693,3.8046088,0.011333585,0.90562826,0.42392078,0
-3.6214049,-4.4197993,-1.0577431,-0.3036477,-0.40081137,0.86437738,0
5.246129,-3.0899305,-0.8792448,0.95271695,-0.1385192,0.27044934,0
4.167469,3.2826905,4.8033848,0.011333585,0.90562826,0.42392078,0
0.016886234,4.7887774,1.2933015,0.011333585,0.90562826,0.42392078,0
3.8697286,3.1421967,0.7305789,0.3036477,0.40081137,-0.86437738,0
-5.2501402,3.7908762,2.1307588,-0.95271695,0.1385192,-0.27044934,0
4.6473513,-3.6535225,0.22100115,0.95271695,-0.1385192,0.27044934,0
1.8150878,5.0117702,0.93238187,0.011333585,0.90562826,0.42392078,0
1.2527521,5.1674547,0.37621188,0.3036477,0.40081137,-0.86437738,0
0.033916712,0.27878064,2.3295498,-0.3036477,-0.40081137,0.86437738,0
4.8716602,3.5878444,2.7151446,0.95271695,-0.1385192,0.27044934,0
4.3212724,-0.048327684,3.552084,0.95271695,-0.1385192,0.27044934,0
1.9227271,4.2823386,2.3347223,0.011333585,0.90562826,0.42392078,0
-4.0095854,-1.9713838,-4.4129705,0.3036477,0.40081137,-0.86437738,0
-3.3122258,-2.2465916,0.21583462,-0.3036477,-0.40081137,0.86437738,0
-5.3675222,-3.5579805,-1.3382907,-0.95271695,0.1385192,-0.27044934,0
4.3762059,-2.3911822,-1.8698792,0.3036477,0.40081137,-0.86437738,0
-0.025021553,4.5878654,1.5638583,0.011333585,0.90562826,0.42392078,0
0.042940617,2.776886,3.7070763,-0.3036477,-0.40081137,0.86437738,0
-1.5782661,-3.8262618,-4.0347667,-0.011333585,-0.90562826,-0.42392078,0
0.092110634,4.8457184,0.98757374,0.011333585,0.90562826,0.42392078,0
1.7603933,-3.4574003,1.406364,-0.3036477,-0.40081137,0.86437738,0
3.5574908,4.1593981,2.5814075,0.011333585,0.90562826,0.42392078,0
-0.88224143,0.68016565,-2.2942283,0.3036477,0.40081137,-0.86437738,0
4.8736148,1.4703618,2.266664,0.95271695,-0.1385192,0.27044934,0
0.096084356,3.4803817,-0.51413363,0.3036477,0.40081137,-0.86437738,0
-0.80065155,4.886878,1.2712548,0.011333585,0.90562826,0.42392078,0
-1.5426583,4.4041371,2.2359128,0.011333585,0.90562826,0.42392078,0
-0.3842454,4.7640457,1.8094438,0.011333585,0.90562826,0.42392078,0
4.3969378,2.3238187,4.0188317,0.95271695,-0.1385192,0.27044934,0
1.4163477,1.55357,-0.98785836,0.3036477,0.40081137,-0.86437738,0
-1.0332413,-5.0655046,-1.0266082,-0.011333585,-0.90562826,-0.42392078,0
3.8453059,-5.0670571,-1.201507,-0.011333585,-0.90562826,-0.42392078,0
0.55664301,3.8228569,3.1598058,0.011333585,0.90562826,0.42392078,0
4.430512,-0.77387476,2.0890944,0.95271695,-0.1385192,0.27044934,0
0.8425014,2.1579914,3.5120788,-0.3036477,-0.40081137,0.86437738,0
4.2115412,-5.1499348,1.3601246,0.95271695,-0.1385192,0.27044934,0
-5.0208998,-2.4399855,-1.9459248,-0.95271695,0.1385192,-0.27044934,0
-4.442132,-3.0899444,-4.6384878,-0.95271695,0.1385192,-0.27044934,0
3.9838386,4.576673,1.7257371,0.011333585,0.90562826,0.42392078,0
4.4638734,3.4663701,4.2145529,0.011333585,0.90562826,0.42392078,0
0.2634902,-5.4496288,-0.12601626,-0.011333585,-0.90562826,-0.42392078,0
4.4195294,-4.3809066,-2.55321,-0.011333585,-0.90562826,-0.42392078,0
-2.0940399,1.2520607,2.1220233,-0.3036477,-0.40081137,0.86437738,0
-3.9510121,-4.6290445,-1.4044967,-0.011333585,-0.90562826,-0.42392078,0
4.5722528,-2.4483652,1.3254578,0.95271695,-0.1385192,0.27044934,0
5.0440025,-1.8373836,0.33555269,0.95271695,-0.1385192,0.27044934,0
-4.3554153,2.970696,-1.7645056,-0.95271695,0.1385192,-0.27044934,0
1.0856872,-4.7034578,0.39010179,-0.3036477,-0.40081137,0.86437738,0
4.3195028,3.4706573,4.310411,0.95271695,-0.1385192,0.27044934,0
-4.3504348,5.2833128,0.057093024,-0.95271695,0.1385192,-0.27044934,0
0.72991055,0.67150879,-1.8631141,0.3036477,0.40081137,-0.86437738,0
3.7878549,-5.9658566,0.53632855,-0.011333585,-0.90562826,-0.42392078,0
2.0141978,-4.0953393,-3.4999804,-0.011333585,-0.90562826,-0.42392078,0
-1.0034566,4.175004,2.9228501,0.011333585,0.90562826,0.42392078,0
-0.18560076,4.1395063,3.3116477,0.011333585,0.90562826,0.42392078,0
5.205534,0.60029149,-0.2481432,0.3036477,0.40081137,-0.86437738,0
4.9977412,-0.96216059,-0.11566281,0.95271695,-0.1385192,0.27044934,0
-3.5624762,5.3866262,0.40719563,0.011333585,0.90562826,0.42392078,0
4.5170388,-3.7307377,1.2153845,0.95271695,-0.1385192,0.27044934,0
-5.0752611,-2.2581487,-0.68690395,-0.3036477,-0.40081137,0.86437738,0
-0.22428274,-2.2848592,-3.3664141,0.3036477,0.40081137,-0.86437738,0
-4.7618961,1.7464529,-1.4578435,-0.95271695,0.1385192,-0.27044934,0
2.0424573,3.8729553,3.3971162,0.011333585,0.90562826,0.42392078,0
-5.2233009,-1.3609085,-0.94685507,-0.95271695,0.1385192,-0.27044934,0
-3.2675743,5.4243784,0.087662101,0.011333585,0.90562826,0.42392078,0
5.0276794,-3.9993582,-1.7760605,0.95271695,-0.1385192,0.27044934,0
1.1904404,3.415134,-0.30704248,0.3036477,0.40081137,-0.86437738,0
-1.3284106,-3.5843468,-4.205626,-0.011333585,-0.90562826,-0.42392078,0
2.0208821,3.816927,3.992969,0.011333585,0.90562826,0.42392078,0
0.49250698,-4.3559642,-2.5919361,-0.011333585,-0.90562826,-0.42392078,0
0.62281847,2.6601114,3.8866827,-0.3036477,-0.40081137,0.86437738,0
-0.09663105,-4.6163173,-1.6273717,-0.011333585,-0.90562826,-0.42392078,0
5.3947697,3.837086,1.4281192,0.95271695,-0.1385192,0.27044934,0
1.354845,4.6718574,1.9007602,0.011333585,0.90562826,0.42392078,0
4.5791068,1.9012665,3.5352187,0.95271695,-0.1385192,0.27044934,0
1.8551233,-0.022392482,2.8130207,-0.3036477,-0.40081137,0.86437738,0
-1.2244306,-4.6150837,-2.195133,-0.011333585,-0.90562826,-0.42392078,0
2.2331891,-2.388196,-2.5713573,0.3036477,0.40081137,-0.86437738,0
-5.3424654,-4.6976323,-1.7437205,-0.95271695,0.1385192,-0.27044934,0
-4.2773666,1.6327904,-2.3551226,-0.95271695,0.1385192,-0.27044934,0
-4.5921259,5.0930138,1.4237978,0.011333585,0.90562826,0.42392078,0
-2.3605638,-4.0257831,-3.0819705,-0.011333585,-0.90562826,-0.42392078,0
1.1440806,3.7272096,3.5878849,0.011333585,0.90562826,0.42392078,0
4.2190323,-5.403975,-0.00078642368,-0.011333585,-0.90562826,-0.42392078,0
3.4781151,-1.2841475,-1.6366339,0.3036477,0.40081137,-0.86437738,0
-1.9371203,-0.96747422,-3.598628,0.3036477,0.40081137,-0.86437738,0
-2.9285219,5.6615372,-0.18565655,0.011333585,0.90562826,0.42392078,0
2.5777802,3.751581,3.3148799,0.011333585,0.90562826,0.42392078,0
-4.1152744,4.4661527,1.9894184,0.011333585,0.90562826,0.42392078,0
5.3895726,3.247709,0.97716045,0.95271695,-0.1385192,0.27044934,0
-3.6246109,4.8686023,1.8525521,0.011333585,0.90562826,0.42392078,0
2.6073802,-5.2292113,0.85864282,-0.3036477,-0.40081137,0.86437738,0
1.2849734,4.8099418,1.8567412,0.011333585,0.90562826,0.42392078,0
5.2006397,0.15829539,-0.082471848,0.95271695,-0.1385192,0.27044934,0
-4.8674335,-0.52959204,-1.8176618,-0.95271695,0.1385192,-0.27044934,0
1.4394541,-4.725575,-2.0177946,-0.011333585,-0.90562826,-0.42392078,0
-2.4230106,-4.5915136,-2.023073,-0.011333585,-0.90562826,-0.42392078,0
4.722147,-0.59368801,2.1619651,0.95271695,-0.1385192,0.27044934,0
-4.7401695,0.96267819,-0.82810998,-0.95271695,0.1385192,-0.27044934,0
-0.30795479,-4.125597,-3.2511106,-0.011333585,-0.90562826,-0.42392078,0
-4.6292405,-1.7137934,-3.281652,-0.95271695,0.1385192,-0.27044934,0
1.6237326,-4.9600081,-1.1771861,-0.011333585,-0.90562826,-0.42392078,0
-4.9909739,-2.0477259,-1.463994,-0.95271695,0.1385192,-0.27044934,0
-1.1604674,2.8235517,-1.3465365,0.3036477,0.40081137,-0.86437738,0
0.30524105,-2.5706086,1.2315788,-0.3036477,-0.40081137,0.86437738,0
-0.056530952,4.6909266,1.4763548,0.011333585,0.90562826,0.42392078,0
-5.0031137,-0.73549986,-1.4599319,-0.95271695,0.1385192,-0.27044934,0
-5.2806215,3.2036064,1.4211838,-0.95271695,0.1385192,-0.27044934,0
-4.5460377,-2.4666367,-3.10782,-0.95271695,0.1385192,-0.27044934,0
-4.7573605,3.7603638,-0.36592722,-0.95271695,0.1385192,-0.27044934,0
3.0526886,1.8147395,-0.23994303,0.3036477,0.40081137,-0.86437738,0
4.0880728,2.0231819,0.2159586,0.3036477,0.40081137,-0.86437738,0
-3.976388,-3.37639,-4.5204906,-0.011333585,-0.90562826,-0.42392078,0
-0.506567,-4.4595833,-2.1493921,-0.011333585,-0.90562826,-0.42392078,0
-2.687634,0.65069366,1.5388894,-0.3036477,-0.40081137,0.86437738,0
3.6191258,-4.446456,-2.702282,-0.011333585,-0.90562826,-0.42392078,0
-1.4215746,3.5947406,-1.0504861,0.3036477,0.40081137,-0.86437738,0
-1.7296176,5.0344429,0.75050211,0.011333585,0.90562826,0.42392078,0
-0.6448102,2.6534269,3.3214221,-0.3036477,-0.40081137,0.86437738,0
-1.015636,5.3482699,0.59263116,0.011333585,0.90562826,0.42392078,0
-3.8663898,-3.4401436,-4.420414,-0.011333585,-0.90562826,-0.42392078,0
1.9164859,-3.0107336,1.5438502,-0.3036477,-0.40081137,0.86437738,0
4.9637885,0.53558016,0.66909313,0.95271695,-0.1385192,0.27044934,0
-2.2582741,-0.57224035,-3.4369249,0.3036477,0.40081137,-0.86437738,0
-4.8384366,-0.58550406,-2.1337705,-0.95271695,0.1385192,-0.27044934,0
-4.1416235,-3.6202929,-4.0299678,-0.011333585,-0.90562826,-0.42392078,0
-0.5358758,-2.3262186,-3.6682072,0.3036477,0.40081137,-0.86437738,0
-0.52633524,-3.5146513,-4.1468425,0.3036477,0.40081137,-0.86437738,0
-2.032424,3.1678505,3.2452841,-0.3036477,-0.40081137,0.86437738,0
1.2183232,3.8028626,3.8374724,0.011333585,0.90562826,0.42392078,0
-2.1172152,4.0495095,3.1396713,0.011333585,0.90562826,0.42392078,0
0.1699791,-1.8619602,-3.2323554,0.3036477,0.40081137,-0.86437738,0
-2.7865767,-1.3062401,-3.945821,0.3036477,0.40081137,-0.86437738,0
3.3575468,0.042775631,-1.1780077,0.3036477,0.40081137,-0.86437738,0
-4.5439968,-4.001132,-3.2554526,-0.011333585,-0.90562826,-0.42392078,0
0.62209177,-5.0440559,-1.1001457,-0.011333585,-0.90562826,-0.42392078,0
4.3970428,2.6229084,4.7807927,0.95271695,-0.1385192,0.27044934,0
-4.8178492,3.2031777,-0.36280155,-0.95271695,0.1385192,-0.27044934,0
4.9331803,-2.5973454,-0.47041082,0.95271695,-0.1385192,0.27044934,0
1.8858564,-2.8912363,1.7134616,-0.3036477,-0.40081137,0.86437738,0
5.0209961,-1.0717657,0.32668924,0.95271695,-0.1385192,0.27044934,0
0.32217717,0.55177259,2.4560335,-0.3036477,-0.40081137,0.86437738,0
0.2718761,-1.7313411,-3.139416,0.3036477,0.40081137,-0.86437738,0
-1.4254026,4.7681999,2.1028495,0.011333585,0.90562826,0.42392078,0
5.0009594,3.6991069,2.1980872,0.95271695,-0.1385192,0.27044934,0
1.815238,4.0025673,3.3438137,0.011333585,0.90562826,0.42392078,0
-3.1725006,4.9973917,1.209828,0.011333585,0.90562826,0.42392078,0
5.0553694,-3.3493669,-1.8786581,0.3036477,0.40081137,-0.86437738,0
-3.6841712,4.9198747,1.6748396,0.011333585,0.90562826,0.42392078,0
5.1601896,-1.7026033,-1.4483836,0.3036477,0.40081137,-0.86437738,0
2.3016648,0.9673419,-1.1899055,0.3036477,0.40081137,-0.86437738,0
-4.335465,-0.37494498,-3.7353179,-0.95271695,0.1385192,-0.27044934,0
-2.763423,5.7822866,-0.035748184,0.011333585,0.90562826,0.42392078,0
-4.6006021,-3.354089,-3.3311687,-0.95271695,0.1385192,-0.27044934,0
1.649441,4.0402789,2.8944261,0.011333585,0.90562826,0.42392078,0
5.1173267,-1.3643496,-1.1633289,0.3036477,0.40081137,-0.86437738,0
-4.8158131,2.9000206,0.12368941,-0.95271695,0.1385192,-0.27044934,0
-0.1701355,-5.1648035,-0.9210633,-0.011333585,-0.90562826,-0.42392078,0
4.9220567,-4.7648025,-0.99049222,0.95271695,-0.1385192,0.27044934,0
-3.5325241,5.3228092,0.90946066,0.011333585,0.90562826,0.42392078,0
-1.8016567,1.5366025,-2.1188955,0.3036477,0.40081137,-0.86437738,0
-4.0804634,1.3700029,-3.2210977,0.3036477,0.40081137,-0.86437738,0
-0.66365814,3.2511067,-1.2325616,0.3036477,0.40081137,-0.86437738,0
0.67283678,-4.0015202,-2.8955517,-0.011333585,-0.90562826,-0.42392078,0
5.2514057,-1.5180664,-1.1063366,0.95271695,-0.1385192,0.27044934,0
2.2402754,-5.1416149,-1.1033642,-0.011333585,-0.90562826,-0.42392078,0
0.52756691,3.2198846,-0.86664873,0.3036477,0.40081137,-0.86437738,0
-0.44483137,4.4811668,2.6577408,0.011333585,0.90562826,0.42392078,0
4.3825655,-3.6112843,1.1177619,0.95271695,-0.1385192,0.27044934,0
-3.0181134,-0.55750388,-3.6946483,0.3036477,0.40081137,-0.86437738,0
-3.2953634,4.4370117,2.3760972,0.011333585,0.90562826,0.42392078,0
-4.908165,1.5864656,-0.58118057,-0.95271695,0.1385192,-0.27044934,0
2.648988,4.3525772,2.2276628,0.011333585,0.90562826,0.42392078,0
-4.3413467,2.884238,-1.460535,-0.95271695,0.1385192,-0.27044934,0
4.4950523,3.2449167,3.6018596,0.95271695,-0.1385192,0.27044934,0
-3.6226897,-4.3770905,-2.7203226,-0.011333585,-0.90562826,-0.42392078,0
-1.0737746,0.35164523,2.1498768,-0.3036477,-0.40081137,0.86437738,0
-4.1573772,5.3462029,0.49566185,0.011333585,0.90562826,0.42392078,0
4.2441998,-0.74576044,3.1885638,0.95271695,-0.1385192,0.27044934,0
0.98601139,1.1531336,-1.3392392,0.3036477,0.40081137,-0.86437738,0
-0.059565544,-3.4726429,-4.1233959,0.3036477,0.40081137,-0.86437738,0
0.95431161,-4.9263282,0.46005607,-0.3036477,-0.40081137,0.86437738,0
1.2199965,-5.4812799,-0.045778215,-0.011333585,-0.90562826,-0.42392078,0
-0.81173325,3.8648751,3.860239,0.011333585,0.90562826,0.42392078,0
5.1841974,2.4056256,2.1490884,0.95271695,-0.1385192,0.27044934,0
4.8146605,-4.784286,-1.987597,-0.011333585,-0.90562826,-0.42392078,0
-4.6348696,-2.1842651,-3.9552832,-0.95271695,0.1385192,-0.27044934,0
-4.3926125,2.0996168,1.6681073,-0.3036477,-0.40081137,0.86437738,0
-4.4041033,-1.6916614,-3.2293251,-0.95271695,0.1385192,-0.27044934,0
-3.0589244,-0.54661423,-3.854063,0.3036477,0.40081137,-0.86437738,0
0.1669457,2.2606936,-1.0328428,0.3036477,0.40081137,-0.86437738,0
0.87048626,3.8425188,3.5480468,0.011333585,0.90562826,0.42392078,0
4.9365339,-4.0484047,-1.1486782,0.95271695,-0.1385192,0.27044934,0
4.2807121,2.0664477,4.0011387,0.95271695,-0.1385192,0.27044934,0
3.9125872,3.9381218,2.8564897,0.011333585,0.90562826,0.42392078,0
-3.9122171,-0.43953657,0.75626683,-0.3036477,-0.40081137,0.86437738,0
4.8635421,1.92643,2.4090543,0.95271695,-0.1385192,0.27044934,0
-4.5812211,2.4759095,-0.43336892,-0.95271695,0.1385192,-0.27044934,0
4.1419382,1.1498692,4.1878753,0.95271695,-0.1385192,0.27044934,0
4.1707106,4.9756212,1.3005586,0.011333585,0.90562826,0.42392078,0
4.4443421,3.9737527,3.4308963,0.011333585,0.90562826,0.42392078,0
-4.5888095,3.1994841,-0.86267734,-0.95271695,0.1385192,-0.27044934,0
2.2710915,0.25789928,-1.229367,0.3036477,0.40081137,-0.86437738,0
-4.131094,4.8275614,-0.7230978,-0.95271695,0.1385192,-0.27044934,0
5.4737616,-1.0380404,-1.0492706,0.3036477,0.40081137,-0.86437738,0
-4.7887149,-3.7187023,-2.9028902,-0.95271695,0.1385192,-0.27044934,0
4.5296106,-3.306129,1.367466,0.95271695,-0.1385192,0.27044934,0
-1.1431122,-4.7029448,-1.9199982,-0.011333585,-0.90562826,-0.42392078,0
1.5873108,4.2020845,3.0739162,0.011333585,0.90562826,0.42392078,0
1.2779276,5.0127273,1.3595095,0.011333585,0.90562826,0.42392078,0
-0.017786026,-0.050590038,-2.2031124,0.3036477,0.40081137,-0.86437738,0
-1.7672999,-4.7651777,-1.6903353,-0.011333585,-0.90562826,-0.42392078,0
-0.40911078,-4.7352486,-0.086894512,-0.3036477,-0.40081137,0.86437738,0
-1.3560085,-3.4194517,-4.0673766,-0.011333585,-0.90562826,-0.42392078,0
-0.34114313,4.2478204,2.6091738,0.011333585,0.90562826,0.42392078,0
4.0481696,-2.4752374,2.5708539,0.95271695,-0.1385192,0.27044934,0
-0.51711082,-4.4008193,-2.4136376,-0.011333585,-0.90562826,-0.42392078,0
-1.961494,5.2876062,0.84779447,0.011333585,0.90562826,0.42392078,0
4.1223316,4.673419,1.4845986,0.3036477,0.40081137,-0.86437738,0
-1.7896094,4.1680775,2.8411915,0.011333585,0.90562826,0.42392078,0
0.076930046,5.3123579,0.8334322,0.011333585,0.90562826,0.42392078,0
4.2323642,-2.0515296,2.3147359,0.95271695,-0.1385192,0.27044934,0
4.2855511,-3.8902841,1.5853081,0.95271695,-0.1385192,0.27044934,0
5.0728116,3.5448699,2.7936425,0.95271695,-0.1385192,0.27044934,0
5.2419047,-0.93573999,-0.23129535,0.95271695,-0.1385192,0.27044934,0
0.97274506,2.9899578,-0.506037,0.3036477,0.40081137,-0.86437738,0
-0.65028763,-2.1721015,1.1106815,-0.3036477,-0.40081137,0.86437738,0
-0.46853995,0.55920869,-2.4008777,0.3036477,0.40081137,-0.86437738,0
0.1152029,4.3331642,-0.13060641,0.3036477,0.40081137,-0.86437738,0
0.6680873,2.6006823,-0.97179872,0.3036477,0.40081137,-0.86437738,0
4.5403352,-4.4706964,-2.7639561,-0.011333585,-0.90562826,-0.42392078,0
4.3714361,-4.2552586,-2.6690094,-0.011333585,-0.90562826,-0.42392078,0
-4.2219691,3.5424156,-1.401715,-0.95271695,0.1385192,-0.27044934,0
5.1150556,-0.64431739,-0.43875504,0.95271695,-0.1385192,0.27044934,0
4.4717808,-1.507143,1.3973286,0.95271695,-0.1385192,0.27044934,0
-3.1731281,-0.50911933,-3.7317176,0.3036477,0.40081137,-0.86437738,0
2.4384627,-4.7781487,-1.4648778,-0.011333585,-0.90562826,-0.42392078,0
-0.0028562546,4.93997,1.2247009,0.011333585,0.90562826,0.42392078,0
-2.5413351,-1.1760373,-3.9415226,0.3036477,0.40081137,-0.86437738,0
-4.8063507,-3.4276657,-2.9385738,-0.95271695,0.1385192,-0.27044934,0
-0.22007704,-4.3276849,-2.9295626,-0.011333585,-0.90562826,-0.42392078,0
0.57764626,-5.1792722,-0.70961487,-0.011333585,-0.90562826,-0.42392078,0
-5.1282573,3.811451,1.2470355,-0.95271695,0.1385192,-0.27044934,0
-4.7231431,-4.2791348,-1.1503778,-0.3036477,-0.40081137,0.86437738,0
4.0491066,3.840719,3.8142428,0.011333585,0.90562826,0.42392078,0
-3.7296779,-3.1364064,-4.8763041,-0.011333585,-0.90562826,-0.42392078,0
-3.9931455,1.4845759,-3.2529309,0.3036477,0.40081137,-0.86437738,0
0.41352105,-2.4335203,1.1944222,-0.3036477,-0.40081137,0.86437738,0
-3.7243013,-0.21881104,0.97268724,-0.3036477,-0.40081137,0.86437738,0
2.6724534,4.5205488,0.85335517,0.3036477,0.40081137,-0.86437738,0
2.8869503,3.9553089,0.53965378,0.3036477,0.40081137,-0.86437738,0
-3.5812125,-3.0056157,-4.7749453,0.3036477,0.40081137,-0.86437738,0
2.4353042,4.3999577,2.3392668,0.011333585,0.90562826,0.42392078,0
4.155086,-1.1000947,3.1032026,0.95271695,-0.1385192,0.27044934,0
-4.7598863,-1.9730337,-2.4981375,-0.95271695,0.1385192,-0.27044934,0
1.9498053,0.030939147,2.8205225,-0.3036477,-0.40081137,0.86437738,0
4.4339738,1.0004195,3.1311865,0.95271695,-0.1385192,0.27044934,0
3.6844079,-2.0596759,2.868839,-0.3036477,-0.40081137,0.86437738,0
3.3645742,-2.0856285,-2.1947184,0.3036477,0.40081137,-0.86437738,0
4.1912498,-4.9586067,0.52241206,0.95271695,-0.1385192,0.27044934,0
-0.72782993,-4.4282265,-2.5284421,-0.011333585,-0.90562826,-0.42392078,0
-4.6654491,4.6720605,0.046756268,-0.95271695,0.1385192,-0.27044934,0
4.0306735,1.1199539,-0.30148911,0.3036477,0.40081137,-0.86437738,0
1.7167153,-4.373538,-2.6538613,-0.011333585,-0.90562826,-0.42392078,0
-2.6594324,2.9978471,2.8063493,-0.3036477,-0.40081137,0.86437738,0
2.1707807,-5.2246208,-0.90014857,-0.011333585,-0.90562826,-0.42392078,0
4.2220635,3.9114008,1.0677385,0.3036477,0.40081137,-0.86437738,0
0.72818232,4.9596648,0.85254788,0.011333585,0.90562826,0.42392078,0
-4.3708491,3.0448308,-0.93893027,-0.95271695,0.1385192,-0.27044934,0
-5.2493634,-4.5332737,-1.5386577,-0.011333585,-0.90562826,-0.42392078,0
5.2768764,-0.72244,0.15197468,0.95271695,-0.1385192,0.27044934,0
-4.1744823,2.9592948,-2.1878886,0.3036477,0.40081137,-0.86437738,0
-3.2526765,4.3240418,2.8839774,0.011333585,0.90562826,0.42392078,0
5.3924665,-0.99536753,-0.54627109,0.95271695,-0.1385192,0.27044934,0
-4.5275578,-0.85377407,-3.6141176,-0.95271695,0.1385192,-0.27044934,0
1.6853271,-4.0261908,-3.6242292,-0.011333585,-0.90562826,-0.42392078,0
-5.3020868,-1.252013,-0.8812356,-0.95271695,0.1385192,-0.27044934,0
-3.2534699,4.0274482,3.1511579,-0.3036477,-0.40081137,0.86437738,0
2.6064677,1.7057505,-0.40690565,0.3036477,0.40081137,-0.86437738,0
4.5042849,-2.5441723,0.85988259,0.95271695,-0.1385192,0.27044934,0
-5.3560638,0.9567945,0.22280741,-0.95271695,0.1385192,-0.27044934,0
2.7267809,3.5733082,0.53178835,0.3036477,0.40081137,-0.86437738,0
-4.2222977,4.4593916,-1.7036221,-0.95271695,0.1385192,-0.27044934,0
-4.6072774,0.71832561,-1.6530688,-0.95271695,0.1385192,-0.27044934,0
-1.9812961,-5.0900784,-0.94352436,-0.011333585,-0.90562826,-0.42392078,0
-4.3682442,3.1384494,2.3387604,-0.3036477,-0.40081137,0.86437738,0
0.70243549,-5.0510473,-1.208468,-0.011333585,-0.90562826,-0.42392078,0
3.0496912,-3.6583824,-2.9890871,0.3036477,0.40081137,-0.86437738,0
2.334281,-0.054017093,2.9460015,-0.3036477,-0.40081137,0.86437738,0
-3.0799131,4.1305156,3.0370002,0.011333585,0.90562826,0.42392078,0
3.922842,1.5709875,-0.11233687,0.3036477,0.40081137,-0.86437738,0
-4.5696893,2.648257,-0.34334803,-0.95271695,0.1385192,-0.27044934,0
3.3111982,-2.930558,2.197782,-0.3036477,-0.40081137,0.86437738,0
3.5682154,-5.5891628,-0.26463795,-0.011333585,-0.90562826,-0.42392078,0
1.8217874,-4.8705573,0.7250579,-0.3036477,-0.40081137,0.86437738,0
1.4071383,-2.3754904,1.5023485,-0.3036477,-0.40081137,0.86437738,0
-2.5970039,-2.2560358,0.57316422,-0.3036477,-0.40081137,0.86437738,0
3.5704498,-5.6200209,0.87474382,-0.3036477,-0.40081137,0.86437738,0
0.3140111,-4.2960229,-2.8573143,-0.011333585,-0.90562826,-0.42392078,0
-3.4727995,-0.75083447,0.61068511,-0.3036477,-0.40081137,0.86437738,0
-2.0683243,-3.6451769,-3.8120117,-0.011333585,-0.90562826,-0.42392078,0
5.3278055,-1.5145121,-0.43768191,0.95271695,-0.1385192,0.27044934,0
4.4218454,0.22520518,-0.80144358,0.3036477,0.40081137,-0.86437738,0
-2.5257084,-2.0706034,0.51005101,-0.3036477,-0.40081137,0.86437738,0
-1.9150666,-4.2157702,-0.15979004,-0.3036477,-0.40081137,0.86437738,0
4.8245969,4.4459314,2.570116,0.011333585,0.90562826,0.42392078,0
4.361382,-1.1603011,2.2853911,0.95271695,-0.1385192,0.27044934,0
5.1996288,2.5839641,1.7027111,0.95271695,-0.1385192,0.27044934,0
-2.0774703,4.2534103,2.4350817,0.011333585,0.90562826,0.42392078,0
0.56472158,3.611475,4.3298388,-0.3036477,-0.40081137,0.86437738,0
0.14048767,3.6631105,4.247189,0.011333585,0.90562826,0.42392078,0
-5.0995927,1.754946,0.26689768,-0.95271695,0.1385192,-0.27044934,0
1.1729112,4.6650333,2.0588555,0.011333585,0.90562826,0.42392078,0
5.441401,3.5694456,1.0267525,0.3036477,0.40081137,-0.86437738,0
-4.2715087,0.04690814,-3.8794045,-0.95271695,0.1385192,-0.27044934,0
-5.3251615,-4.1816735,-2.2177529,-0.95271695,0.1385192,-0.27044934,0
1.5675189,4.9779935,0.86496544,0.011333585,0.90562826,0.42392078,0
2.8597813,0.99064445,-0.92265046,0.3036477,0.40081137,-0.86437738,0
-4.8075814,0.4910121,-1.3729789,-0.95271695,0.1385192,-0.27044934,0
-3.5635247,-3.9783108,-3.1431458,-0.011333585,-0.90562826,-0.42392078,0
5.2979207,1.4622195,1.2792311,0.95271695,-0.1385192,0.27044934,0
4.7567663,4.0458355,2.8365474,0.011333585,0.90562826,0.42392078,0
-1.4855826,-1.8414862,0.97774684,-0.3036477,-0.40081137,0.86437738,0
-4.7777543,-2.6388006,-3.317832,-0.95271695,0.1385192,-0.27044934,0
2.7801151,-4.1059284,1.5130178,-0.3036477,-0.40081137,0.86437738,0
-2.6284876,5.5460443,-0.062423885,0.011333585,0.90562826,0.42392078,0
-4.2800212,-0.83138484,-3.9988,-0.95271695,0.1385192,-0.27044934,0
-4.8205938,4.7601981,1.3439955,0.011333585,0.90562826,0.42392078,0
-2.3477042,-3.0288384,0.25924659,-0.3036477,-0.40081137,0.86437738,0
-4.762795,-3.3753314,-3.1768966,-0.95271695,0.1385192,-0.27044934,0
-0.4897247,-2.2436376,1.2297841,-0.3036477,-0.40081137,0.86437738,0
3.558208,-3.8670044,1.8636979,-0.3036477,-0.40081137,0.86437738,0
2.3290393,-2.185071,-2.6205854,0.3036477,0.40081137,-0.86437738,0
-5.0745072,-1.9044433,-1.6980662,-0.95271695,0.1385192,-0.27044934,0
-5.0679493,2.2707219,0.12135577,-0.95271695,0.1385192,-0.27044934,0
3.6221316,4.3704538,2.3057261,0.011333585,0.90562826,0.42392078,0
3.6810338,4.2635922,2.3953724,0.011333585,0.90562826,0.42392078,0
4.2509031,-5.6975031,0.00026595592,-0.011333585,-0.90562826,-0.42392078,0
-0.65521598,-2.0564291,0.95396614,-0.3036477,-0.40081137,0.86437738,0
-3.992847,-2.9026759,-0.26564121,-0.3036477,-0.40081137,0.86437738,0
-4.1756124,4.4817839,-1.5192142,-0.95271695,0.1385192,-0.27044934,0
-2.7169111,1.4366097,-2.4553771,0.3036477,0.40081137,-0.86437738,0
-2.9073353,3.1759248,-1.6593035,0.3036477,0.40081137,-0.86437738,0
-0.35713482,4.1834278,2.5936971,0.011333585,0.90562826,0.42392078,0
-3.9459815,4.1896315,2.6516883,0.011333585,0.90562826,0.42392078,0
-1.0880933,3.8089638,3.2323928,0.011333585,0.90562826,0.42392078,0
1.1814065,3.764267,3.6308908,0.011333585,0.90562826,0.42392078,0
-3.1574218,3.7080112,-1.8599893,0.3036477,0.40081137,-0.86437738,0
-4.5866342,3.8542194,-0.27244496,-0.95271695,0.1385192,-0.27044934,0
0.90894318,-4.4996819,-2.1529241,-0.011333585,-0.90562826,-0.42392078,0
4.4421883,-0.70566255,2.8427792,0.95271695,-0.1385192,0.27044934,0
3.3310587,-5.0868816,1.1318398,-0.3036477,-0.40081137,0.86437738,0
-4.4225245,-3.28125,-4.4128652,-0.95271695,0.1385192,-0.27044934,0
-4.2475491,5.4003973,-0.44881761,-0.95271695,0.1385192,-0.27044934,0
-2.1312833,-4.7318335,-1.920639,-0.011333585,-0.90562826,-0.42392078,0
-3.2008219,5.0572634,1.5149753,0.011333585,0.90562826,0.42392078,0
0.55063057,-3.8484397,-3.7754829,-0.011333585,-0.90562826,-0.42392078,0
4.8299341,-1.6159201,-1.431484,0.3036477,0.40081137,-0.86437738,0
-0.15104878,-2.9627416,0.94403541,-0.3036477,-0.40081137,0.86437738,0
3.1703045,-0.26635194,-1.2712045,0.3036477,0.40081137,-0.86437738,0
-4.2736168,3.5262947,-1.6310508,-0.95271695,0.1385192,-0.27044934,0
-0.057070494,4.8048844,-0.23485208,0.3036477,0.40081137,-0.86437738,0
-4.7187276,4.1790161,2.809109,-0.3036477,-0.40081137,0.86437738,0
-1.19454,-2.3085814,1.0179529,-0.3036477,-0.40081137,0.86437738,0
-0.31182265,3.6511679,-0.78405821,0.3036477,0.40081137,-0.86437738,0
4.0569305,-3.5520189,2.1335049,0.95271695,-0.1385192,0.27044934,0
-5.0578494,-3.4647951,-2.8973293,-0.95271695,0.1385192,-0.27044934,0
-2.2108717,0.086158603,-3.2465351,0.3036477,0.40081137,-0.86437738,0
-4.1410241,-0.81851244,-3.5816875,-0.95271695,0.1385192,-0.27044934,0
-5.0542283,-4.0596724,-2.3009367,-0.95271695,0.1385192,-0.27044934,0
-4.6525331,-1.251188,-2.5980167,-0.95271695,0.1385192,-0.27044934,0
-4.6262569,2.8423307,-0.26755929,-0.95271695,0.1385192,-0.27044934,0
-1.0460409,-0.75533473,1.434128,-0.3036477,-0.40081137,0.86437738,0
4.1138763,-5.0395393,0.97129726,0.95271695,-0.1385192,0.27044934,0
-2.9613771,-3.6483982,-3.4538584,-0.011333585,-0.90562826,-0.42392078,0
0.32737827,5.0370455,1.1437465,0.011333585,0.90562826,0.42392078,0
-0.11740923,3.854809,3.5726283,0.011333585,0.90562826,0.42392078,0
4.2527084,-3.865056,0.92338204,0.95271695,-0.1385192,0.27044934,0
4.4302211,3.6229646,4.1746707,0.011333585,0.90562826,0.42392078,0
-3.7581916,5.927165,-0.8727107,0.011333585,0.90562826,0.42392078,0
-2.3924766,-1.4397984,-3.658566,0.3036477,0.40081137,-0.86437738,0
5.1262703,2.881042,2.5953288,0.95271695,-0.1385192,0.27044934,0
2.9683461,-3.2987266,-2.8801293,0.3036477,0.40081137,-0.86437738,0
0.68430567,-4.2451329,-2.9565651,-0.011333585,-0.90562826,-0.42392078,0
0.63197017,-0.96344709,2.2663414,-0.3036477,-0.40081137,0.86437738,0
4.5818801,-1.0316395,1.829433,0.95271695,-0.1385192,0.27044934,0
-4.7579169,0.47822011,-1.8809874,-0.95271695,0.1385192,-0.27044934,0
-3.1532784,5.099112,0.94573361,0.011333585,0.90562826,0.42392078,0
1.8235636,-3.5453625,-3.4085588,0.3036477,0.40081137,-0.86437738,0
-3.6583366,-2.9685354,-0.54585457,-0.3036477,-0.40081137,0.86437738,0
2.1425216,-0.85675228,2.8202438,-0.3036477,-0.40081137,0.86437738,0
-4.3591537,1.999537,-1.4939089,-0.95271695,0.1385192,-0.27044934,0
4.8176084,-4.811008,-0.5845834,0.95271695,-0.1385192,0.27044934,0
1.8127441,3.8630769,3.509968,0.011333585,0.90562826,0.42392078,0
-2.3685706,1.1490293,-2.4287856,0.3036477,0.40081137,-0.86437738,0
0.40643573,1.0894203,2.811193,-0.3036477,-0.40081137,0.86437738,0
-4.1073003,-3.6354766,-0.8368535,-0.3036477,-0.40081137,0.86437738,0
-1.6955571,4.5876522,1.7601104,0.011333585,0.90562826,0.42392078,0
4.3703256,0.088548899,3.3322666,0.95271695,-0.1385192,0.27044934,0
-4.105401,4.080255,2.8281455,0.011333585,0.90562826,0.42392078,0
-0.49201059,-5.3980341,-0.34908462,-0.011333585,-0.90562826,-0.42392078,0
-3.0886412,3.1160798,2.6831086,-0.3036477,-0.40081137,0.86437738,0
-3.1850543,-2.7153158,-0.093366861,-0.3036477,-0.40081137,0.86437738,0
4.4343457,2.320106,4.6652818,0.95271695,-0.1385192,0.27044934,0
3.3938005,3.1697538,4.612009,0.011333585,0.90562826,0.42392078,0
-1.5916929,-2.8488626,-4.2122974,0.3036477,0.40081137,-0.86437738,0
5.0365806,-3.7430573,-1.4539165,0.95271695,-0.1385192,0.27044934,0
-4.216897,4.8381987,1.8793174,0.011333585,0.90562826,0.42392078,0
4.9155321,0.40576816,0.79830265,0.95271695,-0.1385192,0.27044934,0
-5.386663,2.9127455,1.3316019,-0.95271695,0.1385192,-0.27044934,0
4.2018471,2.2819846,4.7559366,-0.3036477,-0.40081137,0.86437738,0
0.22609997,-0.61449569,-2.6733027,0.3036477,0.40081137,-0.86437738,0
-4.1036539,-2.6981378,-0.59055614,-0.3036477,-0.40081137,0.86437738,0
5.2900791,-3.1306608,-1.8539096,0.95271695,-0.1385192,0.27044934,0
1.6242123,-1.2890249,-2.3372526,0.3036477,0.40081137,-0.86437738,0
2.6337566,-0.038807869,-1.5786052,0.3036477,0.40081137,-0.86437738,0
4.3730936,-5.2937441,0.95959389,0.95271695,-0.1385192,0.27044934,0
4.9489574,-4.9026537,-1.2517498,0.95271695,-0.1385192,0.27044934,0
0.50649595,4.2078595,-0.31337667,0.3036477,0.40081137,-0.86437738,0
-5.332725,-0.37600589,0.30165529,-0.3036477,-0.40081137,0.86437738,0
-4.3833518,-4.250895,-2.8749738,-0.011333585,-0.90562826,-0.42392078,0
3.6025152,-4.3647404,-2.3512018,-0.011333585,-0.90562826,-0.42392078,0
1.0758524,-4.7497468,-2.0077343,-0.011333585,-0.90562826,-0.42392078,0
5.3607121,-4.1103954,-2.1352439,0.95271695,-0.1385192,0.27044934,0
4.6234989,1.5129879,3.2708173,0.95271695,-0.1385192,0.27044934,0
-4.6749001,-2.8181553,-0.66799974,-0.3036477,-0.40081137,0.86437738,0
-4.9953485,-2.385577,-1.4024854,-0.95271695,0.1385192,-0.27044934,0
4.9557085,1.6785746,2.6111917,0.95271695,-0.1385192,0.27044934,0
3.3619118,-1.9603072,2.5677056,-0.3036477,-0.40081137,0.86437738,0
0.48384237,4.9243803,1.1243792,0.011333585,0.90562826,0.42392078,0
5.2466478,4.5673847,1.9683213,0.011333585,0.90562826,0.42392078,0
-1.7160034,-4.2084341,-2.3477864,-0.011333585,-0.90562826,-0.42392078,0
0.82955265,3.9701309,3.2267621,0.011333585,0.90562826,0.42392078,0
-5.0255756,-2.1965377,-1.5044141,-0.95271695,0.1385192,-0.27044934,0
-4.6008253,-1.448856,-2.7025065,-0.95271695,0.1385192,-0.27044934,0
-4.7338886,-1.4174169,-2.7372603,-0.95271695,0.1385192,-0.27044934,0
3.0269527,3.1887641,5.0081625,0.011333585,0.90562826,0.42392078,0
-1.7612183,4.6754637,-0.85135716,0.3036477,0.40081137,-0.86437738,0
-4.0013351,2.136934,1.7951958,-0.3036477,-0.40081137,0.86437738,0
-2.5363996,-0.50708914,1.052984,-0.3036477,-0.40081137,0.86437738,0
4.7919731,0.91764915,2.2478743,0.95271695,-0.1385192,0.27044934,0
1.5930591,-4.1109905,-2.7943475,-0.011333585,-0.90562826,-0.42392078,0
-4.4442949,-3.3099205,-4.5165696,-0.95271695,0.1385192,-0.27044934,0
2.3695557,3.9453592,2.9010417,0.011333585,0.90562826,0.42392078,0
4.9825554,4.1963449,2.4712896,0.011333585,0.90562826,0.42392078,0
-4.6643171,-3.0545132,-0.88066149,-0.3036477,-0.40081137,0.86437738,0
5.1784616,2.7558699,2.2729154,0.95271695,-0.1385192,0.27044934,0
4.0691996,4.0888014,2.8274565,0.011333585,0.90562826,0.42392078,0
1.4435079,-3.6573484,1.0343033,-0.3036477,-0.40081137,0.86437738,0
-3.2968559,2.9053931,2.3235183,-0.3036477,-0.40081137,0.86437738,0
-0.10336411,2.6284444,-0.98715621,0.3036477,0.40081137,-0.86437738,0
4.7702732,-2.4757521,0.84491229,0.95271695,-0.1385192,0.27044934,0
-0.93116617,0.075034499,-2.4807119,0.3036477,0.40081137,-0.86437738,0
-3.8209467,4.7962732,1.6109453,0.011333585,0.90562826,0.42392078,0
4.6323528,4.2727442,2.8481011,0.011333585,0.90562826,0.42392078,0
-5.2317371,4.2149653,1.8635345,-0.95271695,0.1385192,-0.27044934,0
4.3695259,0.92812151,4.0159693,0.95271695,-0.1385192,0.27044934,0
-0.35704416,0.67924231,-1.925501,0.3036477,0.40081137,-0.86437738,0
5.0369058,-4.5659623,-2.1386552,-0.011333585,-0.90562826,-0.42392078,0
-4.1691585,2.2145584,-2.186681,-0.95271695,0.1385192,-0.27044934,0
5.1014385,1.0269094,0.44459915,0.95271695,-0.1385192,0.27044934,0
-2.3723247,-4.9549561,-1.1862354,-0.011333585,-0.90562826,-0.42392078,0
3.0503039,-4.6785712,-2.1108923,-0.011333585,-0.90562826,-0.42392078,0
4.9975429,3.5287926,2.2219548,0.95271695,-0.1385192,0.27044934,0
1.010138,-4.2209044,-2.7921836,-0.011333585,-0.90562826,-0.42392078,0
4.7628808,3.5975773,3.1291184,0.95271695,-0.1385192,0.27044934,0
4.4642072,-3.4134946,0.80484056,0.95271695,-0.1385192,0.27044934,0
-5.2270446,-1.4818351,-0.41768026,-0.95271695,0.1385192,-0.27044934,0
5.1030221,-2.4851232,-0.88836384,0.95271695,-0.1385192,0.27044934,0
4.2632995,-3.2729588,1.3949966,0.95271695,-0.1385192,0.27044934,0
-5.0026917,-0.17497087,-0.92952728,-0.95271695,0.1385192,-0.27044934,0
4.604682,3.3081105,4.0953999,0.95271695,-0.1385192,0.27044934,0
-3.0465777,-0.49917865,1.1853206,-0.3036477,-0.40081137,0.86437738,0
-0.24030161,-0.030431747,-2.5772288,0.3036477,0.40081137,-0.86437738,0
-2.5715215,1.6264796,2.2599847,-0.3036477,-0.40081137,0.86437738,0
4.3496299,-1.3062918,2.9743187,0.95271695,-0.1385192,0.27044934,0
3.0837326,3.6769786,4.0203676,0.011333585,0.90562826,0.42392078,0
3.879833,1.2125192,4.0244331,-0.3036477,-0.40081137,0.86437738,0
1.5674649,-0.76140642,2.3436627,-0.3036477,-0.40081137,0.86437738,0
3.5288613,4.5061483,2.5089631,0.011333585,0.90562826,0.42392078,0
-4.5060043,-3.0256903,-3.5927238,-0.95271695,0.1385192,-0.27044934,0
-3.5100827,5.1631179,1.0218976,0.011333585,0.90562826,0.42392078,0
4.2799988,4.310636,2.1950049,0.011333585,0.90562826,0.42392078,0
4.4762259,-2.7511244,0.86473346,0.95271695,-0.1385192,0.27044934,0
-4.3068404,0.055262923,-3.2353654,-0.95271695,0.1385192,-0.27044934,0
-4.5778856,2.6914895,-0.37052631,-0.95271695,0.1385192,-0.27044934,0
-1.1095381,-4.6540413,-2.1389523,-0.011333585,-0.90562826,-0.42392078,0
-4.0618954,1.1584597,-3.0216081,-0.95271695,0.1385192,-0.27044934,0
0.55615664,3.9878178,3.1792891,0.011333585,0.90562826,0.42392078,0
-3.7911391,4.1244574,2.9496641,0.011333585,0.90562826,0.42392078,0
-5.448101,1.9945257,1.0169923,-0.95271695,0.1385192,-0.27044934,0
-5.0335426,-2.569912,-2.6233711,-0.95271695,0.1385192,-0.27044934,0
1.3635526,3.8711276,3.7912571,0.011333585,0.90562826,0.42392078,0
-3.6363621,-3.2344928,-0.41485405,-0.3036477,-0.40081137,0.86437738,0
-4.7315874,2.8376544,1.8178858,-0.3036477,-0.40081137,0.86437738,0
-4.760498,5.2069249,1.0072911,-0.95271695,0.1385192,-0.27044934,0
-1.7672601,4.1297102,2.8657231,0.011333585,0.90562826,0.42392078,0
4.5237694,0.11055338,2.9963088,0.95271695,-0.1385192,0.27044934,0
0.88691473,-4.5858078,-2.1534109,-0.011333585,-0.90562826,-0.42392078,0
-4.9822149,1.1209548,0.33138776,-0.95271695,0.1385192,-0.27044934,0
5.0485878,-2.5077586,-1.4821646,0.3036477,0.40081137,-0.86437738,0
-4.1334248,3.3597269,-1.5168064,-0.95271695,0.1385192,-0.27044934,0
-4.9010377,-1.7208045,-1.5648918,-0.95271695,0.1385192,-0.27044934,0
-0.22127342,-4.4641085,-2.5530133,-0.011333585,-0.90562826,-0.42392078,0
-3.2663944,-2.6997268,-4.8010082,0.3036477,0.40081137,-0.86437738,0
-0.14645168,-1.8072917,1.2240214,-0.3036477,-0.40081137,0.86437738,0
3.8546047,-2.4680777,-1.8975567,0.3036477,0.40081137,-0.86437738,0
0.78447306,2.2908335,-1.1248062,0.3036477,0.40081137,-0.86437738,0
-4.8992977,4.1746092,0.97995961,-0.95271695,0.1385192,-0.27044934,0
-0.014325619,4.7923565,1.3649514,0.011333585,0.90562826,0.42392078,0
2.688513,3.9530666,2.8097305,0.011333585,0.90562826,0.42392078,0
4.7173071,-3.9681556,-0.068344355,0.95271695,-0.1385192,0.27044934,0
-4.1246748,2.1609657,-2.523638,-0.95271695,0.1385192,-0.27044934,0
-4.3541532,1.6206989,-2.0540156,-0.95271695,0.1385192,-0.27044934,0
-4.8007584,-3.8384452,-2.864851,-0.95271695,0.1385192,-0.27044934,0
-4.6828146,3.9031267,0.51065469,-0.95271695,0.1385192,-0.27044934,0
1.3698304,-2.9319015,1.6297095,-0.3036477,-0.40081137,0.86437738,0
4.4615564,1.2844936,3.0635865,0.95271695,-0.1385192,0.27044934,0
1.4115148,-5.1264524,-1.1821969,-0.011333585,-0.90562826,-0.42392078,0
-5.029038,-4.4530082,-2.4791441,-0.011333585,-0.90562826,-0.42392078,0
3.255826,-4.5522208,-1.9423862,-0.011333585,-0.90562826,-0.42392078,0
0.4525671,-2.7999368,1.1579279,-0.3036477,-0.40081137,0.86437738,0
3.6712039,-5.6484709,1.099421,-0.3036477,-0.40081137,0.86437738,0
-2.5733862,3.0536957,-1.6164812,0.3036477,0.40081137,-0.86437738,0
-1.8041229,-4.2614856,-3.0419247,-0.011333585,-0.90562826,-0.42392078,0
-4.3308477,3.5692003,-1.7552192,-0.95271695,0.1385192,-0.27044934,0
4.4296212,-5.0866547,-1.4580288,-0.011333585,-0.90562826,-0.42392078,0
-4.7870574,3.8609984,0.62537384,-0.95271695,0.1385192,-0.27044934,0
3.6283879,0.85491878,4.1652341,-0.3036477,-0.40081137,0.86437738,0
0.81660581,-5.2724829,-0.167835,-0.011333585,-0.90562826,-0.42392078,0
-0.40836895,0.68998563,-2.3484633,0.3036477,0.40081137,-0.86437738,0
-0.057349205,-4.9177876,-1.1855855,-0.011333585,-0.90562826,-0.42392078,0
-3.0218453,-1.752746,-4.1465549,0.3036477,0.40081137,-0.86437738,0
-0.18194437,5.0247793,0.62879014,0.011333585,0.90562826,0.42392078,0
1.2283313,2.8126047,-0.50866616,0.3036477,0.40081137,-0.86437738,0
4.0730033,-2.3036265,2.248317,0.95271695,-0.1385192,0.27044934,0
-2.4025719,1.8185207,2.252979,-0.3036477,-0.40081137,0.86437738,0
-4.7711315,0.32575297,-1.0930433,-0.95271695,0.1385192,-0.27044934,0
1.5601826,-4.0966301,-2.9836168,-0.011333585,-0.90562826,-0.42392078,0
4.6722116,-3.720674,0.46529436,0.95271695,-0.1385192,0.27044934,0
-1.7206612,4.5800133,2.4617853,0.011333585,0.90562826,0.42392078,0
4.4012179,-1.2801539,1.6164901,0.95271695,-0.1385192,0.27044934,0
4.7214546,-3.3463166,-0.071386814,0.95271695,-0.1385192,0.27044934,0
-4.9272337,-0.27104115,-0.57937098,-0.95271695,0.1385192,-0.27044934,0
-4.5667181,-2.1247506,-3.8166456,-0.95271695,0.1385192,-0.27044934,0
0.46371698,4.3022099,2.7697754,0.011333585,0.90562826,0.42392078,0
5.0274348,-0.91193104,0.70626974,0.95271695,-0.1385192,0.27044934,0
0.92593765,-4.0722532,-3.0267351,-0.011333585,-0.90562826,-0.42392078,0
5.1487889,1.975291,1.5723801,0.95271695,-0.1385192,0.27044934,0
-0.43377829,-3.6820545,0.67406404,-0.3036477,-0.40081137,0.86437738,0
-1.6715665,5.5871949,-0.13302791,0.011333585,0.90562826,0.42392078,0
-2.125061,-0.98912418,-3.5689316,0.3036477,0.40081137,-0.86437738,0
4.0832033,-1.2205969,2.9708974,0.95271695,-0.1385192,0.27044934,0
4.5607171,-2.0583906,1.1318099,0.95271695,-0.1385192,0.27044934,0
-3.5789642,4.9445629,1.287064,0.011333585,0.90562826,0.42392078,0
-3.8937664,-4.6751056,-1.8662944,-0.011333585,-0.90562826,-0.42392078,0
4.5283041,1.033814,3.5135131,0.95271695,-0.1385192,0.27044934,0
4.4317789,0.039669514,2.396688,0.95271695,-0.1385192,0.27044934,0
