-4.6377439,0.55148482,-3.5459013,-0.88743514,-0.095217109,0.45099065,0
-2.6161647,-1.6270609,0.23477447,-0.88743514,-0.095217109,0.45099065,0
1.9691176,-4.9513826,-1.7843468,0.31602252,-0.83795041,0.44493684,0
-1.4534876,-4.1806231,1.3752817,-0.88743514,-0.095217109,0.45099065,0
1.8005559,-0.80467463,-2.4178939,0.88743514,0.095217109,-0.45099065,0
-3.0662401,-1.903334,-1.2996159,-0.88743514,-0.095217109,0.45099065,0
-1.6262922,1.8914542,-4.4492788,-0.31602252,0.83795041,-0.44493684,0
1.999342,-1.5545557,4.3616567,0.31602252,-0.83795041,0.44493684,0
-3.1697631,-0.83656907,-0.54167688,-0.88743514,-0.095217109,0.45099065,0
0.90079904,-0.57360137,4.937479,0.33554217,0.53737581,0.7737174,0
-2.9471633,3.1808538,-0.53859556,-0.31602252,0.83795041,-0.44493684,0
-0.40113881,1.4723797,4.3858256,0.33554217,0.53737581,0.7737174,0
-4.3556347,1.6405697,-3.006465,-0.31602252,0.83795041,-0.44493684,0
3.448009,-2.9461546,1.3116908,0.31602252,-0.83795041,0.44493684,0
-2.1288633,-2.5972066,0.75506485,-0.88743514,-0.095217109,0.45099065,0
1.5753756,1.8519552,-2.3681011,0.88743514,0.095217109,-0.45099065,0
-1.6492376,-0.11766195,1.943069,-0.88743514,-0.095217109,0.45099065,0
-1.3246796,3.2065904,-1.7468753,-0.31602252,0.83795041,-0.44493684,0
-1.877142,1.6794801,1.9500777,-0.88743514,-0.095217109,0.45099065,0
-0.066994011,3.0113561,2.940424,0.33554217,0.53737581,0.7737174,0
1.1195161,3.5137198,2.2729716,0.33554217,0.53737581,0.7737174,0
-1.8239937,-5.3524008,0.62041521,0.31602252,-0.83795041,0.44493684,0
0.53532994,1.2548994,4.0819883,0.33554217,0.53737581,0.7737174,0
2.6004362,3.1403074,0.50992489,0.88743514,0.095217109,-0.45099065,0
2.9166486,-1.4181731,-0.54350495,0.88743514,0.095217109,-0.45099065,0
2.1614878,-3.6931624,-2.3893888,0.88743514,0.095217109,-0.45099065,0
-2.9891717,-2.1489408,-2.2084627,-0.33554217,-0.53737581,-0.7737174,0
-0.10238242,-4.7096014,-1.6905642,-0.33554217,-0.53737581,-0.7737174,0
1.038525,-0.90901423,-3.4509761,0.88743514,0.095217109,-0.45099065,0
-2.515485,3.0564401,1.0150445,-0.88743514,-0.095217109,0.45099065,0
1.2786279,-3.1459336,1.9406277,0.31602252,-0.83795041,0.44493684,0
-0.027870953,-1.6632653,-3.9493065,-0.33554217,-0.53737581,-0.7737174,0
-2.3747613,-0.2977519,1.1798463,-0.88743514,-0.095217109,0.45099065,0
-1.6859207,-4.6022167,-1.2253132,-0.33554217,-0.53737581,-0.7737174,0
-1.5412575,-3.044138,-2.1685324,-0.33554217,-0.53737581,-0.7737174,0
0.034523487,3.4738104,-2.8222704,-0.31602252,0.83795041,-0.44493684,0
3.1257472,1.2053715,2.7259533,0.33554217,0.53737581,0.7737174,0
-2.1282959,-0.62938905,1.5979886,-0.88743514,-0.095217109,0.45099065,0
-1.487303,1.0675628,-5.0125227,-0.33554217,-0.53737581,-0.7737174,0
-1.7861516,-0.028122902,1.9758576,-0.88743514,-0.095217109,0.45099065,0
-1.0263166,5.0055079,2.0003152,0.33554217,0.53737581,0.7737174,0
-1.9917707,-5.1448097,-0.70458412,-0.33554217,-0.53737581,-0.7737174,0
2.4961443,3.2428801,1.6138351,0.33554217,0.53737581,0.7737174,0
-0.96142697,-5.1458974,0.2766118,0.31602252,-0.83795041,0.44493684,0
0.93685555,-2.0553815,-3.7991989,0.88743514,0.095217109,-0.45099065,0
-3.1550393,2.208461,0.10404167,-0.88743514,-0.095217109,0.45099065,0
-2.7328184,1.7783608,0.77717167,-0.88743514,-0.095217109,0.45099065,0
-3.1025252,-1.182672,-3.1602192,-0.33554217,-0.53737581,-0.7737174,0
-1.9003909,5.0691404,2.2218184,-0.31602252,0.83795041,-0.44493684,0
-0.90595824,-2.5805411,-3.1048775,-0.33554217,-0.53737581,-0.7737174,0
-2.2477479,0.95167112,-4.9895964,-0.33554217,-0.53737581,-0.7737174,0
2.4694712,-0.99047709,4.6497469,0.33554217,0.53737581,0.7737174,0
-1.6170642,-1.3420637,-3.3034015,-0.33554217,-0.53737581,-0.7737174,0
-2.3780723,-3.958878,-1.3262115,-0.33554217,-0.53737581,-0.7737174,0
2.4194782,-3.7988634,-1.7819231,0.88743514,0.095217109,-0.45099065,0
-3.8942537,0.85468745,-1.9408474,-0.88743514,-0.095217109,0.45099065,0
0.88511759,-2.0806954,-3.8766539,-0.33554217,-0.53737581,-0.7737174,0
1.1032526,1.5561988,-3.4572964,0.88743514,0.095217109,-0.45099065,0
-0.33887291,1.0808893,-5.7049327,-0.33554217,-0.53737581,-0.7737174,0
-0.38604999,-4.6441226,-1.6124678,-0.33554217,-0.53737581,-0.7737174,0
-0.32939237,1.049099,4.5555673,0.33554217,0.53737581,0.7737174,0
3.9735546,1.0293057,2.2980139,0.88743514,0.095217109,-0.45099065,0
-3.6325104,1.3462706,-1.3014964,-0.88743514,-0.095217109,0.45099065,0
2.7315006,-0.20243055,4.1197777,0.33554217,0.53737581,0.7737174,0
2.8547099,-3.1037462,-0.17184091,0.88743514,0.095217109,-0.45099065,0
1.7322552,-4.5208044,-1.0066681,0.31602252,-0.83795041,0.44493684,0
-3.4771922,1.3658168,-0.76171923,-0.88743514,-0.095217109,0.45099065,0
-0.24005353,3.2015376,2.9419651,0.33554217,0.53737581,0.7737174,0
0.53067684,-4.9733329,-0.42635655,0.31602252,-0.83795041,0.44493684,0
0.55856383,-3.0703106,-3.4652438,-0.33554217,-0.53737581,-0.7737174,0
1.3958509,-3.9523149,0.4972508,0.31602252,-0.83795041,0.44493684,0
-1.2846479,1.8659475,-4.5688348,-0.31602252,0.83795041,-0.44493684,0
1.8501973,-2.1328521,-2.1366589,0.88743514,0.095217109,-0.45099065,0
3.8918471,-1.403237,3.4556503,0.31602252,-0.83795041,0.44493684,0
1.2121308,-4.4462347,0.012901306,0.31602252,-0.83795041,0.44493684,0
2.034483,-2.3399272,2.9102864,0.31602252,-0.83795041,0.44493684,0
-0.38510799,-5.3509626,-1.315526,-0.33554217,-0.53737581,-0.7737174,0
3.4325538,1.6659278,2.7024016,0.33554217,0.53737581,0.7737174,0
1.6418042,-3.4460576,-3.4119358,0.88743514,0.095217109,-0.45099065,0
2.6711493,-1.1521616,-0.55330539,0.88743514,0.095217109,-0.45099065,0
-3.6822951,-1.5649203,-1.9016161,-0.88743514,-0.095217109,0.45099065,0
0.90164566,-1.9550452,4.7404585,0.31602252,-0.83795041,0.44493684,0
-1.5652019,3.0946014,3.3249376,-0.88743514,-0.095217109,0.45099065,0
0.10444832,-4.8509712,0.22841811,0.31602252,-0.83795041,0.44493684,0
1.4261942,-1.4361452,5.3172703,0.31602252,-0.83795041,0.44493684,0
-0.36008596,2.6659572,3.4762945,0.33554217,0.53737581,0.7737174,0
-1.5021718,-0.00085619092,-4.5339732,-0.33554217,-0.53737581,-0.7737174,0
-0.9308778,-0.75875545,3.9027476,-0.88743514,-0.095217109,0.45099065,0
-2.3661435,-4.4781766,0.26570749,-0.88743514,-0.095217109,0.45099065,0
0.83648944,-4.8637195,-2.0670094,-0.33554217,-0.53737581,-0.7737174,0
-3.0923758,-3.1878269,-0.8907032,-0.88743514,-0.095217109,0.45099065,0
-3.8313766,2.5816355,-1.4922177,-0.31602252,0.83795041,-0.44493684,0
0.98368526,5.2155905,0.27768326,-0.31602252,0.83795041,-0.44493684,0
-2.218564,1.885797,1.3834742,-0.88743514,-0.095217109,0.45099065,0
-1.6969028,3.4330397,-1.7122294,-0.31602252,0.83795041,-0.44493684,0
1.6939082,-2.9390953,2.5360599,0.31602252,-0.83795041,0.44493684,0
0.11095786,3.2874479,-2.945318,-0.31602252,0.83795041,-0.44493684,0
2.0253649,-2.8189983,2.2073817,0.31602252,-0.83795041,0.44493684,0
0.99830616,3.6338177,2.3379631,0.33554217,0.53737581,0.7737174,0
-1.2461975,2.3160553,-3.3581443,-0.31602252,0.83795041,-0.44493684,0
2.9020977,-2.6332717,1.9771204,0.31602252,-0.83795041,0.44493684,0
-2.4629407,4.4492173,1.5946052,-0.88743514,-0.095217109,0.45099065,0
1.8626468,5.1290264,-0.70393062,-0.31602252,0.83795041,-0.44493684,0
-3.2092614,2.0958776,-3.1594064,-0.31602252,0.83795041,-0.44493684,0
-4.0318699,0.96221948,-2.591615,-0.88743514,-0.095217109,0.45099065,0
-1.2909205,-5.229363,-0.85023499,-0.33554217,-0.53737581,-0.7737174,0
-1.827118,1.347595,2.56494,-0.88743514,-0.095217109,0.45099065,0
-2.2581091,-2.6358707,0.22091794,-0.88743514,-0.095217109,0.45099065,0
-1.9008965,-2.2542732,1.5902729,-0.88743514,-0.095217109,0.45099065,0
0.078019559,-2.779381,-3.3968916,-0.33554217,-0.53737581,-0.7737174,0
3.7190044,-0.55942059,4.0153246,0.33554217,0.53737581,0.7737174,0
-1.4319682,1.6941165,-4.7761288,-0.31602252,0.83795041,-0.44493684,0
2.7528377,0.92316425,-0.2795729,0.88743514,0.095217109,-0.45099065,0
0.5321629,-3.2971232,2.0679624,0.31602252,-0.83795041,0.44493684,0
-0.10823321,-1.1996468,5.1251507,-0.88743514,-0.095217109,0.45099065,0
-0.74019599,-4.241076,-2.0350947,-0.33554217,-0.53737581,-0.7737174,0
-1.2994624,-2.2260678,-3.2184901,-0.33554217,-0.53737581,-0.7737174,0
3.1938734,-0.49960279,0.82640004,0.88743514,0.095217109,-0.45099065,0
1.8279808,0.71900833,-1.7699249,0.88743514,0.095217109,-0.45099065,0
0.98106813,0.21814823,4.4919934,0.33554217,0.53737581,0.7737174,0
-1.6860507,-5.3575144,0.36072516,0.31602252,-0.83795041,0.44493684,0
1.379014,-3.9897394,0.55049509,0.31602252,-0.83795041,0.44493684,0
3.1026397,2.4337118,2.294199,0.33554217,0.53737581,0.7737174,0
1.9906464,-1.9568787,-2.3814979,0.88743514,0.095217109,-0.45099065,0
-0.36170149,-4.6386147,-1.6896648,-0.33554217,-0.53737581,-0.7737174,0
-0.9535116,-4.6701646,-1.5566101,-0.33554217,-0.53737581,-0.7737174,0
0.8242389,0.70564216,4.4308052,0.33554217,0.53737581,0.7737174,0
0.21258736,2.5034566,-4.6347041,-0.31602252,0.83795041,-0.44493684,0
-1.1353076,-2.8425486,-2.6239462,-0.33554217,-0.53737581,-0.7737174,0
0.19419765,-3.3702393,2.5226083,0.31602252,-0.83795041,0.44493684,0
-0.64127743,2.03495,4.101614,0.33554217,0.53737581,0.7737174,0
-0.27904636,-2.5885544,-3.2159276,-0.33554217,-0.53737581,-0.7737174,0
-1.5279568,-2.5476091,-2.4826481,-0.33554217,-0.53737581,-0.7737174,0
-0.78254104,-2.2601891,3.2439411,-0.88743514,-0.095217109,0.45099065,0
0.18368673,3.8229785,-1.8778329,-0.31602252,0.83795041,-0.44493684,0
-4.7021523,0.84561849,-3.9279366,-0.31602252,0.83795041,-0.44493684,0
-3.3179004,3.5724323,0.2112534,-0.88743514,-0.095217109,0.45099065,0
-1.150812,-3.6678667,-2.183701,-0.33554217,-0.53737581,-0.7737174,0
0.84002852,-4.2430491,0.25476563,0.31602252,-0.83795041,0.44493684,0
-2.0017943,3.8187594,-0.12716758,-0.31602252,0.83795041,-0.44493684,0
3.2040982,-1.1403294,4.3656321,0.33554217,0.53737581,0.7737174,0
2.0891702,-4.1990185,-2.310317,0.88743514,0.095217109,-0.45099065,0
-0.9236955,-0.11492634,3.6140065,-0.88743514,-0.095217109,0.45099065,0
2.2463059,4.3990183,-0.22839713,0.88743514,0.095217109,-0.45099065,0
2.1118159,1.2180505,3.5418577,0.33554217,0.53737581,0.7737174,0
-0.82143819,-0.61183333,3.3920765,-0.88743514,-0.095217109,0.45099065,0
1.5984429,0.010130167,-2.4191368,0.88743514,0.095217109,-0.45099065,0
1.5774174,2.1209905,3.2188015,0.33554217,0.53737581,0.7737174,0
-1.0369635,1.4545738,-5.4815817,-0.31602252,0.83795041,-0.44493684,0
-0.54521227,0.039642096,-4.9204431,-0.33554217,-0.53737581,-0.7737174,0
1.1014161,-4.0004911,0.33326507,0.31602252,-0.83795041,0.44493684,0
3.8697896,-0.53591251,1.623059,0.88743514,0.095217109,-0.45099065,0
-2.6077907,-2.5138981,-2.0563054,-0.33554217,-0.53737581,-0.7737174,0
1.2994547,-1.1125219,-3.6452355,0.88743514,0.095217109,-0.45099065,0
2.088623,3.2972982,-0.46647716,0.88743514,0.095217109,-0.45099065,0
-0.68207192,4.1649971,2.4835243,0.33554217,0.53737581,0.7737174,0
1.124896,-4.2119579,-2.8711338,-0.33554217,-0.53737581,-0.7737174,0
0.39499426,4.6138287,-0.27946234,-0.31602252,0.83795041,-0.44493684,0
-3.25243,-2.5272665,-1.2732422,-0.88743514,-0.095217109,0.45099065,0
-1.4854803,-0.10494411,-4.6503768,-0.33554217,-0.53737581,-0.7737174,0
1.8221838,-4.1026525,-0.10283482,0.31602252,-0.83795041,0.44493684,0
2.5545406,-0.052507401,3.8617928,0.33554217,0.53737581,0.7737174,0
-0.34118941,-2.842366,-2.8706877,-0.33554217,-0.53737581,-0.7737174,0
-0.32165432,2.8767753,-3.2749772,-0.31602252,0.83795041,-0.44493684,0
-2.894794,2.1751289,-3.2862606,-0.31602252,0.83795041,-0.44493684,0
-2.0290246,2.7065663,-2.5364769,-0.31602252,0.83795041,-0.44493684,0
-1.0337658,-5.5399957,-0.82278585,0.31602252,-0.83795041,0.44493684,0
-0.24700379,-4.8823404,0.21894574,0.31602252,-0.83795041,0.44493684,0
4.1677551,-1.5513418,2.6639426,0.31602252,-0.83795041,0.44493684,0
2.1293526,2.4054155,-1.0334144,0.88743514,0.095217109,-0.45099065,0
-2.069839,1.4668391,-4.5206966,-0.31602252,0.83795041,-0.44493684,0
0.82706165,-2.5157948,4.0805264,0.31602252,-0.83795041,0.44493684,0
-3.2139831,-3.0128684,-1.6710792,-0.33554217,-0.53737581,-0.7737174,0
-1.1409569,-3.2469811,3.0438032,-0.88743514,-0.095217109,0.45099065,0
-3.4804995,2.6934695,-0.94953471,-0.88743514,-0.095217109,0.45099065,0
0.79541701,-2.9211822,-3.2588718,-0.33554217,-0.53737581,-0.7737174,0
-1.8019605,1.7214968,2.222738,-0.88743514,-0.095217109,0.45099065,0
-0.30561447,-4.6534009,-1.6240673,-0.33554217,-0.53737581,-0.7737174,0
1.142633,-0.79974663,5.3936005,0.33554217,0.53737581,0.7737174,0
-1.8240696,2.5909102,2.1668832,-0.88743514,-0.095217109,0.45099065,0
1.5978682,-2.2730191,3.2418957,0.31602252,-0.83795041,0.44493684,0
-1.3642983,3.4988017,-1.158239,-0.31602252,0.83795041,-0.44493684,0
3.0195315,1.4523258,0.38538039,0.88743514,0.095217109,-0.45099065,0
1.7598667,-4.3521109,-0.11550736,0.31602252,-0.83795041,0.44493684,0
-0.70350718,-1.8515396,3.4487033,-0.88743514,-0.095217109,0.45099065,0
2.3477066,-4.025003,-0.38715374,0.31602252,-0.83795041,0.44493684,0
-3.1564488,-1.0569446,-2.9650023,-0.33554217,-0.53737581,-0.7737174,0
2.4795225,-3.5230503,-1.8047037,0.88743514,0.095217109,-0.45099065,0
-3.1410685,0.51818871,-4.0921187,-0.33554217,-0.53737581,-0.7737174,0
-1.9245033,3.3540726,-1.3936758,-0.31602252,0.83795041,-0.44493684,0
3.8300111,-0.69862795,1.5504242,0.88743514,0.095217109,-0.45099065,0
0.098977566,-3.9067454,1.6807001,0.31602252,-0.83795041,0.44493684,0
2.3250012,0.75291425,3.6163585,0.33554217,0.53737581,0.7737174,0
1.0126257,1.9603508,3.3888245,0.33554217,0.53737581,0.7737174,0
0.13867831,-4.6921501,0.19763255,0.31602252,-0.83795041,0.44493684,0
-0.98199725,-0.00057077408,-4.7994208,-0.33554217,-0.53737581,-0.7737174,0
0.32899785,-5.0862608,-0.77942467,0.31602252,-0.83795041,0.44493684,0
-1.7667751,-1.8089321,-2.8957705,-0.33554217,-0.53737581,-0.7737174,0
-0.4421339,-4.5804515,-1.8525944,-0.33554217,-0.53737581,-0.7737174,0
-3.442615,-2.5100629,-2.0411739,-0.88743514,-0.095217109,0.45099065,0
-0.18888435,-1.9729046,-3.4806652,-0.33554217,-0.53737581,-0.7737174,0
-2.2724409,3.1276827,-1.5948561,-0.31602252,0.83795041,-0.44493684,0
2.8591838,3.0798333,1.5492747,0.33554217,0.53737581,0.7737174,0
-2.268944,-4.4599428,-1.2123194,-0.33554217,-0.53737581,-0.7737174,0
-1.69997,1.75208,2.7099717,-0.88743514,-0.095217109,0.45099065,0
1.2276239,2.9905131,2.3156807,0.33554217,0.53737581,0.7737174,0
0.13852447,1.644853,3.7149556,0.33554217,0.53737581,0.7737174,0
0.85586393,1.8863109,-3.1060457,0.88743514,0.095217109,-0.45099065,0
-3.2015319,1.2204415,-4.0412855,-0.31602252,0.83795041,-0.44493684,0
-1.145232,0.49885464,3.1432538,-0.88743514,-0.095217109,0.45099065,0
0.88276529,-0.8414132,5.1343307,0.33554217,0.53737581,0.7737174,0
0.38197517,-2.9717159,2.8151395,0.31602252,-0.83795041,0.44493684,0
-0.21615863,4.8626628,1.9131866,0.33554217,0.53737581,0.7737174,0
2.3559725,-4.6377459,-1.1056325,0.31602252,-0.83795041,0.44493684,0
0.57925677,4.4246297,-1.4831477,-0.31602252,0.83795041,-0.44493684,0
-2.450515,3.7807448,1.5096185,-0.88743514,-0.095217109,0.45099065,0
-3.0330586,2.7298691,-1.3229543,-0.31602252,0.83795041,-0.44493684,0
0.20438671,4.2938108,-1.4277176,-0.31602252,0.83795041,-0.44493684,0
2.0166931,-1.9630226,4.1578102,0.31602252,-0.83795041,0.44493684,0
-3.0734544,-3.2294164,-1.0136933,-0.88743514,-0.095217109,0.45099065,0
1.2788157,4.4885058,1.6680303,0.33554217,0.53737581,0.7737174,0
-1.6794332,-4.1247096,-1.4257336,-0.33554217,-0.53737581,-0.7737174,0
-4.2747769,0.22255993,-3.0761039,-0.88743514,-0.095217109,0.45099065,0
-1.7971208,-2.9521017,1.537816,-0.88743514,-0.095217109,0.45099065,0
1.943176,1.5342591,3.0653923,0.33554217,0.53737581,0.7737174,0
2.543654,1.0731695,3.463469,0.33554217,0.53737581,0.7737174,0
3.3247566,-1.7225168,0.3563875,0.88743514,0.095217109,-0.45099065,0
0.3728745,3.023644,-3.1112001,-0.31602252,0.83795041,-0.44493684,0
-3.0791888,3.0730751,-1.3202176,-0.31602252,0.83795041,-0.44493684,0
4.3487506,-1.8402171,2.2171848,0.88743514,0.095217109,-0.45099065,0
-0.24652076,3.8932202,-1.227753,-0.31602252,0.83795041,-0.44493684,0
1.4047172,-3.5450182,0.9815076,0.31602252,-0.83795041,0.44493684,0
-1.5836848,-0.014866829,2.4777379,-0.88743514,-0.095217109,0.45099065,0
-1.383455,2.0249536,-3.8263774,-0.31602252,0.83795041,-0.44493684,0
1.2857041,-0.74256968,-2.8953228,0.88743514,0.095217109,-0.45099065,0
-2.1705637,-0.70959896,-3.712364,-0.33554217,-0.53737581,-0.7737174,0
-3.0933225,-3.1905942,-1.5971193,-0.33554217,-0.53737581,-0.7737174,0
0.1352632,0.70231318,-4.7030182,0.88743514,0.095217109,-0.45099065,0
-3.7061539,-1.6883957,-2.2565763,-0.88743514,-0.095217109,0.45099065,0
-1.0485358,2.6775825,3.7619443,-0.88743514,-0.095217109,0.45099065,0
1.6303265,-4.9446449,-2.6213055,-0.33554217,-0.53737581,-0.7737174,0
2.2945926,3.1864712,-0.24307466,0.88743514,0.095217109,-0.45099065,0
1.5951548,-2.4972961,3.2709494,0.31602252,-0.83795041,0.44493684,0
2.2683687,4.6161404,0.94789505,0.33554217,0.53737581,0.7737174,0
3.851023,-0.078223467,1.9283221,0.88743514,0.095217109,-0.45099065,0
2.7996922,3.1749945,0.93846393,0.88743514,0.095217109,-0.45099065,0
-0.58994842,-5.0164108,-1.611784,-0.33554217,-0.53737581,-0.7737174,0
-2.2196786,-1.9791141,-2.6005418,-0.33554217,-0.53737581,-0.7737174,0
0.78506589,-5.002264,-0.83566642,0.31602252,-0.83795041,0.44493684,0
-1.834548,2.0038428,-3.5306375,-0.31602252,0.83795041,-0.44493684,0
-2.1899109,-5.1025829,-0.53587508,-0.33554217,-0.53737581,-0.7737174,0
2.7050989,1.4632504,-0.30463791,0.88743514,0.095217109,-0.45099065,0
0.41302228,0.072966099,-5.0682797,0.88743514,0.095217109,-0.45099065,0
0.5718503,-3.5032458,2.0566113,0.31602252,-0.83795041,0.44493684,0
2.0013998,-2.4936681,2.6453397,0.31602252,-0.83795041,0.44493684,0
0.7443378,4.8400865,-0.14465332,-0.31602252,0.83795041,-0.44493684,0
0.66257596,5.1930838,0.082881689,-0.31602252,0.83795041,-0.44493684,0
-2.6026206,-3.0894763,-0.51000667,-0.88743514,-0.095217109,0.45099065,0
-0.73177505,5.0049639,0.97533989,-0.31602252,0.83795041,-0.44493684,0
-2.4042478,2.1373799,1.2704422,-0.88743514,-0.095217109,0.45099065,0
-2.8988385,0.14067268,-0.43913519,-0.88743514,-0.095217109,0.45099065,0
-1.1511077,-0.52898574,3.5645828,-0.88743514,-0.095217109,0.45099065,0
2.3830252,-2.414979,-1.2216001,0.88743514,0.095217109,-0.45099065,0
-0.36146855,-5.014564,-0.059749603,0.31602252,-0.83795041,0.44493684,0
3.6107347,-1.8857,0.91831619,0.88743514,0.095217109,-0.45099065,0
-1.2420979,3.2324812,-1.5816989,-0.31602252,0.83795041,-0.44493684,0
-3.4430189,1.2904987,-0.85314465,-0.88743514,-0.095217109,0.45099065,0
2.324574,-4.4522734,-1.9476285,0.88743514,0.095217109,-0.45099065,0
-0.1525774,3.1185246,-2.6909413,-0.31602252,0.83795041,-0.44493684,0
-2.1706867,3.2723505,-0.96489632,-0.31602252,0.83795041,-0.44493684,0
0.85232162,-5.1709523,-1.7487626,-0.33554217,-0.53737581,-0.7737174,0
3.0374546,2.7297144,2.0598984,0.33554217,0.53737581,0.7737174,0
-1.7045035,-0.19906759,2.3820429,-0.88743514,-0.095217109,0.45099065,0
-1.6440454,2.6423254,-3.1746573,-0.31602252,0.83795041,-0.44493684,0
-1.0042601,1.2554557,3.7472439,-0.88743514,-0.095217109,0.45099065,0
2.0735481,2.9372444,2.0737982,0.33554217,0.53737581,0.7737174,0
1.4021847,3.8677497,-1.8940966,0.88743514,0.095217109,-0.45099065,0
0.19481111,5.0639415,0.51851964,-0.31602252,0.83795041,-0.44493684,0
-0.29965878,2.0922949,-5.2309332,-0.31602252,0.83795041,-0.44493684,0
0.36173773,-1.1356519,5.7494931,0.33554217,0.53737581,0.7737174,0
-3.1531084,-0.98911947,-3.0125878,-0.33554217,-0.53737581,-0.7737174,0
-1.6404822,-4.1274576,-1.6750484,-0.33554217,-0.53737581,-0.7737174,0
-0.27274656,-2.5924449,4.4712367,0.31602252,-0.83795041,0.44493684,0
1.0588455,-0.11588836,-3.5558403,0.88743514,0.095217109,-0.45099065,0
-2.3124132,2.5951881,-2.0904603,-0.31602252,0.83795041,-0.44493684,0
2.4625826,4.2929363,0.4974041,0.88743514,0.095217109,-0.45099065,0
-2.3277888,2.4278793,-2.7067614,-0.31602252,0.83795041,-0.44493684,0
-1.0048695,-4.2155924,1.9156063,0.31602252,-0.83795041,0.44493684,0
3.4603872,-0.9295727,4.4330301,0.33554217,0.53737581,0.7737174,0
1.5653991,0.62793648,-2.5502892,0.88743514,0.095217109,-0.45099065,0
1.9639932,1.77759,2.924859,0.33554217,0.53737581,0.7737174,0
-0.059991382,2.3480525,3.8081646,0.33554217,0.53737581,0.7737174,0
-2.1831751,4.7019529,1.7442131,-0.31602252,0.83795041,-0.44493684,0
1.570909,-3.2724137,1.3754469,0.31602252,-0.83795041,0.44493684,0
-2.2374651,-3.405549,0.48656642,-0.88743514,-0.095217109,0.45099065,0
-1.9280546,-5.5921731,0.073288202,0.31602252,-0.83795041,0.44493684,0
1.9524589,4.302609,1.1972961,0.33554217,0.53737581,0.7737174,0
2.3125501,-3.7422969,-1.5583565,0.88743514,0.095217109,-0.45099065,0
-2.8583488,-1.9879935,-0.3265326,-0.88743514,-0.095217109,0.45099065,0
0.71202374,-3.8766968,1.4075568,0.31602252,-0.83795041,0.44493684,0
-1.7706456,4.0164208,3.0348511,0.33554217,0.53737581,0.7737174,0
-0.15647149,-4.8369799,-1.5780287,-0.33554217,-0.53737581,-0.7737174,0
-2.0841281,-2.433578,-2.5968397,-0.33554217,-0.53737581,-0.7737174,0
-1.7761207,1.4247454,-4.9672966,-0.31602252,0.83795041,-0.44493684,0
1.7604256,-1.1302574,-2.5031071,0.88743514,0.095217109,-0.45099065,0
-2.1365237,2.164762,-3.2904716,-0.31602252,0.83795041,-0.44493684,0
-0.98337626,-4.8933039,0.34348345,0.31602252,-0.83795041,0.44493684,0
1.4759609,0.82405555,-2.0924642,0.88743514,0.095217109,-0.45099065,0
-1.5504454,3.1949112,3.3674564,0.33554217,0.53737581,0.7737174,0
-3.1741087,2.7979798,0.093971133,-0.88743514,-0.095217109,0.45099065,0
1.3171918,0.30464411,-2.4512563,0.88743514,0.095217109,-0.45099065,0
-1.8225479,5.1472526,1.5896816,-0.31602252,0.83795041,-0.44493684,0
-0.11140698,-1.4808688,-4.3018408,-0.33554217,-0.53737581,-0.7737174,0
-1.9509802,-1.802561,0.88769305,-0.88743514,-0.095217109,0.45099065,0
2.633203,-3.7944491,-0.036547661,0.31602252,-0.83795041,0.44493684,0
3.1842399,-2.6840363,0.2426381,0.88743514,0.095217109,-0.45099065,0
-1.6131363,2.6886094,-2.5727215,-0.31602252,0.83795041,-0.44493684,0
-2.5410094,1.1823727,-4.7365761,-0.31602252,0.83795041,-0.44493684,0
-0.3473891,0.15263414,5.0710711,-0.88743514,-0.095217109,0.45099065,0
-2.8569174,1.3490342,-4.0719028,-0.31602252,0.83795041,-0.44493684,0
1.470909,2.3719096,2.6571012,0.33554217,0.53737581,0.7737174,0
-3.3291101,3.3598526,-0.47938445,-0.31602252,0.83795041,-0.44493684,0
0.61568779,3.5061502,2.4143019,0.33554217,0.53737581,0.7737174,0
1.2218354,-4.2104368,-2.5871758,-0.33554217,-0.53737581,-0.7737174,0
-1.7539406,3.4426508,-1.4791019,-0.31602252,0.83795041,-0.44493684,0
0.18827774,-1.8946629,-4.0694389,-0.33554217,-0.53737581,-0.7737174,0
1.1718411,-4.721983,-2.1875234,-0.33554217,-0.53737581,-0.7737174,0
-3.9570854,0.98622751,-2.4554236,-0.88743514,-0.095217109,0.45099065,0
-4.0708742,-0.59579325,-2.6046031,-0.88743514,-0.095217109,0.45099065,0
-1.4902594,4.3365984,0.24000216,-0.31602252,0.83795041,-0.44493684,0
1.0800176,-2.2173409,3.8164237,0.31602252,-0.83795041,0.44493684,0
-2.1069424,-1.0804803,-3.3439314,-0.33554217,-0.53737581,-0.7737174,0
1.0884488,5.2512689,0.37780237,-0.31602252,0.83795041,-0.44493684,0
3.1022613,0.71046573,3.4348319,0.33554217,0.53737581,0.7737174,0
2.9770679,-0.61323023,4.1996098,0.33554217,0.53737581,0.7737174,0
0.74087483,-2.4794633,-4.0091796,-0.33554217,-0.53737581,-0.7737174,0
-3.3255205,0.80974865,-0.41765153,-0.88743514,-0.095217109,0.45099065,0
-0.7124753,4.8472009,0.21223998,-0.31602252,0.83795041,-0.44493684,0
-1.2218008,-0.81089491,-4.2001081,-0.33554217,-0.53737581,-0.7737174,0
-3.0878456,-1.8201653,-0.94039464,-0.88743514,-0.095217109,0.45099065,0
1.6014528,-2.6657703,-2.8267663,0.88743514,0.095217109,-0.45099065,0
-3.6312132,-0.78670585,-1.6655562,-0.88743514,-0.095217109,0.45099065,0
0.6085906,-2.7416167,3.2873735,0.31602252,-0.83795041,0.44493684,0
-2.2509527,-2.1438103,0.98963267,-0.88743514,-0.095217109,0.45099065,0
0.37797797,-3.7101436,-2.6540532,-0.33554217,-0.53737581,-0.7737174,0
-0.68053216,-2.3190994,-3.5094714,-0.33554217,-0.53737581,-0.7737174,0
-0.050191164,-3.992743,1.4599514,0.31602252,-0.83795041,0.44493684,0
-2.4465942,2.3067129,1.3306466,-0.88743514,-0.095217109,0.45099065,0
0.53231233,-2.680006,-3.2842538,-0.33554217,-0.53737581,-0.7737174,0
1.6673803,-2.3331776,3.4527462,0.31602252,-0.83795041,0.44493684,0
0.32419515,-3.1364634,-3.2133613,-0.33554217,-0.53737581,-0.7737174,0
-1.9083419,1.3289878,-4.6837173,-0.31602252,0.83795041,-0.44493684,0
-3.7526941,-1.6035365,-2.3764181,-0.33554217,-0.53737581,-0.7737174,0
0.86009383,-4.7015414,-2.4449015,-0.33554217,-0.53737581,-0.7737174,0
1.158232,-0.54424638,4.8321328,0.33554217,0.53737581,0.7737174,0
0.79191816,1.035429,4.2693992,0.33554217,0.53737581,0.7737174,0
3.7093379,-0.32703829,4.0436211,0.33554217,0.53737581,0.7737174,0
-1.6192889,-3.5716248,1.6233455,-0.88743514,-0.095217109,0.45099065,0
-0.66076088,4.9420099,1.0482268,-0.31602252,0.83795041,-0.44493684,0
-1.6679502,-4.395946,1.6897594,-0.88743514,-0.095217109,0.45099065,0
1.9109771,-0.82755399,-2.0103514,0.88743514,0.095217109,-0.45099065,0
-2.1906455,3.2562008,-1.2658703,-0.31602252,0.83795041,-0.44493684,0
2.785841,-3.7941363,-0.47529364,0.88743514,0.095217109,-0.45099065,0
1.051827,-3.875843,1.2306741,0.31602252,-0.83795041,0.44493684,0
0.57267046,0.28789854,-3.9228213,0.88743514,0.095217109,-0.45099065,0
1.4886773,0.027845442,4.2854047,0.33554217,0.53737581,0.7737174,0
3.5366285,-0.010374069,1.1817131,0.88743514,0.095217109,-0.45099065,0
3.2947366,-0.80502748,0.9293654,0.88743514,0.095217109,-0.45099065,0
1.4619374,-2.0590854,-3.1813643,0.88743514,0.095217109,-0.45099065,0
-1.4185433,4.3278313,-0.27039933,-0.31602252,0.83795041,-0.44493684,0
-1.1199324,-1.7714671,-3.2917399,-0.33554217,-0.53737581,-0.7737174,0
0.34201384,4.4921613,2.0311279,0.33554217,0.53737581,0.7737174,0
3.3640416,-2.4845142,0.34856799,0.88743514,0.095217109,-0.45099065,0
2.2893457,-2.182447,3.399369,0.31602252,-0.83795041,0.44493684,0
-2.3184588,4.5438957,1.4674671,-0.31602252,0.83795041,-0.44493684,0
-2.6969774,0.81092155,-4.54492,-0.33554217,-0.53737581,-0.7737174,0
3.0177348,0.62887573,0.20565248,0.88743514,0.095217109,-0.45099065,0
1.4680722,-3.754648,0.91213107,0.31602252,-0.83795041,0.44493684,0
2.1653645,-3.9912696,-2.0826361,0.88743514,0.095217109,-0.45099065,0
-0.27440143,-5.0323238,-0.19435501,0.31602252,-0.83795041,0.44493684,0
3.8915558,-0.061912775,3.7258375,0.33554217,0.53737581,0.7737174,0
1.5782368,1.6791587,3.3717155,0.33554217,0.53737581,0.7737174,0
1.7492604,-4.3040104,-3.0164046,-0.33554217,-0.53737581,-0.7737174,0
2.0708637,-4.1374288,-0.60115719,0.31602252,-0.83795041,0.44493684,0
2.0041394,0.5281713,-1.908643,0.88743514,0.095217109,-0.45099065,0
0.82088327,0.4851228,4.4959822,0.33554217,0.53737581,0.7737174,0
1.8375689,-2.5727513,-2.7722399,0.88743514,0.095217109,-0.45099065,0
-3.7293048,0.19363713,-3.8335066,-0.33554217,-0.53737581,-0.7737174,0
0.99114227,-3.9587646,0.6270569,0.31602252,-0.83795041,0.44493684,0
-3.3701186,2.9481974,-1.0652124,-0.31602252,0.83795041,-0.44493684,0
-4.321229,1.4347258,-2.3958304,-0.88743514,-0.095217109,0.45099065,0
2.904449,2.232615,0.62957954,0.88743514,0.095217109,-0.45099065,0
2.0277636,4.6019316,1.1335258,0.33554217,0.53737581,0.7737174,0
1.9984572,-4.2034206,-2.7990036,0.88743514,0.095217109,-0.45099065,0
1.5333207,2.2547562,-1.8766121,0.88743514,0.095217109,-0.45099065,0
0.057476997,2.0043843,-5.4232121,0.88743514,0.095217109,-0.45099065,0
-2.4533801,-1.5742128,0.17752969,-0.88743514,-0.095217109,0.45099065,0
-2.2233818,-4.9178834,-0.6384201,-0.33554217,-0.53737581,-0.7737174,0
4.1800699,-2.4026277,1.8986025,0.31602252,-0.83795041,0.44493684,0
-0.46380138,0.93298471,-5.4841747,-0.33554217,-0.53737581,-0.7737174,0
-2.3271976,-2.8829002,-2.0068681,-0.33554217,-0.53737581,-0.7737174,0
2.5436897,-3.6123433,0.30282331,0.31602252,-0.83795041,0.44493684,0
-2.0210752,-0.34341812,1.8705473,-0.88743514,-0.095217109,0.45099065,0
-0.26388621,-0.7411468,5.1288834,-0.88743514,-0.095217109,0.45099065,0
3.01106,3.3921576,1.5917544,0.33554217,0.53737581,0.7737174,0
-2.5741405,2.3840642,-3.0940795,-0.31602252,0.83795041,-0.44493684,0
-3.9669662,2.1387792,-2.4061975,-0.31602252,0.83795041,-0.44493684,0
-2.549355,1.8669078,-3.7393346,-0.31602252,0.83795041,-0.44493684,0
-2.9151464,-3.0730047,-1.6456785,-0.33554217,-0.53737581,-0.7737174,0
1.6887263,-2.6581683,-3.0465486,0.88743514,0.095217109,-0.45099065,0
0.39561319,-4.7632246,-0.56657004,0.31602252,-0.83795041,0.44493684,0
-3.8697412,-1.2139727,-2.7357349,-0.33554217,-0.53737581,-0.7737174,0
-0.80509073,2.7594585,3.6513281,0.33554217,0.53737581,0.7737174,0
1.6462635,4.8508158,1.0670013,0.33554217,0.53737581,0.7737174,0
0.02775383,-4.7902837,-0.36891508,0.31602252,-0.83795041,0.44493684,0
1.4021006,-2.21281,4.1634626,0.31602252,-0.83795041,0.44493684,0
-0.4499402,4.9159904,1.7832417,0.33554217,0.53737581,0.7737174,0
2.4969516,-0.13111377,-0.32484642,0.88743514,0.095217109,-0.45099065,0
0.72825539,3.8645098,2.3564558,0.33554217,0.53737581,0.7737174,0
1.9276552,1.4671527,3.1342402,0.33554217,0.53737581,0.7737174,0
2.9844954,1.802808,0.5556426,0.88743514,0.095217109,-0.45099065,0
-2.427434,2.2904725,0.84551167,-0.88743514,-0.095217109,0.45099065,0
0.89583254,4.8599491,-0.57916903,-0.31602252,0.83795041,-0.44493684,0
-2.259475,4.9628372,1.7535527,-0.31602252,0.83795041,-0.44493684,0
1.5259268,-5.0677433,-1.6173985,0.31602252,-0.83795041,0.44493684,0
0.65730214,-4.4041271,0.20044136,0.31602252,-0.83795041,0.44493684,0
2.0970769,3.6140826,-0.38058853,0.88743514,0.095217109,-0.45099065,0
-0.3392179,-5.4950809,-0.93751478,0.31602252,-0.83795041,0.44493684,0
0.50464463,-3.813005,-2.9599643,-0.33554217,-0.53737581,-0.7737174,0
-3.7352965,0.8876543,-1.4537555,-0.88743514,-0.095217109,0.45099065,0
1.5770922,0.7084384,-1.999162,0.88743514,0.095217109,-0.45099065,0
0.15378666,-2.2695553,4.3261104,0.31602252,-0.83795041,0.44493684,0
-2.9886672,-1.5535781,-0.9164753,-0.88743514,-0.095217109,0.45099065,0
-0.53939331,1.3644347,4.7141137,0.33554217,0.53737581,0.7737174,0
-0.036025047,-4.9228206,0.13092566,0.31602252,-0.83795041,0.44493684,0
-0.034068108,2.3025188,-4.8240662,0.88743514,0.095217109,-0.45099065,0
-1.6422091,3.2920091,2.9508171,-0.88743514,-0.095217109,0.45099065,0
0.29987383,-5.1978207,-1.1123412,0.31602252,-0.83795041,0.44493684,0
0.61203504,-0.3370682,5.2698956,0.33554217,0.53737581,0.7737174,0
1.2353308,4.5608473,1.6139779,0.33554217,0.53737581,0.7737174,0
4.207839,-1.3593071,2.152313,0.88743514,0.095217109,-0.45099065,0
-2.4885473,4.518117,1.7125747,-0.88743514,-0.095217109,0.45099065,0
3.7662077,-0.78703284,1.4411645,0.88743514,0.095217109,-0.45099065,0
1.9487429,-3.452502,-2.573616,0.88743514,0.095217109,-0.45099065,0
-0.62908506,-1.9952314,3.9841077,-0.88743514,-0.095217109,0.45099065,0
-3.2142189,0.074594021,-3.6365502,-0.33554217,-0.53737581,-0.7737174,0
-2.3431337,-4.1665154,-1.25597,-0.33554217,-0.53737581,-0.7737174,0
3.050689,0.092555285,3.7992506,0.33554217,0.53737581,0.7737174,0
2.5938969,-2.4851158,-1.1025914,0.88743514,0.095217109,-0.45099065,0
-1.692452,-0.77580786,1.8479121,-0.88743514,-0.095217109,0.45099065,0
-0.3227452,-3.6806788,-2.5709505,-0.33554217,-0.53737581,-0.7737174,0
3.9738281,0.42448318,3.1953301,0.33554217,0.53737581,0.7737174,0
-2.3400106,-0.9480077,0.58936357,-0.88743514,-0.095217109,0.45099065,0
1.5872152,0.7005043,-2.2648501,0.88743514,0.095217109,-0.45099065,0
-1.4268272,-0.11427972,-4.4087987,-0.33554217,-0.53737581,-0.7737174,0
2.4006515,-2.5162411,-1.1596717,0.88743514,0.095217109,-0.45099065,0
1.1105353,-1.6142664,-4.0157776,0.88743514,0.095217109,-0.45099065,0
-1.6025505,1.6697918,-4.7086701,-0.31602252,0.83795041,-0.44493684,0
-1.7789927,-4.3920708,-1.4490404,-0.33554217,-0.53737581,-0.7737174,0
1.2883976,2.342561,-2.274905,0.88743514,0.095217109,-0.45099065,0
-0.33643627,5.2399487,1.0935826,-0.31602252,0.83795041,-0.44493684,0
-0.73249817,0.37072098,-5.2219806,-0.33554217,-0.53737581,-0.7737174,0
-1.2755523,-1.5697299,2.4836254,-0.88743514,-0.095217109,0.45099065,0
-0.53180957,-0.86054492,-4.4192796,-0.33554217,-0.53737581,-0.7737174,0
-1.0651808,-3.0519824,2.7617362,-0.88743514,-0.095217109,0.45099065,0
0.2313273,1.3568202,4.1379547,0.33554217,0.53737581,0.7737174,0
3.3115513,-1.1720109,0.80786318,0.88743514,0.095217109,-0.45099065,0
-1.8647527,-5.4091759,-0.15250778,0.31602252,-0.83795041,0.44493684,0
-0.027201056,3.8456964,2.4505372,0.33554217,0.53737581,0.7737174,0
-1.7533342,-3.2123985,1.2342279,-0.88743514,-0.095217109,0.45099065,0
-0.7581625,-4.2154245,1.8358986,0.31602252,-0.83795041,0.44493684,0
0.11566877,-4.5938644,0.65472293,0.31602252,-0.83795041,0.44493684,0
-2.6406314,-2.3824084,-2.5614362,-0.33554217,-0.53737581,-0.7737174,0
1.3263862,1.1834751,-3.1011801,0.88743514,0.095217109,-0.45099065,0
2.3582537,4.6044445,0.86977172,0.33554217,0.53737581,0.7737174,0
-0.40153885,-4.4156404,0.56410527,0.31602252,-0.83795041,0.44493684,0
-2.308701,-3.3668845,0.48444343,-0.88743514,-0.095217109,0.45099065,0
-0.28555059,-2.8235064,3.7324467,0.31602252,-0.83795041,0.44493684,0
0.26260424,-2.9862916,3.4670167,0.31602252,-0.83795041,0.44493684,0
-1.3661919,4.72053,0.50311947,-0.31602252,0.83795041,-0.44493684,0
1.2653193,0.61295569,-3.0406997,0.88743514,0.095217109,-0.45099065,0
-1.2376325,-2.5617568,2.6582725,-0.88743514,-0.095217109,0.45099065,0
-0.59215593,2.3600931,-4.2328415,-0.31602252,0.83795041,-0.44493684,0
-4.0057969,2.4268985,-1.677876,-0.31602252,0.83795041,-0.44493684,0
1.2055898,-4.3953443,-2.5261831,-0.33554217,-0.53737581,-0.7737174,0
-1.819313,1.3016623,-5.047276,-0.31602252,0.83795041,-0.44493684,0
1.0366831,-4.0998936,0.11416316,0.31602252,-0.83795041,0.44493684,0
-2.9584084,1.3305316,-4.3607998,-0.31602252,0.83795041,-0.44493684,0
3.1147439,-1.3436351,-0.002850838,0.88743514,0.095217109,-0.45099065,0
2.0627136,4.0681434,1.2671826,0.33554217,0.53737581,0.7737174,0
-1.336345,-2.1599669,-3.0509033,-0.33554217,-0.53737581,-0.7737174,0
1.4661765,-1.3870389,5.1314707,0.31602252,-0.83795041,0.44493684,0
-2.6481466,1.0151279,-4.703105,-0.33554217,-0.53737581,-0.7737174,0
-2.2603478,2.5802069,-2.7211099,-0.31602252,0.83795041,-0.44493684,0
3.2067919,-0.22216439,0.75622749,0.88743514,0.095217109,-0.45099065,0
-0.39157581,2.3966751,-4.1838102,-0.31602252,0.83795041,-0.44493684,0
3.6069198,0.87539852,3.212275,0.33554217,0.53737581,0.7737174,0
-1.7922873,4.0462427,2.725852,-0.88743514,-0.095217109,0.45099065,0
-0.47282362,1.8085356,-5.4305902,-0.31602252,0.83795041,-0.44493684,0
3.8122029,-2.2918706,1.7717229,0.88743514,0.095217109,-0.45099065,0
-3.0948353,2.5312624,-2.0820365,-0.31602252,0.83795041,-0.44493684,0
3.005121,2.4248972,0.85679698,0.88743514,0.095217109,-0.45099065,0
-2.073802,1.2309737,-4.8007689,-0.31602252,0.83795041,-0.44493684,0
2.5377221,0.20959359,4.0783606,0.33554217,0.53737581,0.7737174,0
1.0372572,-0.35251302,5.0300884,0.33554217,0.53737581,0.7737174,0
1.5157614,2.00229,3.2738924,0.33554217,0.53737581,0.7737174,0
-2.1495719,-3.8194613,0.87654531,-0.88743514,-0.095217109,0.45099065,0
4.1555424,-0.34180403,3.8154039,0.33554217,0.53737581,0.7737174,0
-0.14303732,3.3359013,3.0737376,0.33554217,0.53737581,0.7737174,0
0.42031437,2.4809241,3.5205431,0.33554217,0.53737581,0.7737174,0
0.77874708,3.8760681,2.1190042,0.33554217,0.53737581,0.7737174,0
-0.18859005,2.7266984,-3.9489288,-0.31602252,0.83795041,-0.44493684,0
0.66644967,-2.4570799,-3.5108602,-0.33554217,-0.53737581,-0.7737174,0
-1.5238938,2.3235402,-3.3996296,-0.31602252,0.83795041,-0.44493684,0
0.34877568,3.0588379,2.8329244,0.33554217,0.53737581,0.7737174,0
0.23993373,3.520587,2.7561836,0.33554217,0.53737581,0.7737174,0
-0.23037831,1.8617928,4.1151505,0.33554217,0.53737581,0.7737174,0
2.4094439,0.67359006,3.7748339,0.33554217,0.53737581,0.7737174,0
-2.8808277,1.6866225,-3.3217683,-0.31602252,0.83795041,-0.44493684,0
-1.4576256,-2.1079774,2.6055939,-0.88743514,-0.095217109,0.45099065,0
0.76165056,2.6860492,-3.3150845,0.88743514,0.095217109,-0.45099065,0
-1.6862826,-2.4961593,1.4123702,-0.88743514,-0.095217109,0.45099065,0
-1.485687,4.9863276,1.525934,-0.31602252,0.83795041,-0.44493684,0
-1.1936727,-0.46191752,-4.229207,-0.33554217,-0.53737581,-0.7737174,0
1.2438047,2.7496409,2.6764774,0.33554217,0.53737581,0.7737174,0
-1.3685838,-1.5408334,-3.6890316,-0.33554217,-0.53737581,-0.7737174,0
0.16172433,0.15502644,4.7857223,0.33554217,0.53737581,0.7737174,0
-0.0042843819,5.2277851,0.51645994,-0.31602252,0.83795041,-0.44493684,0
2.6965048,-2.0926676,2.8132272,0.31602252,-0.83795041,0.44493684,0
-1.5051951,3.0256994,-2.3735247,-0.31602252,0.83795041,-0.44493684,0
-0.40366626,0.8813014,-5.7536798,-0.33554217,-0.53737581,-0.7737174,0
-1.1287806,2.5267336,3.7530785,0.33554217,0.53737581,0.7737174,0
-1.6676039,-0.56580031,2.3691044,-0.88743514,-0.095217109,0.45099065,0
-1.1017025,1.2319229,3.7991176,-0.88743514,-0.095217109,0.45099065,0
1.3276633,-1.4590449,-2.9216371,0.88743514,0.095217109,-0.45099065,0
-3.2857001,-3.0199831,-1.4991946,-0.33554217,-0.53737581,-0.7737174,0
-0.55404997,2.1728737,-4.3342452,-0.31602252,0.83795041,-0.44493684,0
3.3068309,-0.037920475,3.5124545,0.33554217,0.53737581,0.7737174,0
-2.6898465,3.5505109,-0.83319694,-0.31602252,0.83795041,-0.44493684,0
3.5929046,-0.36744404,1.5318776,0.88743514,0.095217109,-0.45099065,0
0.33189702,1.8621129,-4.465703,0.88743514,0.095217109,-0.45099065,0
1.602195,-4.5005493,-0.44130135,0.31602252,-0.83795041,0.44493684,0
-0.42899096,-4.2501755,-1.9774742,-0.33554217,-0.53737581,-0.7737174,0
-1.1135979,3.3580766,-2.1756523,-0.31602252,0.83795041,-0.44493684,0
0.094480991,3.5777252,-2.6108229,-0.31602252,0.83795041,-0.44493684,0
3.3886235,1.0090263,3.1024303,0.33554217,0.53737581,0.7737174,0
-2.1372952,-5.2239866,-0.43652821,-0.33554217,-0.53737581,-0.7737174,0
-0.41092539,-2.7799497,3.9970117,0.31602252,-0.83795041,0.44493684,0
0.9647733,4.4259796,1.872551,0.33554217,0.53737581,0.7737174,0
-3.0589542,-4.2121925,-0.98638344,-0.88743514,-0.095217109,0.45099065,0
3.2139959,-0.24282813,0.9598248,0.88743514,0.095217109,-0.45099065,0
2.23663,-3.6241024,-2.2411644,0.88743514,0.095217109,-0.45099065,0
3.7518144,-1.994138,2.2805896,0.31602252,-0.83795041,0.44493684,0
-1.8243766,-0.64699054,1.4417036,-0.88743514,-0.095217109,0.45099065,0
0.65414202,3.1616759,2.7029338,0.33554217,0.53737581,0.7737174,0
2.8237355,-4.1744733,-1.1328456,0.31602252,-0.83795041,0.44493684,0
0.89637804,-1.9081064,4.7659616,0.31602252,-0.83795041,0.44493684,0
2.3111212,-4.8811359,-2.2651436,0.31602252,-0.83795041,0.44493684,0
0.83526015,-5.0267124,-0.7485373,0.31602252,-0.83795041,0.44493684,0
-0.79184484,3.7582686,-1.5286303,-0.31602252,0.83795041,-0.44493684,0
0.085965037,3.1013031,3.1128359,0.33554217,0.53737581,0.7737174,0
-0.66097713,-3.527698,3.2090452,0.31602252,-0.83795041,0.44493684,0
-3.6966033,1.0979483,-3.8880665,-0.31602252,0.83795041,-0.44493684,0
-2.686265,2.4467378,0.33573127,-0.88743514,-0.095217109,0.45099065,0
-2.4593887,-3.6478164,-1.4133852,-0.33554217,-0.53737581,-0.7737174,0
-3.6959176,1.7268174,-2.8187954,-0.31602252,0.83795041,-0.44493684,0
1.370064,4.6257515,-1.4787072,0.88743514,0.095217109,-0.45099065,0
-2.6988504,-4.598299,-0.66349721,-0.33554217,-0.53737581,-0.7737174,0
-1.6883885,2.9558301,3.2781675,-0.88743514,-0.095217109,0.45099065,0
-0.83032537,-2.062809,3.3015478,-0.88743514,-0.095217109,0.45099065,0
1.5892806,-3.3982978,1.4580092,0.31602252,-0.83795041,0.44493684,0
-1.3818953,-3.1633341,1.7145424,-0.88743514,-0.095217109,0.45099065,0
0.70363247,1.0884212,-3.9545243,0.88743514,0.095217109,-0.45099065,0
3.4880924,-1.0878037,4.3169413,0.33554217,0.53737581,0.7737174,0
-0.17908692,-4.7789412,0.089190006,0.31602252,-0.83795041,0.44493684,0
-0.32892203,5.0357623,0.81935525,-0.31602252,0.83795041,-0.44493684,0
0.33885086,-0.20166397,-5.1383901,0.88743514,0.095217109,-0.45099065,0
1.4694513,-0.82095504,-2.6687641,0.88743514,0.095217109,-0.45099065,0
3.0774426,0.10618305,0.584185,0.88743514,0.095217109,-0.45099065,0
-2.8757315,-0.022826433,0.19498765,-0.88743514,-0.095217109,0.45099065,0
-2.1279666,-5.4312944,-0.022005081,0.31602252,-0.83795041,0.44493684,0
-2.2811685,2.5466421,-2.6819987,-0.31602252,0.83795041,-0.44493684,0
1.5457281,-3.2883103,-3.0424423,0.88743514,0.095217109,-0.45099065,0
2.0257444,-0.87491727,-1.3981905,0.88743514,0.095217109,-0.45099065,0
-2.7864776,-0.8149159,-0.34329498,-0.88743514,-0.095217109,0.45099065,0
-2.1829348,1.7485608,-3.8757467,-0.31602252,0.83795041,-0.44493684,0
0.28960681,2.7511907,-4.30831,-0.31602252,0.83795041,-0.44493684,0
-2.7141745,-4.4787302,-0.78653121,-0.88743514,-0.095217109,0.45099065,0
2.3132746,-2.921761,-1.3036308,0.88743514,0.095217109,-0.45099065,0
-1.6165113,-0.16298699,2.5791564,-0.88743514,-0.095217109,0.45099065,0
-0.77896172,-2.276721,-3.4858403,-0.33554217,-0.53737581,-0.7737174,0
0.26740718,0.52183497,-5.0372772,0.88743514,0.095217109,-0.45099065,0
-3.9712384,1.4404752,-1.6393763,-0.88743514,-0.095217109,0.45099065,0
-2.4183092,0.69714999,0.68772471,-0.88743514,-0.095217109,0.45099065,0
-1.8447144,5.2656088,2.4481716,0.33554217,0.53737581,0.7737174,0
-1.375515,2.3915501,-3.2820089,-0.31602252,0.83795041,-0.44493684,0
0.25616646,-2.534893,4.356945,0.31602252,-0.83795041,0.44493684,0
1.2104175,5.4400892,0.6568327,0.33554217,0.53737581,0.7737174,0
0.40686393,5.0612469,1.5718045,0.33554217,0.53737581,0.7737174,0
0.74755716,1.9988525,3.6157732,0.33554217,0.53737581,0.7737174,0
1.2500846,-0.15915203,-3.4336956,0.88743514,0.095217109,-0.45099065,0
-2.3296127,4.6889396,1.5599139,-0.31602252,0.83795041,-0.44493684,0
0.53179073,1.5384204,-4.0011911,0.88743514,0.095217109,-0.45099065,0
0.18906116,-1.3970731,5.8770237,-0.88743514,-0.095217109,0.45099065,0
2.7812285,-4.1987009,-1.3045282,0.88743514,0.095217109,-0.45099065,0
1.4055946,4.0992312,-1.9551959,-0.31602252,0.83795041,-0.44493684,0
-2.8967183,3.9554365,0.74439573,-0.88743514,-0.095217109,0.45099065,0
2.0459423,2.3776798,-1.2729281,0.88743514,0.095217109,-0.45099065,0
-3.6042247,0.77417874,-1.194586,-0.88743514,-0.095217109,0.45099065,0
-2.5364575,-4.9058752,-0.27682972,-0.88743514,-0.095217109,0.45099065,0
-1.5402646,1.92117,-4.0133677,-0.31602252,0.83795041,-0.44493684,0
0.64844704,5.2801051,1.4639988,0.33554217,0.53737581,0.7737174,0
-2.5621247,-2.5214458,0.24341989,-0.88743514,-0.095217109,0.45099065,0
-2.5146761,4.1253862,0.17011106,-0.31602252,0.83795041,-0.44493684,0
1.7234026,-1.1720483,-2.4054604,0.88743514,0.095217109,-0.45099065,0
-0.51753938,-3.1372788,-2.6853099,-0.33554217,-0.53737581,-0.7737174,0
1.6465189,4.4731455,-1.5333872,0.88743514,0.095217109,-0.45099065,0
-4.0474777,1.0879967,-2.1613486,-0.88743514,-0.095217109,0.45099065,0
-1.7524731,2.5886219,2.5074434,-0.88743514,-0.095217109,0.45099065,0
2.2967346,2.3112171,2.7075801,0.33554217,0.53737581,0.7737174,0
0.6697619,4.9288769,1.6501746,0.33554217,0.53737581,0.7737174,0
-3.1069121,-2.8895996,-1.9716568,-0.33554217,-0.53737581,-0.7737174,0
-3.4337587,0.61476231,-0.82250619,-0.88743514,-0.095217109,0.45099065,0
1.1290958,-4.1291575,-2.8059769,-0.33554217,-0.53737581,-0.7737174,0
-0.39657378,5.3361211,1.4895577,-0.31602252,0.83795041,-0.44493684,0
2.9704456,1.533671,0.44627094,0.88743514,0.095217109,-0.45099065,0
4.5374627,0.50939012,3.0511599,0.88743514,0.095217109,-0.45099065,0
1.8095989,-2.3843768,-2.4156904,0.88743514,0.095217109,-0.45099065,0
-0.19551849,4.6333752,-0.49721706,-0.31602252,0.83795041,-0.44493684,0
-3.0347993,-2.3010404,-2.0127273,-0.33554217,-0.53737581,-0.7737174,0
-1.8090534,2.897898,-1.7983018,-0.31602252,0.83795041,-0.44493684,0
-0.0020952225,3.6039362,-2.2804456,-0.31602252,0.83795041,-0.44493684,0
0.19856167,-3.0062909,-3.0092113,-0.33554217,-0.53737581,-0.7737174,0
0.26395965,-3.6237035,-2.8413672,-0.33554217,-0.53737581,-0.7737174,0
-0.77405936,2.616441,3.449029,0.33554217,0.53737581,0.7737174,0
-2.7501163,-0.054399192,-4.1415434,-0.33554217,-0.53737581,-0.7737174,0
0.19999695,-4.160532,0.63813412,0.31602252,-0.83795041,0.44493684,0
-3.1766152,-1.1290202,-2.9684899,-0.33554217,-0.53737581,-0.7737174,0
-1.1623275,-0.62451315,-4.4103103,-0.33554217,-0.53737581,-0.7737174,0
3.515516,-2.5962682,0.73821908,0.88743514,0.095217109,-0.45099065,0
-1.0982643,-4.2578559,-1.596056,-0.33554217,-0.53737581,-0.7737174,0
1.0189149,1.6385661,-3.38867,0.88743514,0.095217109,-0.45099065,0
-2.7814927,3.7872751,-0.21347761,-0.31602252,0.83795041,-0.44493684,0
-0.16694975,4.2938967,-1.2068259,-0.31602252,0.83795041,-0.44493684,0
0.35744882,-5.0343828,-0.53695035,0.31602252,-0.83795041,0.44493684,0
-0.077802181,-4.2225237,1.3846849,0.31602252,-0.83795041,0.44493684,0
-3.4122996,-1.1878791,-1.3383484,-0.88743514,-0.095217109,0.45099065,0
2.9522357,-3.66154,-0.89430737,0.88743514,0.095217109,-0.45099065,0
-0.25564671,-4.0801282,1.9099131,0.31602252,-0.83795041,0.44493684,0
-2.1148906,-5.0595732,0.50773382,-0.88743514,-0.095217109,0.45099065,0
-1.4779555,-3.2391078,2.1696899,-0.88743514,-0.095217109,0.45099065,0
1.5387595,-3.9194312,0.24716485,0.31602252,-0.83795041,0.44493684,0
-0.27406144,4.7128468,0.48126149,-0.31602252,0.83795041,-0.44493684,0
3.0059605,-0.094470501,0.46775579,0.88743514,0.095217109,-0.45099065,0
2.46942,-1.6067796,-0.58163762,0.88743514,0.095217109,-0.45099065,0
-1.1267867,-5.0597458,0.0073561668,0.31602252,-0.83795041,0.44493684,0
1.2222533,-4.7365627,-2.4323516,-0.33554217,-0.53737581,-0.7737174,0
-1.2221112,5.3248482,1.6056087,-0.31602252,0.83795041,-0.44493684,0
-3.1432247,1.1078476,-4.4666204,-0.31602252,0.83795041,-0.44493684,0
3.0842674,-3.6839654,-0.0025131702,0.31602252,-0.83795041,0.44493684,0
2.5848892,-4.6635909,-1.7151127,0.88743514,0.095217109,-0.45099065,0
3.1142936,-1.6848867,4.0094104,0.31602252,-0.83795041,0.44493684,0
2.0172603,4.2761068,-0.88922238,0.88743514,0.095217109,-0.45099065,0
-0.10069323,-0.86541378,-4.684576,-0.33554217,-0.53737581,-0.7737174,0
1.6103041,-4.4586792,-0.33008504,0.31602252,-0.83795041,0.44493684,0
-0.077912569,-3.8828111,1.539046,0.31602252,-0.83795041,0.44493684,0
0.25912404,5.2172627,0.40726328,-0.31602252,0.83795041,-0.44493684,0
1.0887394,0.5607776,4.5618758,0.33554217,0.53737581,0.7737174,0
-0.86371136,-4.4541554,1.3799037,0.31602252,-0.83795041,0.44493684,0
-0.56296015,-3.0728784,3.2573085,0.31602252,-0.83795041,0.44493684,0
2.4215746,-3.2428124,-1.8191998,0.88743514,0.095217109,-0.45099065,0
2.2226524,3.0147877,2.1562705,0.33554217,0.53737581,0.7737174,0
2.8988533,-0.54334778,4.2809744,0.33554217,0.53737581,0.7737174,0
-2.5641432,-0.60427105,0.079564095,-0.88743514,-0.095217109,0.45099065,0
-1.1947901,4.8731642,2.323473,0.33554217,0.53737581,0.7737174,0
-2.162961,-2.1823049,0.90615034,-0.88743514,-0.095217109,0.45099065,0
1.6441174,4.9864998,-0.57419538,-0.31602252,0.83795041,-0.44493684,0
1.223242,-3.9509017,0.81113774,0.31602252,-0.83795041,0.44493684,0
0.33129263,-2.0758235,4.8151407,0.31602252,-0.83795041,0.44493684,0
3.1283712,3.0363433,1.5484254,0.33554217,0.53737581,0.7737174,0
4.086628,-0.34426355,2.4283662,0.88743514,0.095217109,-0.45099065,0
-0.79364061,-3.2896972,3.2977099,0.31602252,-0.83795041,0.44493684,0
2.8459415,-1.0641607,4.7476683,0.33554217,0.53737581,0.7737174,0
-1.1772679,-1.5927365,2.6584659,-0.88743514,-0.095217109,0.45099065,0
3.6958623,1.5415521,2.4425175,0.33554217,0.53737581,0.7737174,0
-2.6364202,2.2282429,-2.8932028,-0.31602252,0.83795041,-0.44493684,0
-2.8514068,-1.3478402,-3.0311031,-0.33554217,-0.53737581,-0.7737174,0
1.9725417,0.5840404,3.6902471,0.33554217,0.53737581,0.7737174,0
0.097839057,1.413336,3.9326193,0.33554217,0.53737581,0.7737174,0
-0.46074057,4.1932964,-0.49661291,-0.31602252,0.83795041,-0.44493684,0
0.62440825,-4.4385457,0.13505459,0.31602252,-0.83795041,0.44493684,0
0.86411095,4.9607115,1.1631131,0.33554217,0.53737581,0.7737174,0
2.4127076,4.1769814,-0.28421068,0.88743514,0.095217109,-0.45099065,0
-0.60222751,-3.4090462,-2.5803018,-0.33554217,-0.53737581,-0.7737174,0
-1.0032282,4.826386,0.82939434,-0.31602252,0.83795041,-0.44493684,0
0.26749933,-3.0527651,-3.2687492,-0.33554217,-0.53737581,-0.7737174,0
-0.53899717,2.9019003,-3.0074973,-0.31602252,0.83795041,-0.44493684,0
1.3354192,-2.1705747,-3.4853172,0.88743514,0.095217109,-0.45099065,0
-3.6314015,-0.70376539,-2.9917483,-0.33554217,-0.53737581,-0.7737174,0
2.6807313,-1.897181,-0.85068953,0.88743514,0.095217109,-0.45099065,0
