-2.4358351,2.2581024,1.5326726,-0.20245445,0.85671651,0.47439373,0
3.4250727,-2.6607704,1.1287117,0.33054268,-0.39621472,0.85659564,0
1.2459469,2.3568859,-2.5977325,0.92182112,0.33022857,-0.20296597,0
-2.4892511,-2.6417649,-2.3186307,-0.92182112,-0.33022857,0.20296597,0
-3.2744417,1.8170605,-1.4253883,-0.33054268,0.39621472,-0.85659564,0
1.8080606,-0.14450018,2.906173,0.33054268,-0.39621472,0.85659564,0
-0.80302227,-4.0577502,0.33266616,0.20245445,-0.85671651,-0.47439373,0
-1.7733607,0.21274114,3.8653991,-0.92182112,-0.33022857,0.20296597,0
1.910105,2.8029394,0.8281889,0.92182112,0.33022857,-0.20296597,0
-1.5735769,-2.0764241,1.4277976,-0.92182112,-0.33022857,0.20296597,0
0.15635914,-3.1906233,1.8166401,0.33054268,-0.39621472,0.85659564,0
2.7810125,-0.53630948,2.1771226,0.33054268,-0.39621472,0.85659564,0
-2.6760199,0.49570751,1.8853993,-0.92182112,-0.33022857,0.20296597,0
-1.6548461,-1.5317093,1.7761416,-0.92182112,-0.33022857,0.20296597,0
-2.9871099,1.2325864,-1.9151411,-0.33054268,0.39621472,-0.85659564,0
3.7645631,-2.8920422,0.80042982,0.33054268,-0.39621472,0.85659564,0
0.27241957,1.6856086,-2.7889264,-0.33054268,0.39621472,-0.85659564,0
-1.8442924,1.2156267,3.1068769,-0.20245445,0.85671651,0.47439373,0
1.426303,3.3311193,-1.1194927,0.92182112,0.33022857,-0.20296597,0
2.9340227,-0.64495337,0.73833203,0.92182112,0.33022857,-0.20296597,0
-2.9009676,-0.65150511,-0.97851801,-0.92182112,-0.33022857,0.20296597,0
-1.0428402,0.80468172,-2.7422981,-0.33054268,0.39621472,-0.85659564,0
-0.78904009,2.9848766,0.33186877,-0.20245445,0.85671651,0.47439373,0
2.2178364,-2.1293635,1.6160803,0.33054268,-0.39621472,0.85659564,0
1.0580913,1.7261451,-2.9073699,-0.33054268,0.39621472,-0.85659564,0
-2.1729155,-0.6437391,0.56073576,-0.92182112,-0.33022857,0.20296597,0
2.7295225,0.34336096,2.5271864,0.33054268,-0.39621472,0.85659564,0
3.3171942,-2.166491,-0.32349658,0.92182112,0.33022857,-0.20296597,0
2.1791506,-2.9331281,0.067237139,0.20245445,-0.85671651,-0.47439373,0
1.5577393,3.1693306,-0.80921531,0.92182112,0.33022857,-0.20296597,0
-2.3259687,-0.64817405,1.5967318,-0.92182112,-0.33022857,0.20296597,0
3.0562696,-1.0281552,2.0423193,0.33054268,-0.39621472,0.85659564,0
-2.5890908,1.2001283,-1.9185684,-0.33054268,0.39621472,-0.85659564,0
-2.6144006,1.1097889,-1.8380077,-0.33054268,0.39621472,-0.85659564,0
0.86415362,1.6730567,3.4087963,-0.20245445,0.85671651,0.47439373,0
-1.7351575,-2.5057368,-0.56455892,-0.92182112,-0.33022857,0.20296597,0
1.5114343,0.93469024,-3.5322206,-0.33054268,0.39621472,-0.85659564,0
1.5657711,1.9724963,-2.3147101,0.92182112,0.33022857,-0.20296597,0
-3.0539758,1.7490091,-1.4981136,-0.33054268,0.39621472,-0.85659564,0
0.12845325,1.6748505,3.5579157,-0.20245445,0.85671651,0.47439373,0
-1.2328637,-1.1091509,3.6743686,0.33054268,-0.39621472,0.85659564,0
-2.4572148,0.4563024,2.0431538,-0.92182112,-0.33022857,0.20296597,0
0.99247408,-3.162879,1.8435299,0.33054268,-0.39621472,0.85659564,0
2.8064303,-1.3830214,1.6219234,0.33054268,-0.39621472,0.85659564,0
2.5295568,0.40710509,0.28916407,0.92182112,0.33022857,-0.20296597,0
1.2892455,3.2625804,-0.3471508,0.92182112,0.33022857,-0.20296597,0
-2.8760357,0.97373509,0.8367523,-0.92182112,-0.33022857,0.20296597,0
0.96267986,-3.5274949,0.69609427,0.20245445,-0.85671651,-0.47439373,0
-1.2757779,1.6210917,-2.179498,-0.33054268,0.39621472,-0.85659564,0
1.0571668,-0.55301929,-3.9900682,-0.33054268,0.39621472,-0.85659564,0
3.6592927,-2.8094478,0.61209631,0.92182112,0.33022857,-0.20296597,0
-2.7480888,-1.5107359,-2.7472808,-0.92182112,-0.33022857,0.20296597,0
2.4309011,1.3466414,3.3601096,0.33054268,-0.39621472,0.85659564,0
-2.9555688,0.14618897,-0.45477509,-0.92182112,-0.33022857,0.20296597,0
1.4973483,-0.96869469,-3.6537747,0.20245445,-0.85671651,-0.47439373,0
0.80048966,2.074789,-3.0832031,-0.33054268,0.39621472,-0.85659564,0
-0.64485431,-2.5667806,2.4726033,0.33054268,-0.39621472,0.85659564,0
-1.5164498,-3.0767498,-1.4751008,0.20245445,-0.85671651,-0.47439373,0
-2.1929703,2.9953885,-0.21108437,-0.20245445,0.85671651,0.47439373,0
3.4579158,-2.8753247,0.70190144,0.20245445,-0.85671651,-0.47439373,0
-2.0212684,-0.27355385,2.3005965,-0.92182112,-0.33022857,0.20296597,0
1.4866495,3.4349344,-0.84418726,0.92182112,0.33022857,-0.20296597,0
1.5653613,-3.6725271,0.73702288,0.20245445,-0.85671651,-0.47439373,0
0.97976804,-1.4305539,2.5160851,0.33054268,-0.39621472,0.85659564,0
-2.1196983,0.28958917,2.678184,-0.92182112,-0.33022857,0.20296597,0
1.73862,1.776261,-1.2911788,0.92182112,0.33022857,-0.20296597,0
3.0717182,-1.545728,-0.0516541,0.92182112,0.33022857,-0.20296597,0
1.8387358,2.3672752,-0.91595232,0.92182112,0.33022857,-0.20296597,0
-1.2518719,-2.2454336,2.3799515,-0.92182112,-0.33022857,0.20296597,0
2.440104,0.22101283,-1.6636415,0.92182112,0.33022857,-0.20296597,0
-2.7381377,-1.3508003,-2.7263327,-0.92182112,-0.33022857,0.20296597,0
-0.230726,2.7023654,1.2816777,-0.20245445,0.85671651,0.47439373,0
2.4108939,1.9401398,1.7117717,0.92182112,0.33022857,-0.20296597,0
-2.333128,-0.77379155,-0.10071015,-0.92182112,-0.33022857,0.20296597,0
0.23766112,-1.9388165,-2.8188787,0.20245445,-0.85671651,-0.47439373,0
1.4805876,2.1458049,-1.8180834,0.92182112,0.33022857,-0.20296597,0
1.6306989,-3.3480954,0.46871209,0.20245445,-0.85671651,-0.47439373,0
-1.7061954,-1.0909646,2.0611322,-0.92182112,-0.33022857,0.20296597,0
-0.75900793,-0.36475468,3.4089193,0.33054268,-0.39621472,0.85659564,0
0.70982313,-2.7106681,-1.2570949,0.20245445,-0.85671651,-0.47439373,0
-2.8781834,0.26064205,0.0030899048,-0.92182112,-0.33022857,0.20296597,0
-0.57902491,0.69280636,-2.9453051,-0.33054268,0.39621472,-0.85659564,0
-1.6138833,0.71442628,3.9638655,-0.20245445,0.85671651,0.47439373,0
-2.2685931,-2.3666627,-1.4145782,-0.92182112,-0.33022857,0.20296597,0
0.2808975,4.0485926,-0.92159581,-0.20245445,0.85671651,0.47439373,0
2.7988486,-1.1666281,-0.58064449,0.92182112,0.33022857,-0.20296597,0
-0.70675683,-2.565521,2.8191104,0.33054268,-0.39621472,0.85659564,0
-1.6180021,-0.94582987,2.9838099,-0.92182112,-0.33022857,0.20296597,0
1.8129385,1.568653,-1.5374374,0.92182112,0.33022857,-0.20296597,0
-0.10418367,-1.9939332,-3.1789265,0.20245445,-0.85671651,-0.47439373,0
-1.6850332,-2.182816,1.1412891,-0.92182112,-0.33022857,0.20296597,0
-0.63809824,3.2985594,0.35458612,-0.20245445,0.85671651,0.47439373,0
-0.76012945,1.8915974,2.9276505,-0.20245445,0.85671651,0.47439373,0
0.64411926,-0.80590713,2.6599236,0.33054268,-0.39621472,0.85659564,0
-0.44687319,2.1676161,1.8218119,-0.20245445,0.85671651,0.47439373,0
-2.332562,-1.887903,-0.98620963,-0.92182112,-0.33022857,0.20296597,0
-2.9128861,2.4188025,0.65680146,-0.20245445,0.85671651,0.47439373,0
0.18300974,-0.46026957,3.0345643,0.33054268,-0.39621472,0.85659564,0
-0.6895647,-0.81597167,-3.7683229,-0.33054268,0.39621472,-0.85659564,0
-1.7955339,0.62033159,-2.6705687,-0.33054268,0.39621472,-0.85659564,0
0.5768342,1.7694137,3.7754073,-0.20245445,0.85671651,0.47439373,0
-1.7070936,2.4230945,-1.6346934,-0.33054268,0.39621472,-0.85659564,0
1.6803057,0.16731763,-4.1183872,-0.33054268,0.39621472,-0.85659564,0
-0.056885958,-2.0378957,-2.5405359,0.20245445,-0.85671651,-0.47439373,0
0.27946806,2.9940574,1.2896583,-0.20245445,0.85671651,0.47439373,0
1.7009687,3.6766949,0.46708637,0.92182112,0.33022857,-0.20296597,0
-1.3184068,-3.2188556,0.13680828,-0.92182112,-0.33022857,0.20296597,0
-0.72261369,3.4205794,-1.4213948,-0.33054268,0.39621472,-0.85659564,0
-0.10737348,-2.895565,-1.4887874,0.20245445,-0.85671651,-0.47439373,0
-0.022085607,-1.7356,2.4808815,0.33054268,-0.39621472,0.85659564,0
1.3235292,-0.89242411,-4.4898672,0.20245445,-0.85671651,-0.47439373,0
3.0488319,-0.13892293,2.1685529,0.92182112,0.33022857,-0.20296597,0
2.5883555,1.1596961,3.245383,0.33054268,-0.39621472,0.85659564,0
-2.6410229,1.5142612,2.6914864,-0.20245445,0.85671651,0.47439373,0
2.2467616,-0.0027961731,-2.6180842,0.92182112,0.33022857,-0.20296597,0
1.7515023,0.6074779,-3.1084251,0.92182112,0.33022857,-0.20296597,0
-0.83439749,-4.3864222,1.9957449,0.33054268,-0.39621472,0.85659564,0
0.42084146,-1.2801373,-3.7569938,0.20245445,-0.85671651,-0.47439373,0
0.12259579,-0.80565357,-4.0271187,-0.33054268,0.39621472,-0.85659564,0
3.4332027,-1.7649723,1.2757764,0.33054268,-0.39621472,0.85659564,0
-3.3789043,0.69679236,-1.4695208,-0.92182112,-0.33022857,0.20296597,0
-0.063142776,0.58919001,3.8261709,0.33054268,-0.39621472,0.85659564,0
-1.0287497,-3.220998,1.7992055,-0.92182112,-0.33022857,0.20296597,0
-1.8618068,3.7889905,-1.1744456,-0.20245445,0.85671651,0.47439373,0
2.8980916,1.5757324,2.4757166,0.92182112,0.33022857,-0.20296597,0
2.1178331,-2.5268207,1.2924142,0.33054268,-0.39621472,0.85659564,0
0.36444202,2.7412066,-2.3314376,-0.33054268,0.39621472,-0.85659564,0
1.4548156,-2.028245,-2.3393273,0.20245445,-0.85671651,-0.47439373,0
3.2465208,-1.6780931,1.5358715,0.33054268,-0.39621472,0.85659564,0
-0.066442728,-2.6095867,2.47282,0.33054268,-0.39621472,0.85659564,0
-2.1261251,-0.2469492,2.0025988,-0.92182112,-0.33022857,0.20296597,0
-2.1729262,0.56613827,3.2771275,-0.92182112,-0.33022857,0.20296597,0
-2.7544708,1.3279128,-1.7648687,-0.33054268,0.39621472,-0.85659564,0
0.61938763,3.7563212,0.21601546,-0.20245445,0.85671651,0.47439373,0
-3.5411119,1.8497617,-1.3457217,-0.92182112,-0.33022857,0.20296597,0
2.1688266,2.4310088,1.12753,0.92182112,0.33022857,-0.20296597,0
2.6504948,-0.78338623,2.1500711,0.33054268,-0.39621472,0.85659564,0
-1.3431404,0.93270087,3.8653207,-0.20245445,0.85671651,0.47439373,0
-2.9586596,1.6131573,0.73721457,-0.92182112,-0.33022857,0.20296597,0
3.1328869,-0.83282852,-0.031181574,0.92182112,0.33022857,-0.20296597,0
-1.4993082,3.9927084,-1.1334915,-0.20245445,0.85671651,0.47439373,0
-2.0884211,-1.2215109,-3.130609,-0.33054268,0.39621472,-0.85659564,0
-1.3738596,-3.8728957,-0.069799066,0.20245445,-0.85671651,-0.47439373,0
3.169982,-2.8141534,0.37932062,0.20245445,-0.85671651,-0.47439373,0
-2.2375286,-0.9976238,-3.3274069,-0.33054268,0.39621472,-0.85659564,0
-1.0936189,2.4031844,-1.7749414,-0.33054268,0.39621472,-0.85659564,0
1.8292701,-3.083709,0.076495647,0.20245445,-0.85671651,-0.47439373,0
-1.9071455,-0.8593502,3.1743233,-0.92182112,-0.33022857,0.20296597,0
-1.6662747,-3.0513413,0.75329196,-0.92182112,-0.33022857,0.20296597,0
-0.57601595,-2.4692812,-2.1302116,0.20245445,-0.85671651,-0.47439373,0
2.0281687,2.245013,0.52359325,0.92182112,0.33022857,-0.20296597,0
-3.3982224,2.0551217,0.22488356,-0.92182112,-0.33022857,0.20296597,0
-2.5405519,3.2616768,-0.67700052,-0.20245445,0.85671651,0.47439373,0
-2.676928,1.5149503,-1.636853,-0.33054268,0.39621472,-0.85659564,0
2.480258,0.1248107,-1.4601679,0.92182112,0.33022857,-0.20296597,0
0.40799007,-2.5828567,1.9839249,0.33054268,-0.39621472,0.85659564,0
2.6466484,-1.6862922,1.7952869,0.33054268,-0.39621472,0.85659564,0
-3.1253023,1.8365064,1.2689474,-0.92182112,-0.33022857,0.20296597,0
-2.1863718,2.8379855,0.67214155,-0.20245445,0.85671651,0.47439373,0
-2.130017,0.8916049,4.0363069,-0.20245445,0.85671651,0.47439373,0
3.3109295,-0.71881533,0.83674932,0.92182112,0.33022857,-0.20296597,0
1.8020154,-0.66556847,2.590631,0.33054268,-0.39621472,0.85659564,0
-2.4938116,2.4347687,-1.4953456,-0.33054268,0.39621472,-0.85659564,0
-3.0766051,-0.41084397,-2.0095794,-0.92182112,-0.33022857,0.20296597,0
0.97797275,-2.7722468,-0.7007308,0.20245445,-0.85671651,-0.47439373,0
0.31470013,-0.98777223,-4.1717529,0.20245445,-0.85671651,-0.47439373,0
-2.0355649,3.3592479,-1.1499195,-0.33054268,0.39621472,-0.85659564,0
-2.6160135,0.95591044,2.645822,-0.92182112,-0.33022857,0.20296597,0
-2.0727429,0.065773517,-2.7128494,-0.33054268,0.39621472,-0.85659564,0
2.5285716,2.4980903,2.8123479,0.92182112,0.33022857,-0.20296597,0
3.1357865,-1.032642,1.0118814,0.92182112,0.33022857,-0.20296597,0
-1.2657577,0.049209774,-3.0863125,-0.33054268,0.39621472,-0.85659564,0
-1.2362406,2.8209243,0.65316617,-0.20245445,0.85671651,0.47439373,0
-3.1386487,3.2359524,-0.80166483,-0.33054268,0.39621472,-0.85659564,0
-2.3078763,-1.0685203,0.59113508,-0.92182112,-0.33022857,0.20296597,0
-2.7855844,0.19378853,0.83213896,-0.92182112,-0.33022857,0.20296597,0
1.4703355,1.1132944,-3.3863654,-0.33054268,0.39621472,-0.85659564,0
-1.1142943,-3.2221637,-1.313406,0.20245445,-0.85671651,-0.47439373,0
1.4631076,2.8727698,1.4357916,-0.20245445,0.85671651,0.47439373,0
-0.62444472,3.8057332,-1.1335349,-0.20245445,0.85671651,0.47439373,0
1.2577896,2.8419886,-2.0399649,0.92182112,0.33022857,-0.20296597,0
1.6383296,2.6060581,2.2794507,-0.20245445,0.85671651,0.47439373,0
0.84364772,-3.5323842,1.3262105,0.33054268,-0.39621472,0.85659564,0
1.049845,-0.091792583,-3.8786564,-0.33054268,0.39621472,-0.85659564,0
0.20435619,4.4392862,-1.6932249,-0.20245445,0.85671651,0.47439373,0
-1.7750206,2.4248309,1.1805456,-0.20245445,0.85671651,0.47439373,0
2.2729385,-3.3643625,0.9008131,0.20245445,-0.85671651,-0.47439373,0
1.9073257,0.51908171,2.7993133,0.33054268,-0.39621472,0.85659564,0
-0.087860346,1.2361417,3.7991862,-0.20245445,0.85671651,0.47439373,0
-3.04055,2.0708728,-1.1996169,-0.33054268,0.39621472,-0.85659564,0
-2.6245642,0.48310542,1.5745449,-0.92182112,-0.33022857,0.20296597,0
-0.17605686,-0.3651098,3.423383,0.33054268,-0.39621472,0.85659564,0
-2.1666064,0.33165574,-2.3121457,-0.33054268,0.39621472,-0.85659564,0
-0.69977736,-0.65910417,-3.7064452,-0.33054268,0.39621472,-0.85659564,0
-0.73441744,3.2627349,-1.8781111,-0.33054268,0.39621472,-0.85659564,0
2.1500247,-1.3394711,-2.8613079,0.20245445,-0.85671651,-0.47439373,0
0.36707187,-0.0011897087,-3.4887474,-0.33054268,0.39621472,-0.85659564,0
1.8331228,-1.8797824,1.9760716,0.33054268,-0.39621472,0.85659564,0
-0.56939244,2.8186595,1.2306116,-0.20245445,0.85671651,0.47439373,0
-2.8565056,2.2799826,0.8278451,-0.20245445,0.85671651,0.47439373,0
-0.3876667,1.3674572,3.9770136,-0.20245445,0.85671651,0.47439373,0
-0.74051571,1.6129997,3.1170759,-0.20245445,0.85671651,0.47439373,0
0.6473822,4.0987353,-2.0021341,0.92182112,0.33022857,-0.20296597,0
2.2288396,0.43930674,-0.92605758,0.92182112,0.33022857,-0.20296597,0
0.01189363,3.5876932,-1.6227632,-0.33054268,0.39621472,-0.85659564,0
0.63390601,-2.022392,2.3425524,0.33054268,-0.39621472,0.85659564,0
-3.4026792,2.2722399,0.40817666,-0.20245445,0.85671651,0.47439373,0
-0.86443472,-2.7363448,-1.5759978,0.20245445,-0.85671651,-0.47439373,0
3.3679113,-1.7250515,0.39006877,0.92182112,0.33022857,-0.20296597,0
-0.25302839,-1.9388983,2.7422411,0.33054268,-0.39621472,0.85659564,0
2.4368112,-0.72051644,-3.3413012,0.92182112,0.33022857,-0.20296597,0
-3.4721601,2.068501,-0.91392279,-0.92182112,-0.33022857,0.20296597,0
-2.924258,0.3702445,-0.05704689,-0.92182112,-0.33022857,0.20296597,0
-1.5723053,-3.5491505,-0.57597208,0.20245445,-0.85671651,-0.47439373,0
-1.5866241,-1.2050534,-3.412456,-0.33054268,0.39621472,-0.85659564,0
-2.3384981,-0.098227262,0.89240211,-0.92182112,-0.33022857,0.20296597,0
-0.21511459,1.9647176,2.4459181,-0.20245445,0.85671651,0.47439373,0
2.2374258,1.5466337,3.4881146,0.33054268,-0.39621472,0.85659564,0
1.886734,2.4706419,2.2933841,-0.20245445,0.85671651,0.47439373,0
-0.40218186,-2.8000503,-1.7794716,0.20245445,-0.85671651,-0.47439373,0
-2.2427502,0.62105727,3.5711794,-0.92182112,-0.33022857,0.20296597,0
-1.3405781,1.3539823,-2.2550623,-0.33054268,0.39621472,-0.85659564,0
3.0067413,0.17267752,0.86207056,0.92182112,0.33022857,-0.20296597,0
1.9819369,1.3186532,-1.3344384,0.92182112,0.33022857,-0.20296597,0
2.4539325,0.43334842,-0.54496145,0.92182112,0.33022857,-0.20296597,0
-3.5032632,2.7674527,0.24268794,-0.20245445,0.85671651,0.47439373,0
-0.73027873,3.0393641,0.39933479,-0.20245445,0.85671651,0.47439373,0
0.90164042,1.3664396,-3.3561742,-0.33054268,0.39621472,-0.85659564,0
0.36891311,-2.120075,2.1898808,0.33054268,-0.39621472,0.85659564,0
-1.6300591,1.2041252,-2.49769,-0.33054268,0.39621472,-0.85659564,0
1.2452778,3.2080989,-1.9230127,0.92182112,0.33022857,-0.20296597,0
1.0501485,-2.0580387,-2.1953864,0.20245445,-0.85671651,-0.47439373,0
-2.0553844,1.8783195,-1.8817239,-0.33054268,0.39621472,-0.85659564,0
1.5122268,0.10324121,-4.1174388,-0.33054268,0.39621472,-0.85659564,0
2.7017512,1.6255833,2.1900392,0.92182112,0.33022857,-0.20296597,0
0.4160651,1.335109,-3.0764544,-0.33054268,0.39621472,-0.85659564,0
-0.6431849,0.22574878,3.954092,0.33054268,-0.39621472,0.85659564,0
-3.0160391,3.2564831,-0.49980831,-0.20245445,0.85671651,0.47439373,0
-0.88096499,2.0960326,-2.4153378,-0.33054268,0.39621472,-0.85659564,0
2.5857334,-1.1851113,1.9475567,0.33054268,-0.39621472,0.85659564,0
3.1659241,0.34987664,2.642539,0.33054268,-0.39621472,0.85659564,0
0.713857,2.95788,-2.2892544,-0.33054268,0.39621472,-0.85659564,0
-2.6423256,1.5106821,2.0084972,-0.92182112,-0.33022857,0.20296597,0
-0.45231357,-2.3825016,2.4794078,0.33054268,-0.39621472,0.85659564,0
2.419909,2.1835861,2.6744084,0.92182112,0.33022857,-0.20296597,0
2.5333939,1.2807965,0.61597693,0.92182112,0.33022857,-0.20296597,0
-3.006366,0.42877042,-0.83828974,-0.92182112,-0.33022857,0.20296597,0
2.968657,-2.8034744,-0.18694949,0.20245445,-0.85671651,-0.47439373,0
1.7656965,2.6901186,0.78868943,0.92182112,0.33022857,-0.20296597,0
-0.71795368,1.9839836,2.6131597,-0.20245445,0.85671651,0.47439373,0
-2.0259876,1.1776299,3.593158,-0.20245445,0.85671651,0.47439373,0
-1.8370385,2.565037,1.0956844,-0.20245445,0.85671651,0.47439373,0
3.0742483,0.57642996,1.7693033,0.92182112,0.33022857,-0.20296597,0
2.1582131,-3.0832267,0.35612154,0.20245445,-0.85671651,-0.47439373,0
0.42967081,-0.30805743,-3.6422038,-0.33054268,0.39621472,-0.85659564,0
-0.35503936,-2.8659077,2.170212,0.33054268,-0.39621472,0.85659564,0
-0.83093631,-4.2340584,1.2099082,0.20245445,-0.85671651,-0.47439373,0
2.1752939,1.7113777,-0.29213202,0.92182112,0.33022857,-0.20296597,0
-0.96228302,-3.8266845,1.1348186,-0.92182112,-0.33022857,0.20296597,0
1.3486249,-1.1441538,-3.6565442,0.20245445,-0.85671651,-0.47439373,0
-2.7437959,-1.6298643,-3.0300448,-0.33054268,0.39621472,-0.85659564,0
-0.69138139,-2.3753483,2.499819,0.33054268,-0.39621472,0.85659564,0
1.5361545,-2.967221,1.6021571,0.33054268,-0.39621472,0.85659564,0
2.0830429,1.9930637,0.72517228,0.92182112,0.33022857,-0.20296597,0
0.10832071,-4.1863365,1.1078744,0.20245445,-0.85671651,-0.47439373,0
-1.953043,-1.9408669,0.80191016,-0.92182112,-0.33022857,0.20296597,0
1.7246628,-0.96126127,-3.9854226,0.20245445,-0.85671651,-0.47439373,0
-0.057401657,-3.4270096,0.04545331,0.20245445,-0.85671651,-0.47439373,0
-2.2808287,1.5372031,2.6038375,-0.20245445,0.85671651,0.47439373,0
1.9026756,0.41493273,-3.0485704,0.92182112,0.33022857,-0.20296597,0
-1.1807426,3.6664715,-0.83278751,-0.20245445,0.85671651,0.47439373,0
2.5421915,1.5875498,2.5033932,0.92182112,0.33022857,-0.20296597,0
-3.2381878,-0.51063836,-2.4297767,-0.92182112,-0.33022857,0.20296597,0
1.4046836,-2.8359842,1.7526484,0.33054268,-0.39621472,0.85659564,0
-0.97505778,1.2086346,-2.3486254,-0.33054268,0.39621472,-0.85659564,0
-0.33598125,0.96182334,-2.7828557,-0.33054268,0.39621472,-0.85659564,0
0.95871359,4.2910109,-1.7221725,-0.33054268,0.39621472,-0.85659564,0
-1.6291488,3.5506959,-1.2782359,-0.33054268,0.39621472,-0.85659564,0
2.7404091,-2.2345142,1.3925128,0.33054268,-0.39621472,0.85659564,0
-3.1354556,0.077597141,-2.2005625,-0.33054268,0.39621472,-0.85659564,0
-0.94884562,3.5325646,-0.36484623,-0.20245445,0.85671651,0.47439373,0
-0.40190315,-2.2900834,-2.1062579,0.20245445,-0.85671651,-0.47439373,0
-2.0928984,-2.1508019,-0.7131263,-0.92182112,-0.33022857,0.20296597,0
-2.7106495,-0.70619994,-2.8055298,-0.33054268,0.39621472,-0.85659564,0
0.7743783,4.3832831,-1.3179736,-0.20245445,0.85671651,0.47439373,0
1.344932,3.8320937,-0.1588335,0.92182112,0.33022857,-0.20296597,0
-0.71036577,-2.0181313,-3.3790059,0.20245445,-0.85671651,-0.47439373,0
1.8371298,0.045213461,-4.0832925,0.92182112,0.33022857,-0.20296597,0
0.027628511,2.1308832,-2.3883011,-0.33054268,0.39621472,-0.85659564,0
-1.1018658,0.16900182,4.1918979,0.33054268,-0.39621472,0.85659564,0
-1.3864186,1.0120387,3.8548093,-0.20245445,0.85671651,0.47439373,0
3.4771614,-2.0419202,0.81895018,0.92182112,0.33022857,-0.20296597,0
1.0174613,2.827158,1.7472214,-0.20245445,0.85671651,0.47439373,0
1.3164907,3.4422307,0.20401394,0.92182112,0.33022857,-0.20296597,0
2.9974403,0.33993948,2.357198,0.92182112,0.33022857,-0.20296597,0
-1.6406515,3.5660129,-1.1043196,-0.33054268,0.39621472,-0.85659564,0
0.50883126,-1.9953183,2.3609078,0.33054268,-0.39621472,0.85659564,0
-2.3025279,2.9572296,-1.1264501,-0.33054268,0.39621472,-0.85659564,0
1.7791195,-3.1953311,0.1870203,0.20245445,-0.85671651,-0.47439373,0
2.7466416,-0.46544623,2.4130967,0.33054268,-0.39621472,0.85659564,0
3.6588967,-2.5406914,0.30612659,0.92182112,0.33022857,-0.20296597,0
-3.0109186,-0.015094042,-1.6421931,-0.92182112,-0.33022857,0.20296597,0
3.7969415,-2.3347533,0.41887999,0.92182112,0.33022857,-0.20296597,0
2.5621862,0.99862474,1.6025007,0.92182112,0.33022857,-0.20296597,0
2.5297787,1.5759875,1.855026,0.92182112,0.33022857,-0.20296597,0
1.2747281,1.7176883,-3.1392882,-0.33054268,0.39621472,-0.85659564,0
2.6114192,0.18577856,2.5816894,0.33054268,-0.39621472,0.85659564,0
-0.7737605,1.0026456,-2.6916361,-0.33054268,0.39621472,-0.85659564,0
2.8179662,0.57822448,2.2027223,0.92182112,0.33022857,-0.20296597,0
2.426085,-3.1839802,0.83305168,0.20245445,-0.85671651,-0.47439373,0
1.0310006,3.4764905,-1.9034307,0.92182112,0.33022857,-0.20296597,0
1.0618918,-0.58012807,2.9111922,0.33054268,-0.39621472,0.85659564,0
-3.2992218,2.2490413,0.47902322,-0.20245445,0.85671651,0.47439373,0
-2.8823633,-0.83865273,-2.0053227,-0.92182112,-0.33022857,0.20296597,0
-2.7079163,2.8107967,0.36730194,-0.20245445,0.85671651,0.47439373,0
-3.2338624,2.1593451,0.61299872,-0.92182112,-0.33022857,0.20296597,0
0.28382814,4.0704575,-1.7771316,-0.33054268,0.39621472,-0.85659564,0
-2.4696631,-0.70183265,-0.078980565,-0.92182112,-0.33022857,0.20296597,0
1.827456,3.1190226,1.7617829,-0.20245445,0.85671651,0.47439373,0
3.3028913,-1.5376862,1.6987944,0.33054268,-0.39621472,0.85659564,0
-0.76973987,-2.2176685,2.6040845,0.33054268,-0.39621472,0.85659564,0
1.9511294,0.44298741,2.8453088,0.33054268,-0.39621472,0.85659564,0
-1.9471219,-0.53655487,-3.1002676,-0.33054268,0.39621472,-0.85659564,0
-3.0274134,1.5526726,0.71530664,-0.92182112,-0.33022857,0.20296597,0
-0.45239782,2.7055387,1.442521,-0.20245445,0.85671651,0.47439373,0
-1.6685698,-0.45942092,3.8448031,0.33054268,-0.39621472,0.85659564,0
-2.52707,-0.24831629,1.3151968,-0.92182112,-0.33022857,0.20296597,0
3.7470341,-2.548672,0.68978405,0.33054268,-0.39621472,0.85659564,0
-0.57906771,-2.0806818,-2.4566967,0.20245445,-0.85671651,-0.47439373,0
-2.6643882,-1.5003123,-3.0218749,-0.33054268,0.39621472,-0.85659564,0
-0.41317034,3.854569,-1.0175533,-0.20245445,0.85671651,0.47439373,0
1.7786105,0.95847583,-1.7623246,0.92182112,0.33022857,-0.20296597,0
-2.5890653,-0.90199465,-1.6473517,-0.92182112,-0.33022857,0.20296597,0
-3.3328724,2.8306699,-0.0083246231,-0.20245445,0.85671651,0.47439373,0
-0.60963821,-3.5416713,-0.45437467,0.20245445,-0.85671651,-0.47439373,0
1.8229971,-0.77920103,-4.2875032,0.20245445,-0.85671651,-0.47439373,0
-0.61091536,-3.7585974,2.1954844,0.33054268,-0.39621472,0.85659564,0
-2.2698298,-0.084705114,1.3738269,-0.92182112,-0.33022857,0.20296597,0
0.36697817,-0.23427188,3.2737589,0.33054268,-0.39621472,0.85659564,0
1.4094508,-0.086152717,2.9815531,0.33054268,-0.39621472,0.85659564,0
-1.6813908,-2.4901154,0.54666394,-0.92182112,-0.33022857,0.20296597,0
-3.1408415,2.0067902,0.34564328,-0.92182112,-0.33022857,0.20296597,0
-3.6632221,1.8630698,-1.2273569,-0.92182112,-0.33022857,0.20296597,0
2.1675653,1.6739281,-0.12989919,0.92182112,0.33022857,-0.20296597,0
0.23423481,-1.0310403,-4.0563741,-0.33054268,0.39621472,-0.85659564,0
0.85087109,-1.9316286,-2.4297435,0.20245445,-0.85671651,-0.47439373,0
-1.9741936,-1.8528066,-3.4307373,-0.33054268,0.39621472,-0.85659564,0
-2.8829889,-1.6545565,-2.883148,-0.92182112,-0.33022857,0.20296597,0
-3.1312733,0.80355096,-2.0456874,-0.33054268,0.39621472,-0.85659564,0
2.1348169,-0.5193013,2.4583285,0.33054268,-0.39621472,0.85659564,0
1.9173744,-3.48879,0.51606202,0.20245445,-0.85671651,-0.47439373,0
-1.7450783,2.4273028,1.2390295,-0.20245445,0.85671651,0.47439373,0
-1.7776338,-1.5792689,1.3972611,-0.92182112,-0.33022857,0.20296597,0
-1.678569,-1.6360101,3.0080166,-0.92182112,-0.33022857,0.20296597,0
-3.1778679,-0.20584011,-2.243037,-0.92182112,-0.33022857,0.20296597,0
1.9225945,1.8919885,3.5052478,-0.20245445,0.85671651,0.47439373,0
-2.135154,-0.96271288,0.075885296,-0.92182112,-0.33022857,0.20296597,0
-0.87013197,-0.58866262,3.4188964,0.33054268,-0.39621472,0.85659564,0
-1.3378197,0.7134701,-2.6103582,-0.33054268,0.39621472,-0.85659564,0
1.5986055,1.7500502,-1.6894407,0.92182112,0.33022857,-0.20296597,0
1.0880618,-3.9281607,1.0449491,0.20245445,-0.85671651,-0.47439373,0
2.4424465,0.62683821,-0.99242401,0.92182112,0.33022857,-0.20296597,0
-1.8495932,-1.4191848,1.8922882,-0.92182112,-0.33022857,0.20296597,0
-1.760184,-0.9191258,3.4940689,-0.92182112,-0.33022857,0.20296597,0
0.26444089,-4.3031497,1.4492948,0.33054268,-0.39621472,0.85659564,0
-2.0416679,-2.5654306,-2.4961047,0.20245445,-0.85671651,-0.47439373,0
0.27534676,4.0478725,-1.1004431,-0.20245445,0.85671651,0.47439373,0
-2.0252533,-0.60374331,2.0521052,-0.92182112,-0.33022857,0.20296597,0
-1.3248298,1.907406,2.4073606,-0.20245445,0.85671651,0.47439373,0
1.6437867,3.2607799,0.81739926,0.92182112,0.33022857,-0.20296597,0
-1.8626168,2.8574147,-1.5831022,-0.33054268,0.39621472,-0.85659564,0
-1.5501109,-2.8889029,-1.3739374,0.20245445,-0.85671651,-0.47439373,0
-1.0537877,-4.2040563,1.5079958,-0.92182112,-0.33022857,0.20296597,0
0.58654559,2.4730768,-2.5024757,-0.33054268,0.39621472,-0.85659564,0
-1.7597058,-1.2219093,1.4347743,-0.92182112,-0.33022857,0.20296597,0
-1.6593482,2.8247945,-1.7275901,-0.33054268,0.39621472,-0.85659564,0
1.4074295,1.9207712,-2.7926073,0.92182112,0.33022857,-0.20296597,0
0.59205651,-2.6529713,2.0685947,0.33054268,-0.39621472,0.85659564,0
-3.0615854,2.7261224,-1.0133958,-0.33054268,0.39621472,-0.85659564,0
0.95616877,1.889172,-3.1781816,-0.33054268,0.39621472,-0.85659564,0
1.4738772,1.2731681,3.6903741,0.33054268,-0.39621472,0.85659564,0
-0.76603222,-2.5385745,-1.9048986,0.20245445,-0.85671651,-0.47439373,0
-1.2734571,-3.5129867,-0.6577661,0.20245445,-0.85671651,-0.47439373,0
-1.1264975,3.9758666,-1.2651567,-0.33054268,0.39621472,-0.85659564,0
-3.2528808,0.96273685,-1.8273034,-0.33054268,0.39621472,-0.85659564,0
0.99998426,3.0556116,1.5031836,-0.20245445,0.85671651,0.47439373,0
0.066463947,-2.8395109,-1.0577635,0.20245445,-0.85671651,-0.47439373,0
1.9861236,-0.52137876,-3.9579711,0.92182112,0.33022857,-0.20296597,0
-2.3758049,2.3156676,1.1697811,-0.20245445,0.85671651,0.47439373,0
0.61390495,-3.0744543,-0.78495884,0.20245445,-0.85671651,-0.47439373,0
1.8911661,2.4361966,-0.011488348,0.92182112,0.33022857,-0.20296597,0
0.55722213,-1.9812217,-2.2723279,0.20245445,-0.85671651,-0.47439373,0
0.93169832,-0.87819028,-4.1318007,-0.33054268,0.39621472,-0.85659564,0
-0.94030356,-0.6864813,-3.4661992,-0.33054268,0.39621472,-0.85659564,0
0.10404372,4.3752546,-1.211055,-0.20245445,0.85671651,0.47439373,0
-1.3740009,2.0808105,-1.7995837,-0.33054268,0.39621472,-0.85659564,0
2.1496823,-0.28630996,-2.087467,0.92182112,0.33022857,-0.20296597,0
-0.57568145,3.6872156,-0.44853592,-0.20245445,0.85671651,0.47439373,0
0.64456844,-3.3779433,-0.14084935,0.20245445,-0.85671651,-0.47439373,0
-0.0084357262,3.6669917,-0.099852562,-0.20245445,0.85671651,0.47439373,0
1.0513054,-2.4126277,2.0481429,0.33054268,-0.39621472,0.85659564,0
1.3776977,3.3440595,0.23593694,0.92182112,0.33022857,-0.20296597,0
-2.3483202,2.9356489,-1.2592344,-0.33054268,0.39621472,-0.85659564,0
3.3469746,-0.73226976,2.0211318,0.33054268,-0.39621472,0.85659564,0
0.84685504,1.7624047,-3.0293252,-0.33054268,0.39621472,-0.85659564,0
1.5890698,1.9744098,-1.6714623,0.92182112,0.33022857,-0.20296597,0
-1.7823379,-0.72840738,-3.0568321,-0.33054268,0.39621472,-0.85659564,0
0.13939428,-4.1667824,1.3844168,0.33054268,-0.39621472,0.85659564,0
-0.4983393,-1.500158,2.7920702,0.33054268,-0.39621472,0.85659564,0
0.55067253,-2.5615017,-1.1474452,0.20245445,-0.85671651,-0.47439373,0
-1.8312287,-0.96513915,1.5683551,-0.92182112,-0.33022857,0.20296597,0
0.67596555,-1.1551946,-3.7678778,0.20245445,-0.85671651,-0.47439373,0
0.96645403,1.265734,3.5467072,0.33054268,-0.39621472,0.85659564,0
-1.2046083,-3.7504845,-0.27073002,0.20245445,-0.85671651,-0.47439373,0
0.3740429,3.1498752,-2.1927264,-0.33054268,0.39621472,-0.85659564,0
-0.73499632,-4.409894,1.4528639,0.20245445,-0.85671651,-0.47439373,0
1.4974664,0.17534944,2.92922,0.33054268,-0.39621472,0.85659564,0
1.5819881,-1.1857231,2.1941328,0.33054268,-0.39621472,0.85659564,0
1.5232582,2.8247483,-1.7041168,0.92182112,0.33022857,-0.20296597,0
-0.59403002,-3.2735491,-0.25808883,0.20245445,-0.85671651,-0.47439373,0
-1.1275282,0.97061276,4.1441288,-0.20245445,0.85671651,0.47439373,0
-1.2364268,0.72708464,4.2722044,-0.20245445,0.85671651,0.47439373,0
1.1980121,0.79378843,-3.6329107,-0.33054268,0.39621472,-0.85659564,0
-1.40662,-0.96280569,-3.280848,-0.33054268,0.39621472,-0.85659564,0
-1.6470622,-3.6645555,-0.18223691,-0.92182112,-0.33022857,0.20296597,0
0.28667432,-1.5321101,2.8306587,0.33054268,-0.39621472,0.85659564,0
0.52538443,2.5464492,1.997775,-0.20245445,0.85671651,0.47439373,0
2.7127337,1.5017591,2.7659447,0.92182112,0.33022857,-0.20296597,0
2.4834113,-3.2534509,0.82635736,0.20245445,-0.85671651,-0.47439373,0
0.96300077,2.9040008,-2.7513802,-0.33054268,0.39621472,-0.85659564,0
-1.8686125,-2.8665719,-0.52175182,-0.92182112,-0.33022857,0.20296597,0
-2.173068,0.41725159,3.2313607,-0.92182112,-0.33022857,0.20296597,0
-3.0989733,-0.19507372,-1.7844517,-0.92182112,-0.33022857,0.20296597,0
0.68978417,3.5455854,-2.2718163,-0.33054268,0.39621472,-0.85659564,0
2.4061193,1.3550844,-0.087625921,0.92182112,0.33022857,-0.20296597,0
0.58974087,-1.0292633,2.6709898,0.33054268,-0.39621472,0.85659564,0
-2.8746395,0.1565032,0.22389758,-0.92182112,-0.33022857,0.20296597,0
-1.2973201,2.4971724,1.0355604,-0.20245445,0.85671651,0.47439373,0
0.13193321,3.5323853,-0.044470787,-0.20245445,0.85671651,0.47439373,0
2.4800267,1.4176905,3.0321867,0.33054268,-0.39621472,0.85659564,0
-1.8767451,2.3128257,-1.9057498,-0.33054268,0.39621472,-0.85659564,0
-2.5445352,2.3376203,1.3956169,-0.20245445,0.85671651,0.47439373,0
2.1478481,-3.1792293,0.43566608,0.20245445,-0.85671651,-0.47439373,0
-1.9154449,-1.6392305,0.32559013,-0.92182112,-0.33022857,0.20296597,0
-2.0831027,-1.5021104,-3.6008878,-0.33054268,0.39621472,-0.85659564,0
1.3598629,3.3896346,-0.42756462,0.92182112,0.33022857,-0.20296597,0
3.1175823,0.49538088,2.6104457,0.33054268,-0.39621472,0.85659564,0
0.50997686,-1.2552806,-4.175374,0.20245445,-0.85671651,-0.47439373,0
-2.8306437,2.3058624,-1.1206264,-0.33054268,0.39621472,-0.85659564,0
-3.3154411,1.8280628,-1.562479,-0.33054268,0.39621472,-0.85659564,0
-0.62108803,3.3194792,-0.051315784,-0.20245445,0.85671651,0.47439373,0
2.040926,-0.45851827,-3.5747983,0.92182112,0.33022857,-0.20296597,0
-0.27272332,-2.2218344,2.5730391,0.33054268,-0.39621472,0.85659564,0
-1.7832016,-1.9947138,0.72136641,-0.92182112,-0.33022857,0.20296597,0
-1.7589816,-0.59545243,-3.0844846,-0.33054268,0.39621472,-0.85659564,0
1.0089734,1.7961397,3.3629942,-0.20245445,0.85671651,0.47439373,0
-2.1990659,-2.1284251,-0.94845438,-0.92182112,-0.33022857,0.20296597,0
-0.17926025,0.7234503,3.7347422,0.33054268,-0.39621472,0.85659564,0
-2.1657681,-0.10042357,2.7582695,-0.92182112,-0.33022857,0.20296597,0
2.9368949,-2.9725311,0.4417367,0.20245445,-0.85671651,-0.47439373,0
2.5871441,-1.4465117,-2.6109626,0.92182112,0.33022857,-0.20296597,0
1.5259366,-1.3792994,-3.3586617,0.20245445,-0.85671651,-0.47439373,0
-2.2060082,-1.4160103,-3.3452106,-0.33054268,0.39621472,-0.85659564,0
2.3698399,1.8946482,1.0983247,0.92182112,0.33022857,-0.20296597,0
-1.9669864,1.9957857,1.9370289,-0.20245445,0.85671651,0.47439373,0
-3.7893462,2.4544404,-0.30589247,-0.92182112,-0.33022857,0.20296597,0
2.4615178,1.9852302,2.6939518,0.92182112,0.33022857,-0.20296597,0
0.40083909,-2.9750366,-1.1817852,0.20245445,-0.85671651,-0.47439373,0
1.1991689,-2.6449592,-0.66593254,0.20245445,-0.85671651,-0.47439373,0
-2.2414873,0.28463793,2.8437278,-0.92182112,-0.33022857,0.20296597,0
-3.6299233,2.7797966,-0.70890236,-0.33054268,0.39621472,-0.85659564,0
-2.9578104,2.8330853,-0.98993635,-0.33054268,0.39621472,-0.85659564,0
-2.912077,-0.46006453,-1.5861168,-0.92182112,-0.33022857,0.20296597,0
2.6258423,-1.5416439,-1.9340119,0.92182112,0.33022857,-0.20296597,0
-2.6213241,-0.2545929,-0.074880958,-0.92182112,-0.33022857,0.20296597,0
-3.0965185,-0.26845896,-1.6955628,-0.92182112,-0.33022857,0.20296597,0
-0.34936953,1.3242517,4.1878724,-0.20245445,0.85671651,0.47439373,0
-1.4995883,0.65230346,4.2350512,-0.20245445,0.85671651,0.47439373,0
0.4863975,3.1940465,0.85433996,-0.20245445,0.85671651,0.47439373,0
-2.0661724,-0.12319946,3.3065741,-0.92182112,-0.33022857,0.20296597,0
-1.2280302,-0.91641283,3.6258521,0.33054268,-0.39621472,0.85659564,0
2.6408181,-3.2217822,1.1075253,0.33054268,-0.39621472,0.85659564,0
-1.8684382,-1.9211894,0.67531991,-0.92182112,-0.33022857,0.20296597,0
1.4426143,-2.8852811,-0.39035296,0.20245445,-0.85671651,-0.47439373,0
2.5530119,-0.082477689,2.6871982,0.33054268,-0.39621472,0.85659564,0
-0.12484911,2.1603954,-2.6535692,-0.33054268,0.39621472,-0.85659564,0
-3.2143002,0.26774824,-1.8581538,-0.92182112,-0.33022857,0.20296597,0
-2.1114287,1.4173291,3.0603709,-0.20245445,0.85671651,0.47439373,0
2.1970344,1.6803925,0.69386894,0.92182112,0.33022857,-0.20296597,0
-0.19830155,-1.3583252,2.7776823,0.33054268,-0.39621472,0.85659564,0
1.1906883,2.9839141,1.1178502,-0.20245445,0.85671651,0.47439373,0
1.5609272,-1.9221249,2.2048833,0.33054268,-0.39621472,0.85659564,0
-0.94859266,-0.44617367,3.5199389,0.33054268,-0.39621472,0.85659564,0
0.68085361,0.063715279,3.0945399,0.33054268,-0.39621472,0.85659564,0
0.22933626,-0.37007141,3.3462763,0.33054268,-0.39621472,0.85659564,0
1.2503664,-3.6185451,0.75187969,0.20245445,-0.85671651,-0.47439373,0
2.5178449,0.92996323,0.47137249,0.92182112,0.33022857,-0.20296597,0
2.4064457,0.63430786,-0.58572423,0.92182112,0.33022857,-0.20296597,0
0.38589239,-1.8326619,-2.6771226,0.20245445,-0.85671651,-0.47439373,0
1.8567777,0.68613648,2.961926,0.33054268,-0.39621472,0.85659564,0
2.247601,2.204411,1.6959215,0.92182112,0.33022857,-0.20296597,0
2.696171,-2.0241334,-1.3065169,0.20245445,-0.85671651,-0.47439373,0
-0.084549665,-3.1083968,-1.1435014,0.20245445,-0.85671651,-0.47439373,0
1.5905185,3.1482635,-0.10875368,0.92182112,0.33022857,-0.20296597,0
-0.017877162,-3.5719793,2.053309,0.33054268,-0.39621472,0.85659564,0
3.3350959,-0.80075896,1.9154544,0.33054268,-0.39621472,0.85659564,0
-1.356899,1.8045176,2.8240793,-0.20245445,0.85671651,0.47439373,0
1.9714458,1.1007932,-1.575202,0.92182112,0.33022857,-0.20296597,0
2.6781754,0.44536066,0.78944373,0.92182112,0.33022857,-0.20296597,0
1.8490891,0.62731075,-3.5009661,0.92182112,0.33022857,-0.20296597,0
2.7522559,-0.5965817,-1.4230287,0.92182112,0.33022857,-0.20296597,0
2.3556454,-0.1973722,-1.3243229,0.92182112,0.33022857,-0.20296597,0
-2.7895861,-1.6632037,-3.0854931,-0.92182112,-0.33022857,0.20296597,0
-2.5996671,-2.1404271,-3.458595,-0.33054268,0.39621472,-0.85659564,0
1.4714923,0.45731187,3.1604793,0.33054268,-0.39621472,0.85659564,0
1.9155786,1.3797697,-1.1680695,0.92182112,0.33022857,-0.20296597,0
-3.1603863,0.39730334,-0.64899182,-0.92182112,-0.33022857,0.20296597,0
-2.3803568,-2.1336026,-3.6036446,-0.33054268,0.39621472,-0.85659564,0
-2.5374367,0.011171341,0.17181563,-0.92182112,-0.33022857,0.20296597,0
1.8784847,2.9474092,0.26364335,0.92182112,0.33022857,-0.20296597,0
1.5222189,1.7920213,3.9187486,0.33054268,-0.39621472,0.85659564,0
1.8027023,-0.40456873,2.4512432,0.33054268,-0.39621472,0.85659564,0
-1.8415618,-2.4438438,-3.1068339,0.20245445,-0.85671651,-0.47439373,0
0.81270456,1.81376,3.12675,-0.20245445,0.85671651,0.47439373,0
2.1953819,0.021353483,-2.9728394,0.92182112,0.33022857,-0.20296597,0
-3.0750434,1.8609531,0.95666897,-0.92182112,-0.33022857,0.20296597,0
0.92182851,4.2370563,-1.0868909,-0.20245445,0.85671651,0.47439373,0
2.6235001,2.1264348,2.2064857,0.92182112,0.33022857,-0.20296597,0
0.50899005,1.5003026,3.9715052,-0.20245445,0.85671651,0.47439373,0
0.38413131,-0.63679051,3.1712213,0.33054268,-0.39621472,0.85659564,0
2.9731104,-2.4518869,-0.43779469,0.20245445,-0.85671651,-0.47439373,0
2.0249889,1.9551167,3.4653249,0.33054268,-0.39621472,0.85659564,0
2.2575874,-1.0730511,2.0446649,0.33054268,-0.39621472,0.85659564,0
0.19023871,-3.7001333,1.5275931,0.33054268,-0.39621472,0.85659564,0
1.5411897,-1.9465578,1.8921888,0.33054268,-0.39621472,0.85659564,0
1.6961747,2.6283627,-0.34396678,0.92182112,0.33022857,-0.20296597,0
1.3213549,2.1169891,-2.834187,0.92182112,0.33022857,-0.20296597,0
2.0389848,0.99735403,-1.7120619,0.92182112,0.33022857,-0.20296597,0
0.6391046,-3.0497236,2.0487933,0.33054268,-0.39621472,0.85659564,0
0.99173117,-2.8272054,-0.831972,0.20245445,-0.85671651,-0.47439373,0
1.3618701,0.45277715,-3.7750974,-0.33054268,0.39621472,-0.85659564,0
1.2198339,2.0007696,-3.0115809,-0.33054268,0.39621472,-0.85659564,0
0.97668242,0.86681628,-3.4921463,-0.33054268,0.39621472,-0.85659564,0
-2.4033082,-2.1939359,-1.4706711,-0.92182112,-0.33022857,0.20296597,0
1.5395837,-0.28789139,-4.3058376,-0.33054268,0.39621472,-0.85659564,0
1.3078355,2.8917053,-1.7958686,0.92182112,0.33022857,-0.20296597,0
0.97556901,-3.4679935,0.14710641,0.20245445,-0.85671651,-0.47439373,0
0.77596402,-1.2550906,2.4586015,0.33054268,-0.39621472,0.85659564,0
-1.1044515,-2.2215476,3.0048764,-0.92182112,-0.33022857,0.20296597,0
-1.5926123,-2.6100922,1.4449137,-0.92182112,-0.33022857,0.20296597,0
-1.9435043,-2.5829513,0.086941689,-0.92182112,-0.33022857,0.20296597,0
-1.2605529,0.67001426,-2.8245385,-0.33054268,0.39621472,-0.85659564,0
0.51526809,-3.4682937,-0.012026787,0.20245445,-0.85671651,-0.47439373,0
3.921046,-2.9131975,0.31981516,0.20245445,-0.85671651,-0.47439373,0
3.4149113,-2.4692285,-0.19647193,0.92182112,0.33022857,-0.20296597,0
1.9445536,-3.5152814,1.0500054,0.33054268,-0.39621472,0.85659564,0
-0.51018965,-3.6192591,1.9193349,0.33054268,-0.39621472,0.85659564,0
-1.0944564,-1.1875356,3.1603749,0.33054268,-0.39621472,0.85659564,0
1.5198202,-0.45602322,-4.414392,-0.33054268,0.39621472,-0.85659564,0
-0.030219913,1.6421187,-2.9378955,-0.33054268,0.39621472,-0.85659564,0
1.5397577,0.48372436,-3.9423485,-0.33054268,0.39621472,-0.85659564,0
-0.70283604,-2.2756205,-2.6919861,0.20245445,-0.85671651,-0.47439373,0
-1.8877807,-2.0352373,-3.4834499,-0.33054268,0.39621472,-0.85659564,0
-3.3215716,0.6027174,-1.8109722,-0.33054268,0.39621472,-0.85659564,0
-0.17945623,1.5934922,-2.7973769,-0.33054268,0.39621472,-0.85659564,0
1.4486415,-0.067017317,-4.1920576,-0.33054268,0.39621472,-0.85659564,0
-2.0347984,0.21106434,4.0374727,-0.92182112,-0.33022857,0.20296597,0
0.7967298,-2.9587359,1.8846276,0.33054268,-0.39621472,0.85659564,0
-2.3846169,3.2610259,-0.57812214,-0.20245445,0.85671651,0.47439373,0
-2.6988025,1.8031552,1.8662814,-0.20245445,0.85671651,0.47439373,0
1.1492903,3.7559075,-0.3249191,-0.20245445,0.85671651,0.47439373,0
0.08637315,-1.8283495,2.625005,0.33054268,-0.39621472,0.85659564,0
-0.86279416,3.2285182,0.21721244,-0.20245445,0.85671651,0.47439373,0
-0.21548319,-1.3445587,2.9183433,0.33054268,-0.39621472,0.85659564,0
1.4341552,-1.9639668,-2.2869415,0.20245445,-0.85671651,-0.47439373,0
-0.42897788,-2.4358625,2.5222542,0.33054268,-0.39621472,0.85659564,0
1.3579423,0.38412023,-3.7059712,-0.33054268,0.39621472,-0.85659564,0
-0.83250332,-2.1187415,-2.7441788,0.20245445,-0.85671651,-0.47439373,0
2.7435622,-2.1602211,-0.91796231,0.20245445,-0.85671651,-0.47439373,0
-0.65955436,-1.2691859,3.2548838,0.33054268,-0.39621472,0.85659564,0
1.2631056,3.6718659,0.21101987,-0.20245445,0.85671651,0.47439373,0
0.96527195,2.7292619,2.2085056,-0.20245445,0.85671651,0.47439373,0
0.29412794,-0.086650252,-3.6889184,-0.33054268,0.39621472,-0.85659564,0
0.18993068,-3.0742459,-1.0132016,0.20245445,-0.85671651,-0.47439373,0
1.3302121,-1.1725593,-3.542388,0.20245445,-0.85671651,-0.47439373,0
2.6290867,-2.1257224,1.5363379,0.33054268,-0.39621472,0.85659564,0
-1.8973503,-0.53648496,2.4534068,-0.92182112,-0.33022857,0.20296597,0
1.8223516,2.8059056,-0.081176877,0.92182112,0.33022857,-0.20296597,0
-0.6329093,3.1869612,-0.034697771,-0.20245445,0.85671651,0.47439373,0
3.0636683,-2.2677464,1.1521883,0.33054268,-0.39621472,0.85659564,0
-0.5821768,4.1735935,-1.268584,-0.20245445,0.85671651,0.47439373,0
2.9921823,-1.9995582,-1.1007987,0.92182112,0.33022857,-0.20296597,0
-3.1382508,0.042508841,-1.956001,-0.92182112,-0.33022857,0.20296597,0
-1.610799,-2.8495057,0.74981594,-0.92182112,-0.33022857,0.20296597,0
-1.7124937,-0.93000937,2.4913194,-0.92182112,-0.33022857,0.20296597,0
0.052152157,3.3789048,0.028549671,-0.20245445,0.85671651,0.47439373,0
1.8273206,-3.4687619,0.55814838,0.20245445,-0.85671651,-0.47439373,0
0.6733768,3.2913742,0.51916051,-0.20245445,0.85671651,0.47439373,0
-1.5048581,-3.1793044,-0.084510326,-0.92182112,-0.33022857,0.20296597,0
-0.62801909,1.9018635,2.7292082,-0.20245445,0.85671651,0.47439373,0
-1.6181297,-2.5157404,-2.5694022,0.20245445,-0.85671651,-0.47439373,0
1.0349143,0.97735691,-3.6368322,-0.33054268,0.39621472,-0.85659564,0
-2.1671336,-2.9415958,-1.9760842,-0.92182112,-0.33022857,0.20296597,0
-0.25987768,1.7091371,3.4767396,-0.20245445,0.85671651,0.47439373,0
-1.1360908,1.4443312,3.561806,-0.20245445,0.85671651,0.47439373,0
-0.23050058,-1.610026,2.7992523,0.33054268,-0.39621472,0.85659564,0
3.2153068,-1.1900196,1.6956587,0.33054268,-0.39621472,0.85659564,0
-2.7893152,0.020051241,0.64305317,-0.92182112,-0.33022857,0.20296597,0
2.7277949,0.54965305,1.0250633,0.92182112,0.33022857,-0.20296597,0
-0.76150274,-3.7542496,0.28619766,0.20245445,-0.85671651,-0.47439373,0
1.162298,3.6797647,0.55593479,-0.20245445,0.85671651,0.47439373,0
-0.11364174,3.6813736,-0.40100169,-0.20245445,0.85671651,0.47439373,0
0.7314744,-3.0409529,-0.48768568,0.20245445,-0.85671651,-0.47439373,0
2.6254358,0.24796802,2.6621604,0.33054268,-0.39621472,0.85659564,0
2.0700893,2.2795649,0.73455495,0.92182112,0.33022857,-0.20296597,0
-1.6263485,-0.31251767,-2.7871003,-0.33054268,0.39621472,-0.85659564,0
0.18957448,3.3532729,-0.071643353,-0.20245445,0.85671651,0.47439373,0
1.9549789,0.35773015,-3.4165406,0.92182112,0.33022857,-0.20296597,0
-0.88053751,-2.8440185,-1.7400428,0.20245445,-0.85671651,-0.47439373,0
-2.8595195,0.20755053,-0.5789988,-0.92182112,-0.33022857,0.20296597,0
1.7797061,2.5083234,-0.16335043,0.92182112,0.33022857,-0.20296597,0
-2.6829472,0.54523945,0.59799898,-0.92182112,-0.33022857,0.20296597,0
-0.97680044,-2.207772,2.69292,0.33054268,-0.39621472,0.85659564,0
2.626344,1.3979322,2.6311214,0.92182112,0.33022857,-0.20296597,0
2.1275134,-2.2251434,-1.8094213,0.20245445,-0.85671651,-0.47439373,0
2.8739061,-0.99812055,1.9724076,0.33054268,-0.39621472,0.85659564,0
-0.98036027,-4.1962519,0.90444803,-0.92182112,-0.33022857,0.20296597,0
-1.874615,-1.5441647,1.6755427,-0.92182112,-0.33022857,0.20296597,0
-1.8343463,-3.2481418,-1.0398411,-0.92182112,-0.33022857,0.20296597,0
-1.3610152,1.6393043,-2.1375449,-0.33054268,0.39621472,-0.85659564,0
1.5240943,1.5117536,3.416244,0.33054268,-0.39621472,0.85659564,0
1.1909566,1.7533216,-3.1561611,-0.33054268,0.39621472,-0.85659564,0
-1.4303238,-0.43497324,3.9393086,0.33054268,-0.39621472,0.85659564,0
-2.7970052,1.1729019,2.4852986,-0.92182112,-0.33022857,0.20296597,0
-0.37965274,1.0016059,3.8939314,0.33054268,-0.39621472,0.85659564,0
1.3920732,-0.38409591,-4.3164024,-0.33054268,0.39621472,-0.85659564,0
1.2637284,-3.2137232,-0.098982096,0.20245445,-0.85671651,-0.47439373,0
-2.8253171,-0.10166514,-0.93849015,-0.92182112,-0.33022857,0.20296597,0
2.0288205,1.2784777,-1.7030911,0.92182112,0.33022857,-0.20296597,0
-0.63095474,3.3044267,-1.5531282,-0.33054268,0.39621472,-0.85659564,0
0.0027492046,-3.7830734,1.630193,0.33054268,-0.39621472,0.85659564,0
-2.5617411,1.2161481,2.9406226,-0.92182112,-0.33022857,0.20296597,0
-1.5795206,-0.57161105,-3.3767915,-0.33054268,0.39621472,-0.85659564,0
-0.013460398,-2.9789438,-0.89667934,0.20245445,-0.85671651,-0.47439373,0
-1.4395132,1.3620074,3.6344132,-0.20245445,0.85671651,0.47439373,0
-2.060617,-1.3890233,-0.053156614,-0.92182112,-0.33022857,0.20296597,0
3.5446577,-2.2112422,0.17295623,0.92182112,0.33022857,-0.20296597,0
1.9880338,-1.3246229,-3.0926037,0.20245445,-0.85671651,-0.47439373,0
-1.0893836,0.086767673,4.1927929,0.33054268,-0.39621472,0.85659564,0
0.96057701,2.1227272,2.7731464,-0.20245445,0.85671651,0.47439373,0
0.16079831,-0.33744395,3.4187729,0.33054268,-0.39621472,0.85659564,0
3.1419516,-2.1527808,-0.97862363,0.20245445,-0.85671651,-0.47439373,0
-2.4664853,-0.53928101,-0.59843445,-0.92182112,-0.33022857,0.20296597,0
2.24333,0.42970753,-1.013624,0.92182112,0.33022857,-0.20296597,0
-0.81992626,3.0343115,0.91333663,-0.20245445,0.85671651,0.47439373,0
0.83656883,1.5725492,3.6504688,-0.20245445,0.85671651,0.47439373,0
1.0702593,2.0984082,-2.8343792,-0.33054268,0.39621472,-0.85659564,0
0.052889347,0.33020043,-3.4276173,-0.33054268,0.39621472,-0.85659564,0
-3.5749972,2.0441735,-1.0820112,-0.33054268,0.39621472,-0.85659564,0
-1.1776557,3.0835416,-0.14570689,-0.20245445,0.85671651,0.47439373,0
-1.8749831,0.38963556,-2.4962413,-0.33054268,0.39621472,-0.85659564,0
-1.2649968,-2.3007531,-2.8999224,0.20245445,-0.85671651,-0.47439373,0
0.43636632,2.0488141,2.5878868,-0.20245445,0.85671651,0.47439373,0
-2.8049128,2.4035685,-1.4851551,-0.33054268,0.39621472,-0.85659564,0
-1.7842165,2.0042002,-2.0560482,-0.33054268,0.39621472,-0.85659564,0
-2.5562332,3.3683541,-0.72667456,-0.33054268,0.39621472,-0.85659564,0
2.9322746,0.72899747,1.4633076,0.92182112,0.33022857,-0.20296597,0
-1.5069432,2.9468215,0.035695791,-0.20245445,0.85671651,0.47439373,0
2.3799295,0.71797574,-0.079676986,0.92182112,0.33022857,-0.20296597,0
-1.8105856,1.1471685,-2.0434425,-0.33054268,0.39621472,-0.85659564,0
-2.319922,-2.2613544,-3.533133,0.20245445,-0.85671651,-0.47439373,0
0.90568662,4.307725,-1.2001548,-0.20245445,0.85671651,0.47439373,0
-0.76353383,-0.46463013,3.4416599,0.33054268,-0.39621472,0.85659564,0
0.076306164,-2.2689486,2.3444369,0.33054268,-0.39621472,0.85659564,0
1.0107288,2.1959279,2.6437526,-0.20245445,0.85671651,0.47439373,0
1.9074621,1.4851962,-1.5815027,0.92182112,0.33022857,-0.20296597,0
-1.279989,2.8603914,-1.6500864,-0.33054268,0.39621472,-0.85659564,0
-0.5157733,-0.7838304,3.5571887,0.33054268,-0.39621472,0.85659564,0
2.5110207,-2.176558,-1.293437,0.20245445,-0.85671651,-0.47439373,0
-1.4212551,-2.9048693,1.0395498,-0.92182112,-0.33022857,0.20296597,0
2.4319987,-2.088294,-1.2681497,0.20245445,-0.85671651,-0.47439373,0
2.5227141,1.3493927,3.3423936,0.33054268,-0.39621472,0.85659564,0
1.9500052,-0.048529744,2.6021547,0.33054268,-0.39621472,0.85659564,0
-2.3438101,-1.2296107,-0.97829151,-0.92182112,-0.33022857,0.20296597,0
-2.2990341,-1.7976711,-3.5187278,-0.33054268,0.39621472,-0.85659564,0
2.0654185,1.1708915,-0.64848387,0.92182112,0.33022857,-0.20296597,0
-2.7046831,0.23566628,0.23809922,-0.92182112,-0.33022857,0.20296597,0
1.1212931,3.6614389,0.53985447,-0.20245445,0.85671651,0.47439373,0
-3.6584849,2.7927177,-0.60264683,-0.92182112,-0.33022857,0.20296597,0
-2.9052916,-0.86162341,-1.3672526,-0.92182112,-0.33022857,0.20296597,0
1.7543722,1.9042087,-1.4345868,0.92182112,0.33022857,-0.20296597,0
-2.9503694,0.90705538,-0.066365004,-0.92182112,-0.33022857,0.20296597,0
2.4105117,2.177346,1.6268282,0.92182112,0.33022857,-0.20296597,0
0.074287653,1.2039849,-3.0310102,-0.33054268,0.39621472,-0.85659564,0
-2.7284603,-2.0773764,-3.1940968,-0.33054268,0.39621472,-0.85659564,0
1.9516538,-1.6476042,2.1142645,0.33054268,-0.39621472,0.85659564,0
1.6807859,0.07759428,-3.6696928,0.92182112,0.33022857,-0.20296597,0
-1.3710743,3.0406828,-1.4727397,-0.33054268,0.39621472,-0.85659564,0
-1.5009999,3.0490704,0.14703274,-0.20245445,0.85671651,0.47439373,0
