-0.039337635,2.2976565,3.8675175,-0.55324125,0.55657941,0.61979294,0
-3.2761149,0.032852173,-0.046537876,-0.74239486,0.0080572963,-0.66991401,0
-1.9872408,-4.0316434,1.9790897,-0.3778542,-0.83075523,0.40874416,0
0.64542782,-2.3915627,3.2041278,0.74239486,-0.0080572963,0.66991401,0
-3.3638487,-3.009407,2.7864602,-0.3778542,-0.83075523,0.40874416,0
2.8771682,-0.24227905,-2.876421,0.55324125,-0.55657941,-0.61979294,0
4.4446683,1.2076313,-1.1673667,0.74239486,-0.0080572963,0.66991401,0
3.6360722,1.4956131,-3.6881866,0.55324125,-0.55657941,-0.61979294,0
1.4514136,5.4337173,0.069946766,0.3778542,0.83075523,-0.40874416,0
-1.1510818,-4.0904813,3.240346,-0.3778542,-0.83075523,0.40874416,0
0.6829977,-0.88947964,-4.4106493,0.55324125,-0.55657941,-0.61979294,0
-1.6210093,5.8068781,-1.9708642,0.3778542,0.83075523,-0.40874416,0
-1.8454206,-1.5234528,5.3635702,-0.55324125,0.55657941,0.61979294,0
3.4186988,4.037096,-0.67492199,0.3778542,0.83075523,-0.40874416,0
0.19361424,-5.255971,1.4399066,-0.3778542,-0.83075523,0.40874416,0
1.9342895,3.6463475,1.9032137,0.74239486,-0.0080572963,0.66991401,0
0.95434391,0.15323579,2.6652584,0.74239486,-0.0080572963,0.66991401,0
-3.7308857,1.2678978,0.46143019,-0.74239486,0.0080572963,-0.66991401,0
-3.3378341,0.39539814,2.6133795,-0.55324125,0.55657941,0.61979294,0
4.8706307,2.1169419,-1.4953461,0.74239486,-0.0080572963,0.66991401,0
-1.9997346,-3.057272,-1.6474285,-0.74239486,0.0080572963,-0.66991401,0
0.79746008,5.6786065,-0.4370811,0.3778542,0.83075523,-0.40874416,0
-0.1513505,-5.529912,-0.74236679,0.55324125,-0.55657941,-0.61979294,0
5.5933595,2.0920353,-2.1434669,0.74239486,-0.0080572963,0.66991401,0
-2.0206168,3.0765936,1.019008,-0.55324125,0.55657941,0.61979294,0
-0.30402398,4.73314,-2.8404932,0.3778542,0.83075523,-0.40874416,0
-3.1766591,-2.4486642,4.2385769,-0.3778542,-0.83075523,0.40874416,0
3.7664218,1.7878528,-4.0044503,0.55324125,-0.55657941,-0.61979294,0
1.0388474,5.9666653,0.63587046,0.3778542,0.83075523,-0.40874416,0
-0.67559719,5.2024245,-2.2785735,0.3778542,0.83075523,-0.40874416,0
2.9338939,2.9403234,0.44684982,0.74239486,-0.0080572963,0.66991401,0
-0.56936693,-4.1049528,3.4142923,-0.3778542,-0.83075523,0.40874416,0
4.4923477,2.7504358,-1.2665586,0.74239486,-0.0080572963,0.66991401,0
4.219821,3.3213503,-1.526988,0.3778542,0.83075523,-0.40874416,0
0.63834524,3.3077869,3.1932812,0.74239486,-0.0080572963,0.66991401,0
4.7955689,3.0129466,-1.5290723,0.3778542,0.83075523,-0.40874416,0
3.5328012,4.0872908,-1.1131473,0.3778542,0.83075523,-0.40874416,0
-0.9182533,-4.6371565,2.3412323,-0.3778542,-0.83075523,0.40874416,0
0.3929944,4.8561096,1.8550664,-0.55324125,0.55657941,0.61979294,0
-2.59986,4.9436159,-1.077986,-0.74239486,0.0080572963,-0.66991401,0
1.6060395,-3.2717555,-1.4237087,0.55324125,-0.55657941,-0.61979294,0
1.6659567,1.2668715,-5.5721588,0.55324125,-0.55657941,-0.61979294,0
-2.2130344,-2.4500191,-1.5340708,-0.74239486,0.0080572963,-0.66991401,0
1.3291086,4.5098467,-1.8364837,0.3778542,0.83075523,-0.40874416,0
-3.182019,2.1062553,1.1083896,-0.55324125,0.55657941,0.61979294,0
-4.537468,-2.8133626,1.9231405,-0.3778542,-0.83075523,0.40874416,0
1.6957784,5.8712592,1.7073019,0.3778542,0.83075523,-0.40874416,0
0.068220139,3.7696233,2.4656641,-0.55324125,0.55657941,0.61979294,0
-4.2939835,-0.12108922,2.0382462,-0.55324125,0.55657941,0.61979294,0
5.4496007,2.0355444,-2.4634967,0.74239486,-0.0080572963,0.66991401,0
0.45281506,-6.0428586,0.27848649,-0.3778542,-0.83075523,0.40874416,0
2.5970373,0.81218481,1.0769426,0.74239486,-0.0080572963,0.66991401,0
2.9140172,2.8496766,-4.0773697,0.3778542,0.83075523,-0.40874416,0
-1.967802,5.8242459,-1.3782082,-0.55324125,0.55657941,0.61979294,0
-2.7548501,2.9953146,0.60132039,-0.55324125,0.55657941,0.61979294,0
-1.4823582,-3.4448488,3.5013714,-0.3778542,-0.83075523,0.40874416,0
-3.8248358,-2.6046906,3.6420014,-0.3778542,-0.83075523,0.40874416,0
-2.9362159,-4.7279115,0.14047813,-0.3778542,-0.83075523,0.40874416,0
0.79077578,4.4039822,-2.684438,0.3778542,0.83075523,-0.40874416,0
2.6014345,4.5262337,-0.43169403,0.3778542,0.83075523,-0.40874416,0
-1.2178131,1.5187827,-2.1220319,-0.74239486,0.0080572963,-0.66991401,0
5.3564816,2.6239605,-2.2514834,0.3778542,0.83075523,-0.40874416,0
2.600781,-1.5635543,0.74352163,0.74239486,-0.0080572963,0.66991401,0
-2.6892767,-5.4392991,-0.8520422,-0.3778542,-0.83075523,0.40874416,0
0.71782589,-2.8851678,-2.6359873,0.55324125,-0.55657941,-0.61979294,0
1.5441358,1.6896243,2.0394292,0.74239486,-0.0080572963,0.66991401,0
-1.8435521,-0.6766057,-1.9690876,-0.74239486,0.0080572963,-0.66991401,0
0.11483717,0.58562917,-3.7798929,-0.74239486,0.0080572963,-0.66991401,0
4.0304751,3.0929084,-1.8181126,0.3778542,0.83075523,-0.40874416,0
-3.9319782,0.24317789,1.6225548,-0.55324125,0.55657941,0.61979294,0
-3.0747979,1.1907454,-0.043724537,-0.74239486,0.0080572963,-0.66991401,0
2.6170619,-1.6697556,-1.9121299,0.55324125,-0.55657941,-0.61979294,0
-1.0002484,-2.3273611,-2.4911294,-0.74239486,0.0080572963,-0.66991401,0
1.8176899,2.7520218,1.9183593,0.74239486,-0.0080572963,0.66991401,0
-0.73262954,-3.6239743,4.3743038,0.74239486,-0.0080572963,0.66991401,0
-3.8199108,-0.79819441,3.0403664,-0.55324125,0.55657941,0.61979294,0
2.2602859,2.8385754,1.5312314,0.74239486,-0.0080572963,0.66991401,0
0.3990151,3.3755918,-3.8653574,-0.74239486,0.0080572963,-0.66991401,0
3.3235705,4.4863625,0.22515774,0.74239486,-0.0080572963,0.66991401,0
-1.0118546,-5.3424149,-1.6396616,0.55324125,-0.55657941,-0.61979294,0
-0.03826046,1.3153577,-3.9105101,-0.74239486,0.0080572963,-0.66991401,0
-3.6721869,-4.0013752,1.11691,-0.3778542,-0.83075523,0.40874416,0
3.454248,0.47232556,-0.067590952,0.74239486,-0.0080572963,0.66991401,0
-4.4819307,-2.0219111,3.6699872,-0.55324125,0.55657941,0.61979294,0
-2.3174827,4.4272594,-1.1585749,-0.74239486,0.0080572963,-0.66991401,0
2.366713,-1.8685217,0.96690023,0.74239486,-0.0080572963,0.66991401,0
5.0905032,1.7797737,-1.9559605,0.74239486,-0.0080572963,0.66991401,0
5.3488522,2.3927593,-2.4340801,0.3778542,0.83075523,-0.40874416,0
-0.12802404,2.2473829,-3.3898075,-0.74239486,0.0080572963,-0.66991401,0
3.3723488,0.66580415,0.15475512,0.74239486,-0.0080572963,0.66991401,0
-1.9521427,5.1134624,-0.40995085,-0.55324125,0.55657941,0.61979294,0
-3.9710779,-2.2693496,0.60089874,-0.74239486,0.0080572963,-0.66991401,0
-1.4780848,-4.5805321,1.2019255,-0.3778542,-0.83075523,0.40874416,0
3.4574733,-2.0661752,-0.14591014,0.74239486,-0.0080572963,0.66991401,0
0.5666194,6.1495838,0.75003219,-0.55324125,0.55657941,0.61979294,0
2.7283142,4.6625929,0.030418396,0.3778542,0.83075523,-0.40874416,0
4.0187826,-1.4443567,-0.74483585,0.74239486,-0.0080572963,0.66991401,0
-2.5065773,-3.2163458,3.7698956,-0.3778542,-0.83075523,0.40874416,0
-4.906714,-2.7616591,2.0428538,-0.3778542,-0.83075523,0.40874416,0
1.6589568,-3.3646612,1.607447,0.74239486,-0.0080572963,0.66991401,0
-2.6111071,-2.2767203,-0.67374396,-0.74239486,0.0080572963,-0.66991401,0
-1.990551,3.0401194,1.0662966,-0.55324125,0.55657941,0.61979294,0
-0.33649588,5.8062434,-0.52227998,0.3778542,0.83075523,-0.40874416,0
0.022631645,-2.7076826,-3.1125193,0.55324125,-0.55657941,-0.61979294,0
-3.6268411,0.57610488,2.1403003,-0.55324125,0.55657941,0.61979294,0
-0.89142221,-3.5302196,3.9871726,-0.3778542,-0.83075523,0.40874416,0
-0.43930125,-2.6870952,4.4249668,0.74239486,-0.0080572963,0.66991401,0
-3.5523121,-3.3634012,0.27398062,-0.74239486,0.0080572963,-0.66991401,0
1.2673111,5.0259237,2.132,-0.55324125,0.55657941,0.61979294,0
-4.0187526,-1.7736754,0.62795472,-0.74239486,0.0080572963,-0.66991401,0
3.2752638,4.4257612,0.087292194,0.3778542,0.83075523,-0.40874416,0
1.677954,4.1008759,-2.2304993,0.3778542,0.83075523,-0.40874416,0
4.1725693,3.319454,-1.6817389,0.3778542,0.83075523,-0.40874416,0
0.27320766,2.2145205,3.5983248,0.74239486,-0.0080572963,0.66991401,0
-1.409142,-1.0157681,5.3111157,-0.55324125,0.55657941,0.61979294,0
-0.17904675,-4.4003921,3.1219096,-0.3778542,-0.83075523,0.40874416,0
2.7866757,1.9304529,-5.0581279,0.55324125,-0.55657941,-0.61979294,0
-0.54943681,-4.7474365,2.1325397,-0.3778542,-0.83075523,0.40874416,0
-4.0269055,1.7542069,0.73941255,-0.55324125,0.55657941,0.61979294,0
1.4722017,-3.0786262,1.8847313,0.74239486,-0.0080572963,0.66991401,0
-3.1058941,-3.231262,2.4105034,-0.3778542,-0.83075523,0.40874416,0
-3.0406547,-4.0138197,-0.46862268,-0.74239486,0.0080572963,-0.66991401,0
-0.95768678,-4.4829321,2.5535073,-0.3778542,-0.83075523,0.40874416,0
-0.75354576,-4.5885735,-2.3156896,0.55324125,-0.55657941,-0.61979294,0
-0.29611754,-0.34293139,3.9349785,0.74239486,-0.0080572963,0.66991401,0
4.5836654,0.43412209,-1.8010345,0.55324125,-0.55657941,-0.61979294,0
3.056699,2.4804895,0.40747476,0.74239486,-0.0080572963,0.66991401,0
3.3448403,0.020269871,-2.9965703,0.55324125,-0.55657941,-0.61979294,0
-2.0029931,-4.3702717,1.3837295,-0.3778542,-0.83075523,0.40874416,0
-2.2876852,3.7615414,-1.2972205,-0.74239486,0.0080572963,-0.66991401,0
-4.9940505,-1.9186785,2.8943458,-0.55324125,0.55657941,0.61979294,0
0.60846376,-4.2397394,3.2197938,0.74239486,-0.0080572963,0.66991401,0
-4.490077,-2.732995,2.4623396,-0.3778542,-0.83075523,0.40874416,0
-4.0087867,-2.1594377,0.77494049,-0.74239486,0.0080572963,-0.66991401,0
2.5911105,-1.4812216,-2.0833635,0.55324125,-0.55657941,-0.61979294,0
3.6770465,3.5201423,-0.55544519,0.74239486,-0.0080572963,0.66991401,0
0.85807085,6.160542,1.0112221,-0.55324125,0.55657941,0.61979294,0
-2.09004,-2.3162892,5.9574299,-0.3778542,-0.83075523,0.40874416,0
-2.933944,1.1712065,1.78694,-0.55324125,0.55657941,0.61979294,0
2.0386295,1.9090711,1.7713176,0.74239486,-0.0080572963,0.66991401,0
0.72740811,3.3469324,-4.3635135,0.3778542,0.83075523,-0.40874416,0
0.44026303,2.1352706,-3.9033849,-0.74239486,0.0080572963,-0.66991401,0
2.3161643,2.7101679,-4.7508879,0.3778542,0.83075523,-0.40874416,0
4.0027103,3.7372794,-0.92049932,0.3778542,0.83075523,-0.40874416,0
3.3431892,2.4780822,-0.040508032,0.74239486,-0.0080572963,0.66991401,0
3.2108836,-1.6911995,0.082012773,0.74239486,-0.0080572963,0.66991401,0
-2.544966,1.5793118,-1.1007384,-0.74239486,0.0080572963,-0.66991401,0
3.2079604,2.5859299,-3.9150147,0.3778542,0.83075523,-0.40874416,0
-3.8847117,-3.7836025,0.65511799,-0.74239486,0.0080572963,-0.66991401,0
-1.56145,-6.0161428,-1.8019662,0.55324125,-0.55657941,-0.61979294,0
1.2810073,-4.2035742,-1.0513211,0.55324125,-0.55657941,-0.61979294,0
4.0595798,3.1035635,-1.7227416,0.3778542,0.83075523,-0.40874416,0
4.8449278,2.0891428,-1.5186114,0.74239486,-0.0080572963,0.66991401,0
-1.5056795,-2.7691293,5.0513206,-0.3778542,-0.83075523,0.40874416,0
2.8007023,0.14196396,-3.1647635,0.55324125,-0.55657941,-0.61979294,0
2.8745794,-2.0278628,0.70204699,0.74239486,-0.0080572963,0.66991401,0
1.5697417,-4.0404282,-0.5742439,0.55324125,-0.55657941,-0.61979294,0
0.042248726,-0.13750088,3.7765951,0.74239486,-0.0080572963,0.66991401,0
0.63031435,-5.2451601,-0.60396957,0.55324125,-0.55657941,-0.61979294,0
-2.3453267,-4.9726038,-0.0022192001,-0.3778542,-0.83075523,0.40874416,0
-1.8412926,-3.0482976,-1.6284453,-0.74239486,0.0080572963,-0.66991401,0
1.7398961,3.4030683,1.9299113,0.74239486,-0.0080572963,0.66991401,0
-4.9498024,-1.2127497,2.615911,-0.55324125,0.55657941,0.61979294,0
0.56362933,-1.3660172,2.9531915,0.74239486,-0.0080572963,0.66991401,0
2.6766996,-2.7553678,-1.1040823,0.55324125,-0.55657941,-0.61979294,0
-4.2701406,-2.5965779,2.634944,-0.3778542,-0.83075523,0.40874416,0
0.99361992,-5.2830043,-0.037602425,0.55324125,-0.55657941,-0.61979294,0
3.6028311,3.6971359,-1.2501698,0.3778542,0.83075523,-0.40874416,0
-0.27380824,-4.9135847,2.4405029,-0.3778542,-0.83075523,0.40874416,0
3.5620561,0.89954782,-3.3923783,0.55324125,-0.55657941,-0.61979294,0
-1.6685824,-6.0058246,-1.6581438,0.55324125,-0.55657941,-0.61979294,0
-3.1000199,-0.3541739,3.3012013,-0.55324125,0.55657941,0.61979294,0
-1.1451541,1.6536871,-2.7218599,-0.74239486,0.0080572963,-0.66991401,0
-0.67214167,-3.2958832,4.6542702,-0.3778542,-0.83075523,0.40874416,0
-3.5774212,0.0041902065,0.43294525,-0.74239486,0.0080572963,-0.66991401,0
5.3766723,1.5198879,-2.2933187,0.74239486,-0.0080572963,0.66991401,0
1.1618464,-3.2769678,2.6716285,0.74239486,-0.0080572963,0.66991401,0
0.99745131,3.7640388,2.9372604,0.74239486,-0.0080572963,0.66991401,0
-0.72206771,-2.4087341,4.3746176,0.74239486,-0.0080572963,0.66991401,0
0.079031944,-2.6677995,3.5022912,0.74239486,-0.0080572963,0.66991401,0
-1.4715383,5.0517807,-1.7792368,-0.74239486,0.0080572963,-0.66991401,0
-0.91969979,4.0623841,-2.9501858,-0.74239486,0.0080572963,-0.66991401,0
4.4221039,1.2718666,-2.8493557,0.55324125,-0.55657941,-0.61979294,0
-5.0247397,-2.200331,2.0683665,-0.74239486,0.0080572963,-0.66991401,0
2.7527661,-0.27294123,-2.8968232,0.55324125,-0.55657941,-0.61979294,0
-4.2874918,-3.3362608,1.8820825,-0.3778542,-0.83075523,0.40874416,0
1.5532622,-2.2980134,-2.2209265,0.55324125,-0.55657941,-0.61979294,0
-1.8419268,-2.8191311,-1.8629122,-0.74239486,0.0080572963,-0.66991401,0
-1.2148085,3.2771544,1.8521408,-0.55324125,0.55657941,0.61979294,0
-0.85226154,5.510004,-1.8748015,0.3778542,0.83075523,-0.40874416,0
1.0570612,4.7566795,2.3917317,-0.55324125,0.55657941,0.61979294,0
2.6342316,2.2553878,-4.9160943,0.3778542,0.83075523,-0.40874416,0
4.892662,2.5631156,-2.2272782,0.3778542,0.83075523,-0.40874416,0
-1.9182825,4.0235896,0.072601855,-0.55324125,0.55657941,0.61979294,0
4.1982799,1.1255209,-1.1843264,0.74239486,-0.0080572963,0.66991401,0
0.74808407,5.0493078,-1.4777675,0.3778542,0.83075523,-0.40874416,0
-3.043189,3.1285372,0.43663639,-0.55324125,0.55657941,0.61979294,0
-0.28769851,-4.235559,3.7243886,-0.3778542,-0.83075523,0.40874416,0
1.0516882,-2.9977212,-1.78074,0.55324125,-0.55657941,-0.61979294,0
-0.50125766,-0.52921605,-3.2670279,-0.74239486,0.0080572963,-0.66991401,0
3.2092009,1.1212186,-3.7030265,0.55324125,-0.55657941,-0.61979294,0
-2.3960607,2.4174209,-1.2117794,-0.74239486,0.0080572963,-0.66991401,0
-3.0367403,-2.0192327,-0.33570647,-0.74239486,0.0080572963,-0.66991401,0
1.1062059,-6.0698357,1.2206919,-0.3778542,-0.83075523,0.40874416,0
5.075201,2.6211715,-2.0549526,0.3778542,0.83075523,-0.40874416,0
2.6634631,3.0275309,0.98060822,0.74239486,-0.0080572963,0.66991401,0
-0.65581417,-1.4572061,-2.9886556,-0.74239486,0.0080572963,-0.66991401,0
-3.8401339,-3.5563548,1.2414212,-0.3778542,-0.83075523,0.40874416,0
1.2437692,3.0412402,2.3580587,0.74239486,-0.0080572963,0.66991401,0
2.2142317,1.3478897,1.0289056,0.74239486,-0.0080572963,0.66991401,0
1.0201154,-1.9724095,-3.1698081,0.55324125,-0.55657941,-0.61979294,0
-1.889256,-4.4311042,-1.9342873,-0.74239486,0.0080572963,-0.66991401,0
-5.3642287,-1.7685518,2.0305634,-0.74239486,0.0080572963,-0.66991401,0
-0.73437405,-5.4420667,0.1249187,-0.3778542,-0.83075523,0.40874416,0
-0.64317894,0.60445148,4.5534124,0.74239486,-0.0080572963,0.66991401,0
3.2392886,-0.67818689,-2.3755403,0.55324125,-0.55657941,-0.61979294,0
3.2327781,0.88383055,-3.4093757,0.55324125,-0.55657941,-0.61979294,0
2.8248744,4.4389696,0.76704645,0.74239486,-0.0080572963,0.66991401,0
-2.5405874,-5.2676945,-0.69550562,-0.3778542,-0.83075523,0.40874416,0
-3.8656592,0.74200368,1.2268479,-0.55324125,0.55657941,0.61979294,0
-0.57766294,3.7650361,2.0635777,-0.55324125,0.55657941,0.61979294,0
3.7771678,3.4996281,-1.9702923,0.3778542,0.83075523,-0.40874416,0
2.4890842,-4.54845,0.56372726,0.55324125,-0.55657941,-0.61979294,0
1.400806,4.830647,-0.79248071,0.3778542,0.83075523,-0.40874416,0
-2.0654845,-2.4926443,-1.400133,-0.74239486,0.0080572963,-0.66991401,0
-0.88998318,-5.9259963,-0.95323849,-0.3778542,-0.83075523,0.40874416,0
3.7488248,2.3518333,-3.9454231,0.3778542,0.83075523,-0.40874416,0
-2.7487471,-0.81921005,-0.94254398,-0.74239486,0.0080572963,-0.66991401,0
4.0990043,2.4652145,-3.5600965,0.3778542,0.83075523,-0.40874416,0
-4.4413342,-2.1504686,3.3612399,-0.3778542,-0.83075523,0.40874416,0
-0.93877518,4.1395354,-2.5036564,-0.74239486,0.0080572963,-0.66991401,0
-1.0526688,3.7729995,-2.4123428,-0.74239486,0.0080572963,-0.66991401,0
1.553296,2.5939717,-5.1712093,0.3778542,0.83075523,-0.40874416,0
0.26809126,4.2986102,-3.5930562,0.3778542,0.83075523,-0.40874416,0
-0.70457095,-3.8278689,3.7592022,-0.3778542,-0.83075523,0.40874416,0
3.9402046,2.6230543,-0.38018799,0.74239486,-0.0080572963,0.66991401,0
1.4416556,2.0391498,-5.3362885,-0.74239486,0.0080572963,-0.66991401,0
1.7583325,0.28786135,1.9744232,0.74239486,-0.0080572963,0.66991401,0
1.2371165,4.1298923,-2.8492966,0.3778542,0.83075523,-0.40874416,0
-2.3976865,-1.3361387,4.7801156,-0.55324125,0.55657941,0.61979294,0
0.16296339,1.4829955,3.327795,0.74239486,-0.0080572963,0.66991401,0
-4.498867,0.24796247,1.5030501,-0.55324125,0.55657941,0.61979294,0
-0.35830641,-4.4946108,-1.9114662,0.55324125,-0.55657941,-0.61979294,0
0.98890066,-2.0049171,-2.9647853,0.55324125,-0.55657941,-0.61979294,0
-4.0461979,-3.1933565,0.86771727,-0.74239486,0.0080572963,-0.66991401,0
1.1378975,-5.2916884,0.068274736,0.55324125,-0.55657941,-0.61979294,0
2.1768827,-4.0663881,1.129724,0.74239486,-0.0080572963,0.66991401,0
-0.16467524,-4.2701349,-1.7221763,0.55324125,-0.55657941,-0.61979294,0
-1.7735705,-5.2638235,-1.8665323,-0.74239486,0.0080572963,-0.66991401,0
-2.1179781,-4.784061,0.98618436,-0.3778542,-0.83075523,0.40874416,0
0.60363412,0.35951617,-4.3907232,-0.74239486,0.0080572963,-0.66991401,0
0.43884254,-2.8473322,3.3280933,0.74239486,-0.0080572963,0.66991401,0
-0.61460304,-4.8792081,1.8920066,-0.3778542,-0.83075523,0.40874416,0
2.7142177,-3.316278,0.69905764,0.74239486,-0.0080572963,0.66991401,0
1.0564499,-1.5091925,2.5175538,0.74239486,-0.0080572963,0.66991401,0
-3.3389266,-4.0868754,0.73336267,-0.3778542,-0.83075523,0.40874416,0
2.0360162,-5.3445301,1.2504655,0.55324125,-0.55657941,-0.61979294,0
-3.6577854,1.3117278,1.4468405,-0.55324125,0.55657941,0.61979294,0
0.36689815,-3.1674318,3.0791302,0.74239486,-0.0080572963,0.66991401,0
-2.326288,-4.2500372,-1.1341004,-0.74239486,0.0080572963,-0.66991401,0
0.28121042,4.10147,-3.8055286,0.3778542,0.83075523,-0.40874416,0
1.0065145,2.3906674,2.4778993,0.74239486,-0.0080572963,0.66991401,0
2.0391567,-2.5934494,1.6322532,0.74239486,-0.0080572963,0.66991401,0
1.659955,2.5065737,1.6612538,0.74239486,-0.0080572963,0.66991401,0
2.2070429,3.9354246,-1.8962865,0.3778542,0.83075523,-0.40874416,0
-1.3999286,4.1837316,0.5485785,-0.55324125,0.55657941,0.61979294,0
-4.37117,-2.9127164,2.404345,-0.3778542,-0.83075523,0.40874416,0
0.01910758,-3.3277564,3.6143639,0.74239486,-0.0080572963,0.66991401,0
-2.7449586,-2.9937932,-0.5089345,-0.74239486,0.0080572963,-0.66991401,0
4.2651091,0.3409059,-2.316102,0.55324125,-0.55657941,-0.61979294,0
1.7889242,-1.545054,-2.7996728,0.55324125,-0.55657941,-0.61979294,0
-0.019834548,-2.8587224,3.6282952,0.74239486,-0.0080572963,0.66991401,0
2.0596027,-1.8139529,-2.0328534,0.55324125,-0.55657941,-0.61979294,0
-1.4630708,-4.6173248,1.6537647,-0.3778542,-0.83075523,0.40874416,0
-4.4460673,-1.4565315,1.4221697,-0.74239486,0.0080572963,-0.66991401,0
2.8053546,-2.2639234,0.64409178,0.74239486,-0.0080572963,0.66991401,0
-1.6633445,-3.3547003,4.1752825,-0.3778542,-0.83075523,0.40874416,0
-1.6277685,2.2536206,-1.8329859,-0.74239486,0.0080572963,-0.66991401,0
-1.9407787,-2.9530549,-1.8547801,-0.74239486,0.0080572963,-0.66991401,0
-1.9120054,0.80175114,3.1677806,-0.55324125,0.55657941,0.61979294,0
1.1285824,3.7948196,-3.7042618,0.3778542,0.83075523,-0.40874416,0
-2.7789497,-5.0936651,-0.34223795,-0.3778542,-0.83075523,0.40874416,0
0.51463413,5.4116001,-0.36692142,0.3778542,0.83075523,-0.40874416,0
-0.41305828,5.2601404,0.83779621,-0.55324125,0.55657941,0.61979294,0
-2.7913482,2.8585906,-0.50326729,-0.74239486,0.0080572963,-0.66991401,0
-0.18945861,-0.48141396,3.7307243,0.74239486,-0.0080572963,0.66991401,0
2.971055,3.872138,-1.717659,0.3778542,0.83075523,-0.40874416,0
-1.8057774,3.2541499,-1.7542508,-0.74239486,0.0080572963,-0.66991401,0
-4.2610855,-2.8026526,2.2685044,-0.3778542,-0.83075523,0.40874416,0
-0.36534166,5.592308,0.58213282,-0.55324125,0.55657941,0.61979294,0
1.6809366,0.88458937,-4.6413226,0.55324125,-0.55657941,-0.61979294,0
-3.280216,1.782413,0.17542708,-0.74239486,0.0080572963,-0.66991401,0
3.7485182,2.8117318,-3.525737,0.3778542,0.83075523,-0.40874416,0
2.534472,2.2286689,-5.2829285,0.3778542,0.83075523,-0.40874416,0
1.2017801,-5.6125937,2.2677724,-0.3778542,-0.83075523,0.40874416,0
-2.1558106,0.46203399,3.5939474,-0.55324125,0.55657941,0.61979294,0
2.9483933,0.3794837,0.36946869,0.74239486,-0.0080572963,0.66991401,0
-1.6299582,1.7105783,2.6776147,-0.55324125,0.55657941,0.61979294,0
2.3380337,3.1004198,1.0216615,0.74239486,-0.0080572963,0.66991401,0
2.082557,2.5975876,-5.4726138,0.3778542,0.83075523,-0.40874416,0
0.028909683,-5.6896877,0.9082222,-0.3778542,-0.83075523,0.40874416,0
5.3123789,1.8457923,-2.1342425,0.74239486,-0.0080572963,0.66991401,0
3.0749879,1.2379832,-4.1126695,0.55324125,-0.55657941,-0.61979294,0
2.4598584,3.7413158,1.2981501,0.74239486,-0.0080572963,0.66991401,0
2.2200446,-5.4506416,1.1606979,0.55324125,-0.55657941,-0.61979294,0
0.65230322,2.1781912,3.0923631,0.74239486,-0.0080572963,0.66991401,0
2.1645157,-0.60111403,1.1883264,0.74239486,-0.0080572963,0.66991401,0
0.96609223,-1.3410424,2.4171669,0.74239486,-0.0080572963,0.66991401,0
2.4895456,-2.3064823,-1.6473924,0.55324125,-0.55657941,-0.61979294,0
-2.7603803,-1.156657,-0.93520021,-0.74239486,0.0080572963,-0.66991401,0
2.2071598,-2.680059,-1.2165362,0.55324125,-0.55657941,-0.61979294,0
1.5392983,5.284761,-0.47433519,0.3778542,0.83075523,-0.40874416,0
0.97222137,-2.9828982,-2.2262933,0.55324125,-0.55657941,-0.61979294,0
-1.4520063,-5.1243281,-1.92922,-0.74239486,0.0080572963,-0.66991401,0
-0.057225227,-1.5271914,-3.9123006,-0.74239486,0.0080572963,-0.66991401,0
2.6870966,-4.2200003,0.33468229,0.55324125,-0.55657941,-0.61979294,0
-3.2498753,0.53220105,2.2745457,-0.55324125,0.55657941,0.61979294,0
-0.48813629,-3.9877145,-2.6855826,0.55324125,-0.55657941,-0.61979294,0
1.0529571,-5.1610742,-0.0075678825,0.55324125,-0.55657941,-0.61979294,0
-2.6056983,-5.1929035,-0.40338802,-0.3778542,-0.83075523,0.40874416,0
-0.82379079,-1.9943892,4.3285632,0.74239486,-0.0080572963,0.66991401,0
4.3053708,2.8223619,-2.5234303,0.3778542,0.83075523,-0.40874416,0
3.0681789,-1.4962814,-1.5248864,0.55324125,-0.55657941,-0.61979294,0
4.7708831,2.9822917,-2.1644607,0.3778542,0.83075523,-0.40874416,0
3.1414032,-0.98831916,-2.164731,0.55324125,-0.55657941,-0.61979294,0
-2.6579599,2.2039766,-1.0184094,-0.74239486,0.0080572963,-0.66991401,0
3.5854459,2.4595938,-4.243525,0.3778542,0.83075523,-0.40874416,0
1.5857357,1.1470587,2.1565299,0.74239486,-0.0080572963,0.66991401,0
2.9182935,4.4470186,-0.15877295,0.3778542,0.83075523,-0.40874416,0
0.70713329,4.6393337,2.2512326,-0.55324125,0.55657941,0.61979294,0
3.4307933,0.91285872,0.12769222,0.74239486,-0.0080572963,0.66991401,0
2.6175942,4.5521574,-0.95527411,0.3778542,0.83075523,-0.40874416,0
1.9951367,-3.5192666,1.3556172,0.74239486,-0.0080572963,0.66991401,0
0.19308949,5.6163826,-0.64595652,0.3778542,0.83075523,-0.40874416,0
1.5603402,-1.169273,2.1599798,0.74239486,-0.0080572963,0.66991401,0
2.9776835,2.5540414,0.66066456,0.74239486,-0.0080572963,0.66991401,0
-2.4762738,-5.1494436,-0.91398954,-0.3778542,-0.83075523,0.40874416,0
-0.96161729,1.7060094,-2.7173762,-0.74239486,0.0080572963,-0.66991401,0
-0.21182871,-5.0885801,-1.0147574,0.55324125,-0.55657941,-0.61979294,0
-2.9031212,0.16205025,-0.66947734,-0.74239486,0.0080572963,-0.66991401,0
3.2828085,-0.12015128,-2.8647974,0.55324125,-0.55657941,-0.61979294,0
1.2761828,4.4125509,-2.1762094,0.3778542,0.83075523,-0.40874416,0
-3.9914482,-1.1871555,3.3834059,-0.55324125,0.55657941,0.61979294,0
0.41817284,4.7910109,1.8967531,-0.55324125,0.55657941,0.61979294,0
1.8558295,4.1840782,-2.2168555,0.3778542,0.83075523,-0.40874416,0
-2.1027949,-4.4582291,0.79782915,-0.3778542,-0.83075523,0.40874416,0
-0.49494076,0.82683569,4.3234978,0.74239486,-0.0080572963,0.66991401,0
0.85905814,0.2780799,-4.8976126,-0.74239486,0.0080572963,-0.66991401,0
-2.4478178,-3.2583754,3.3658283,-0.3778542,-0.83075523,0.40874416,0
0.40733653,3.5460119,-4.2865019,-0.74239486,0.0080572963,-0.66991401,0
-1.2268481,-1.5334643,5.1630454,0.74239486,-0.0080572963,0.66991401,0
3.2908592,-0.055657625,-0.065667629,0.74239486,-0.0080572963,0.66991401,0
-0.04371202,-1.9711834,3.7567868,0.74239486,-0.0080572963,0.66991401,0
-2.7170215,-3.1309252,3.7688203,-0.3778542,-0.83075523,0.40874416,0
-1.5577898,-3.4059169,3.3939676,-0.3778542,-0.83075523,0.40874416,0
-0.53197956,5.1122313,-2.5554492,0.3778542,0.83075523,-0.40874416,0
2.0406086,4.2552381,-1.9407218,0.3778542,0.83075523,-0.40874416,0
1.2265635,-5.5689092,0.34756231,0.55324125,-0.55657941,-0.61979294,0
-0.37508798,-4.7816076,2.2236524,-0.3778542,-0.83075523,0.40874416,0
1.0691481,4.2099352,2.5648782,0.74239486,-0.0080572963,0.66991401,0
-2.3091178,2.4183583,1.4500841,-0.55324125,0.55657941,0.61979294,0
-3.6943111,-2.341526,4.0821886,-0.3778542,-0.83075523,0.40874416,0
1.9107773,3.1240518,-4.1398649,0.3778542,0.83075523,-0.40874416,0
0.56863415,4.54883,-2.7279885,0.3778542,0.83075523,-0.40874416,0
-0.5488379,-4.654748,2.5125115,-0.3778542,-0.83075523,0.40874416,0
-1.728003,2.8920405,1.2657444,-0.55324125,0.55657941,0.61979294,0
-1.9560776,-2.2148089,5.9523034,-0.55324125,0.55657941,0.61979294,0
-5.1192741,-1.7862077,1.9624903,-0.74239486,0.0080572963,-0.66991401,0
0.22511864,-4.5911088,2.7256446,-0.3778542,-0.83075523,0.40874416,0
2.5819092,-0.39600468,0.97780675,0.74239486,-0.0080572963,0.66991401,0
5.414361,1.6972189,-2.0312676,0.74239486,-0.0080572963,0.66991401,0
-0.15738845,1.1025455,-3.7522509,-0.74239486,0.0080572963,-0.66991401,0
-3.8712039,-2.4905794,4.015234,-0.3778542,-0.83075523,0.40874416,0
3.5281272,-0.39172554,-1.8379718,0.55324125,-0.55657941,-0.61979294,0
-2.1941226,3.5693331,-1.2362764,-0.74239486,0.0080572963,-0.66991401,0
-3.3607619,0.70311022,-0.063597322,-0.74239486,0.0080572963,-0.66991401,0
0.60029233,-4.2187772,3.2102094,0.74239486,-0.0080572963,0.66991401,0
0.35651863,-1.6481464,3.5910115,0.74239486,-0.0080572963,0.66991401,0
-1.1868258,-4.6928802,-2.199532,0.55324125,-0.55657941,-0.61979294,0
1.6057718,1.1050406,-5.4788327,0.55324125,-0.55657941,-0.61979294,0
-1.8287688,-3.7592077,2.4430475,-0.3778542,-0.83075523,0.40874416,0
0.00070047379,-5.8796134,0.38150764,-0.3778542,-0.83075523,0.40874416,0
1.5329976,0.21339095,-4.5443244,0.55324125,-0.55657941,-0.61979294,0
0.19038153,4.4781308,2.0310245,-0.55324125,0.55657941,0.61979294,0
5.2658386,1.079422,-2.0702391,0.55324125,-0.55657941,-0.61979294,0
1.7719696,4.8423758,-0.320714,0.3778542,0.83075523,-0.40874416,0
-4.9635005,-2.1037626,3.2518682,-0.55324125,0.55657941,0.61979294,0
-0.9294219,-1.1226414,-2.7861292,-0.74239486,0.0080572963,-0.66991401,0
2.0144672,1.6356769,1.5224143,0.74239486,-0.0080572963,0.66991401,0
-2.7518809,-3.7179484,2.2976227,-0.3778542,-0.83075523,0.40874416,0
1.5286434,1.7694386,2.3510599,0.74239486,-0.0080572963,0.66991401,0
4.2742472,2.4313071,-0.69972038,0.74239486,-0.0080572963,0.66991401,0
0.64145136,-5.706131,-0.032928467,0.55324125,-0.55657941,-0.61979294,0
-2.1138964,4.5158567,-0.077193022,-0.55324125,0.55657941,0.61979294,0
0.32714605,-5.5715523,0.93681955,-0.3778542,-0.83075523,0.40874416,0
-3.3912134,-2.1580405,4.2372541,-0.55324125,0.55657941,0.61979294,0
1.5447981,-0.10121316,-4.2332983,0.55324125,-0.55657941,-0.61979294,0
-3.991847,0.27371097,1.5615685,-0.55324125,0.55657941,0.61979294,0
-2.7092097,2.7046731,1.0129437,-0.55324125,0.55657941,0.61979294,0
-3.543889,2.6842961,-0.015640497,-0.74239486,0.0080572963,-0.66991401,0
-0.85199213,2.0473356,-2.7720144,-0.74239486,0.0080572963,-0.66991401,0
-4.1145644,-1.1903663,0.96770358,-0.74239486,0.0080572963,-0.66991401,0
-2.120574,-2.3935065,-1.374331,-0.74239486,0.0080572963,-0.66991401,0
-1.3473659,-5.791079,-0.90092802,-0.3778542,-0.83075523,0.40874416,0
-0.88929987,3.151587,1.7313802,-0.55324125,0.55657941,0.61979294,0
1.7133036,3.4741297,-3.796381,0.3778542,0.83075523,-0.40874416,0
0.10747916,2.7309449,-3.8945465,-0.74239486,0.0080572963,-0.66991401,0
2.172209,3.1942146,-4.060873,0.3778542,0.83075523,-0.40874416,0
-0.62397909,-4.3749127,2.4165838,-0.3778542,-0.83075523,0.40874416,0
-1.9635762,-0.86096096,-1.5512352,-0.74239486,0.0080572963,-0.66991401,0
-0.026735008,2.2769647,-3.6341426,-0.74239486,0.0080572963,-0.66991401,0
-2.8433695,-3.2792482,-0.45096087,-0.74239486,0.0080572963,-0.66991401,0
-0.14214563,-0.46489078,4.0606227,0.74239486,-0.0080572963,0.66991401,0
-3.0011628,-3.7305098,1.8288596,-0.3778542,-0.83075523,0.40874416,0
1.3741693,-3.9543934,2.355103,0.74239486,-0.0080572963,0.66991401,0
-1.7817676,-2.1098852,-1.6335337,-0.74239486,0.0080572963,-0.66991401,0
1.6544471,-2.4227171,-1.7365804,0.55324125,-0.55657941,-0.61979294,0
1.4784824,-1.2654641,1.8530159,0.74239486,-0.0080572963,0.66991401,0
-1.1451774,2.7814023,1.8207052,-0.55324125,0.55657941,0.61979294,0
3.1822982,2.9905386,-3.1099153,0.3778542,0.83075523,-0.40874416,0
1.7788799,-5.0586777,1.6218159,0.74239486,-0.0080572963,0.66991401,0
0.79178047,4.7458692,-1.924968,0.3778542,0.83075523,-0.40874416,0
-5.0427504,-2.4539306,2.8518627,-0.3778542,-0.83075523,0.40874416,0
3.209204,3.8692808,-1.4156592,0.3778542,0.83075523,-0.40874416,0
-4.1504049,-2.5459063,3.172796,-0.3778542,-0.83075523,0.40874416,0
-3.9366183,1.6646562,0.8281765,-0.55324125,0.55657941,0.61979294,0
-4.9516759,-2.4935298,2.5124273,-0.3778542,-0.83075523,0.40874416,0
0.97114277,5.5962276,-0.010080814,0.3778542,0.83075523,-0.40874416,0
-3.659163,-0.94345832,3.5139103,-0.55324125,0.55657941,0.61979294,0
0.83047056,0.60510653,-4.5594668,-0.74239486,0.0080572963,-0.66991401,0
3.1690691,2.8521791,-3.1354613,0.3778542,0.83075523,-0.40874416,0
-1.1321876,-0.66077423,4.9133682,0.74239486,-0.0080572963,0.66991401,0
-3.1664438,0.94151735,2.2905536,-0.55324125,0.55657941,0.61979294,0
-1.255753,1.6789151,2.8933563,-0.55324125,0.55657941,0.61979294,0
-0.37173986,-4.9851437,-1.2768483,0.55324125,-0.55657941,-0.61979294,0
2.2883797,3.8875585,-2.2393827,0.3778542,0.83075523,-0.40874416,0
0.73862267,5.7719665,-0.23422122,0.3778542,0.83075523,-0.40874416,0
-3.5546827,0.17592502,2.5808363,-0.55324125,0.55657941,0.61979294,0
2.8514593,-3.4131336,-0.13319641,0.55324125,-0.55657941,-0.61979294,0
-0.43166542,-6.1014895,-0.63094759,-0.3778542,-0.83075523,0.40874416,0
1.7590495,3.1855507,-4.2337832,0.3778542,0.83075523,-0.40874416,0
-2.1773047,3.9221294,0.29182705,-0.55324125,0.55657941,0.61979294,0
-0.52025366,5.9891095,-0.20973754,-0.55324125,0.55657941,0.61979294,0
-2.3204,-4.5877371,0.43527365,-0.3778542,-0.83075523,0.40874416,0
1.6867235,0.93896353,-4.6675253,0.55324125,-0.55657941,-0.61979294,0
0.2023859,3.7499378,2.3128238,-0.55324125,0.55657941,0.61979294,0
0.76573181,4.8427372,2.2672827,-0.55324125,0.55657941,0.61979294,0
-0.45420086,-4.3013854,3.1872993,-0.3778542,-0.83075523,0.40874416,0
-0.96277261,5.239511,-2.2891657,0.3778542,0.83075523,-0.40874416,0
1.3153037,0.10898304,2.2060792,0.74239486,-0.0080572963,0.66991401,0
-0.18439722,-5.9256964,-0.071456432,-0.3778542,-0.83075523,0.40874416,0
-0.076607227,6.2181578,0.061879635,0.3778542,0.83075523,-0.40874416,0
2.1865535,-2.971601,1.2784135,0.74239486,-0.0080572963,0.66991401,0
-1.3344671,-4.5344634,1.9751344,-0.3778542,-0.83075523,0.40874416,0
0.66349697,-6.1560555,0.76236773,-0.3778542,-0.83075523,0.40874416,0
-2.536963,-5.0490704,-1.0522869,-0.74239486,0.0080572963,-0.66991401,0
-0.40118909,-4.621695,2.1760235,-0.3778542,-0.83075523,0.40874416,0
-2.1462488,1.3540179,-1.1562824,-0.74239486,0.0080572963,-0.66991401,0
3.3188095,-0.68190837,-2.2557869,0.55324125,-0.55657941,-0.61979294,0
-0.90028811,1.5674829,3.2638106,-0.55324125,0.55657941,0.61979294,0
1.6386747,-4.9432755,0.029990911,0.55324125,-0.55657941,-0.61979294,0
1.8600141,3.1206055,-4.5199742,0.3778542,0.83075523,-0.40874416,0
-0.21509337,5.14184,-2.4321864,0.3778542,0.83075523,-0.40874416,0
2.0036716,1.3839809,1.3585501,0.74239486,-0.0080572963,0.66991401,0
-0.68913603,-5.7656798,-1.023982,0.55324125,-0.55657941,-0.61979294,0
2.7574594,-3.4580278,0.78235722,0.74239486,-0.0080572963,0.66991401,0
-2.3773506,-3.4952006,3.1944344,-0.3778542,-0.83075523,0.40874416,0
2.493217,-0.48531508,0.85705507,0.74239486,-0.0080572963,0.66991401,0
-4.8691702,-1.4161501,1.6650622,-0.74239486,0.0080572963,-0.66991401,0
2.5543175,-0.57157719,-2.8522167,0.55324125,-0.55657941,-0.61979294,0
-0.95145178,2.998611,2.2403216,-0.55324125,0.55657941,0.61979294,0
0.72622633,5.8908582,0.65324759,0.3778542,0.83075523,-0.40874416,0
-1.9687968,-2.6425486,5.3073797,-0.3778542,-0.83075523,0.40874416,0
0.39572358,-0.49875975,3.3011584,0.74239486,-0.0080572963,0.66991401,0
2.9946477,2.2340972,-4.6268077,0.3778542,0.83075523,-0.40874416,0
3.2426424,2.8087971,0.3444562,0.74239486,-0.0080572963,0.66991401,0
2.9057178,-2.016238,0.46882927,0.74239486,-0.0080572963,0.66991401,0
0.14114428,4.9030318,-2.5038662,0.3778542,0.83075523,-0.40874416,0
1.7864659,-3.7082937,1.9931897,0.74239486,-0.0080572963,0.66991401,0
2.7140613,1.1873193,0.89293134,0.74239486,-0.0080572963,0.66991401,0
3.2335207,-0.66337371,-2.1992149,0.55324125,-0.55657941,-0.61979294,0
-3.6225979,-2.9619427,2.6113274,-0.3778542,-0.83075523,0.40874416,0
-2.5025005,-4.9339857,-0.38354969,-0.3778542,-0.83075523,0.40874416,0
-1.4763427,0.35560071,-1.885227,-0.74239486,0.0080572963,-0.66991401,0
-1.613682,-1.581286,5.527977,0.74239486,-0.0080572963,0.66991401,0
-2.5068884,-3.1751015,3.1600826,-0.3778542,-0.83075523,0.40874416,0
-2.5708611,-4.8436475,-1.1290853,-0.74239486,0.0080572963,-0.66991401,0
-0.9785471,0.062103152,-2.7623453,-0.74239486,0.0080572963,-0.66991401,0
3.581491,-0.44258308,-0.23682475,0.74239486,-0.0080572963,0.66991401,0
3.3800659,-2.1823032,-0.59598172,0.55324125,-0.55657941,-0.61979294,0
-4.1092558,-3.0371697,2.6589901,-0.3778542,-0.83075523,0.40874416,0
2.8554783,4.4710245,-0.068997383,0.3778542,0.83075523,-0.40874416,0
2.0619583,2.2810981,1.6637195,0.74239486,-0.0080572963,0.66991401,0
1.5986099,5.7619705,1.0962026,0.3778542,0.83075523,-0.40874416,0
-0.26725149,-4.1882772,-2.2611146,0.55324125,-0.55657941,-0.61979294,0
-1.6167307,0.86483371,3.7283421,-0.55324125,0.55657941,0.61979294,0
1.3923826,5.8544765,0.69357347,0.3778542,0.83075523,-0.40874416,0
-4.8050623,-2.4916537,2.2933664,-0.3778542,-0.83075523,0.40874416,0
2.9812965,4.9260569,0.23750687,0.74239486,-0.0080572963,0.66991401,0
-4.6857977,-3.270251,1.1324992,-0.74239486,0.0080572963,-0.66991401,0
-1.3926282,-5.1316652,0.21331,-0.3778542,-0.83075523,0.40874416,0
1.236383,4.8414097,2.0889707,-0.55324125,0.55657941,0.61979294,0
0.53134108,-0.94520712,-4.1921258,-0.74239486,0.0080572963,-0.66991401,0
0.35034847,-5.6591353,-0.45794487,0.55324125,-0.55657941,-0.61979294,0
-3.3295116,1.5972247,1.1347975,-0.55324125,0.55657941,0.61979294,0
2.2026458,-4.2884355,0.15781468,0.55324125,-0.55657941,-0.61979294,0
1.1815295,5.9211936,1.5837586,-0.55324125,0.55657941,0.61979294,0
-0.31733787,-4.447639,2.8256793,-0.3778542,-0.83075523,0.40874416,0
-4.4226065,-3.3040156,1.6558394,-0.3778542,-0.83075523,0.40874416,0
2.7527254,-2.4776053,-1.1269426,0.55324125,-0.55657941,-0.61979294,0
-0.75144064,0.90565705,-3.0893469,-0.74239486,0.0080572963,-0.66991401,0
-3.160943,-4.2582154,1.132967,-0.3778542,-0.83075523,0.40874416,0
-2.0367084,1.2856649,-1.3568075,-0.74239486,0.0080572963,-0.66991401,0
-1.3304362,-2.1440697,-2.0679617,-0.74239486,0.0080572963,-0.66991401,0
-4.0971966,-0.23197842,2.1652658,-0.55324125,0.55657941,0.61979294,0
-4.1162972,-2.615283,3.1418877,-0.3778542,-0.83075523,0.40874416,0
2.0919623,5.4003439,1.5124738,0.74239486,-0.0080572963,0.66991401,0
1.3729451,-5.4118896,1.885228,0.74239486,-0.0080572963,0.66991401,0
-1.0403852,1.1523926,3.6133678,-0.55324125,0.55657941,0.61979294,0
-1.1351857,-1.7054014,-2.5913773,-0.74239486,0.0080572963,-0.66991401,0
-1.2899055,1.4945402,3.3007703,-0.55324125,0.55657941,0.61979294,0
-0.39791679,-4.794158,-1.8270311,0.55324125,-0.55657941,-0.61979294,0
1.5935738,4.9033394,-0.95466185,0.3778542,0.83075523,-0.40874416,0
2.7218161,3.0285113,-3.2142303,0.3778542,0.83075523,-0.40874416,0
-0.48280287,3.8312974,-3.0043299,-0.74239486,0.0080572963,-0.66991401,0
4.8295918,3.3038204,-1.3339386,0.3778542,0.83075523,-0.40874416,0
4.4418592,3.4099033,-1.4119844,0.3778542,0.83075523,-0.40874416,0
1.0884452,-4.7860894,2.247102,0.74239486,-0.0080572963,0.66991401,0
-3.7040119,0.49780869,1.8142639,-0.55324125,0.55657941,0.61979294,0
-3.5999722,-1.0337222,3.2324035,-0.55324125,0.55657941,0.61979294,0
0.65312815,-1.2885789,-4.2067661,0.55324125,-0.55657941,-0.61979294,0
-4.3845139,0.27235556,1.3451929,-0.55324125,0.55657941,0.61979294,0
0.44381618,-1.9973348,-3.4524431,0.55324125,-0.55657941,-0.61979294,0
3.7651367,1.5921743,-0.51295662,0.74239486,-0.0080572963,0.66991401,0
1.666883,4.347445,2.125674,0.74239486,-0.0080572963,0.66991401,0
3.0449879,-2.133436,-1.1126075,0.55324125,-0.55657941,-0.61979294,0
2.090028,0.62987876,1.259104,0.74239486,-0.0080572963,0.66991401,0
0.15090632,-4.8840551,2.4759603,-0.3778542,-0.83075523,0.40874416,0
-0.41535735,5.3804979,-1.7195494,0.3778542,0.83075523,-0.40874416,0
3.0766354,0.71345949,0.5308814,0.74239486,-0.0080572963,0.66991401,0
-1.3125005,-3.6835847,-2.2880237,-0.74239486,0.0080572963,-0.66991401,0
2.9681058,3.1644337,-3.2885437,0.3778542,0.83075523,-0.40874416,0
-2.3350506,1.2711499,2.6919806,-0.55324125,0.55657941,0.61979294,0
3.3850353,3.6767759,-1.4948475,0.3778542,0.83075523,-0.40874416,0
-0.51308095,-3.3934994,4.4022555,0.74239486,-0.0080572963,0.66991401,0
-0.53492045,1.6427344,-2.8863056,-0.74239486,0.0080572963,-0.66991401,0
-2.7857971,-4.9807234,-0.34317684,-0.3778542,-0.83075523,0.40874416,0
2.6756895,1.3609309,-4.3685384,0.55324125,-0.55657941,-0.61979294,0
0.77702236,3.9974866,2.6414316,-0.55324125,0.55657941,0.61979294,0
4.849515,2.4218102,-2.8651209,0.3778542,0.83075523,-0.40874416,0
-0.12458181,-5.3586264,-1.0226302,0.55324125,-0.55657941,-0.61979294,0
-0.24829626,3.8272347,1.6688414,-0.55324125,0.55657941,0.61979294,0
1.4945607,-4.619729,-0.02007699,0.55324125,-0.55657941,-0.61979294,0
3.6994963,-1.770227,-0.3014276,0.74239486,-0.0080572963,0.66991401,0
1.3760026,3.3399162,-3.7657194,0.3778542,0.83075523,-0.40874416,0
1.6374972,-1.1651642,1.7292752,0.74239486,-0.0080572963,0.66991401,0
-5.0695295,-1.8748796,2.5768571,-0.55324125,0.55657941,0.61979294,0
2.5120342,1.0873034,1.1208609,0.74239486,-0.0080572963,0.66991401,0
1.4918985,2.5888643,2.0470176,0.74239486,-0.0080572963,0.66991401,0
-5.3199048,-2.3518271,2.3064265,-0.3778542,-0.83075523,0.40874416,0
1.6041074,3.8600452,-2.9360611,0.3778542,0.83075523,-0.40874416,0
-0.0021748543,0.25724596,-3.6251838,-0.74239486,0.0080572963,-0.66991401,0
-3.3070798,-3.8705244,1.7605424,-0.3778542,-0.83075523,0.40874416,0
1.6572697,-2.8208272,1.9599794,0.74239486,-0.0080572963,0.66991401,0
0.10414958,0.36449581,-4.0322599,-0.74239486,0.0080572963,-0.66991401,0
3.5082998,3.6793671,-1.5145607,0.3778542,0.83075523,-0.40874416,0
-1.7088339,-4.651958,0.72061849,-0.3778542,-0.83075523,0.40874416,0
-4.0936441,0.76192999,0.96720481,-0.74239486,0.0080572963,-0.66991401,0
-3.6823473,-0.12222385,0.27163005,-0.74239486,0.0080572963,-0.66991401,0
0.60966206,-5.757143,1.5808091,-0.3778542,-0.83075523,0.40874416,0
-1.0414521,0.33504295,-2.7490973,-0.74239486,0.0080572963,-0.66991401,0
-1.9011657,2.6622934,-1.8471656,-0.74239486,0.0080572963,-0.66991401,0
2.8692138,-0.94230115,-2.3602622,0.55324125,-0.55657941,-0.61979294,0
-2.2375488,1.878809,-1.303403,-0.74239486,0.0080572963,-0.66991401,0
-2.115289,4.7811189,-0.49067295,-0.55324125,0.55657941,0.61979294,0
2.2920506,1.064474,-4.2690673,0.55324125,-0.55657941,-0.61979294,0
2.4706953,-3.0118351,-0.95514226,0.55324125,-0.55657941,-0.61979294,0
-3.9982698,-1.485455,3.678031,-0.55324125,0.55657941,0.61979294,0
2.371093,2.6437807,0.86731148,0.74239486,-0.0080572963,0.66991401,0
1.6855906,3.552408,-3.7689867,0.3778542,0.83075523,-0.40874416,0
0.29763111,-3.5067573,3.4090559,0.74239486,-0.0080572963,0.66991401,0
-0.70199513,-4.8607426,1.4980705,-0.3778542,-0.83075523,0.40874416,0
-1.337502,-5.0647378,-2.5594714,-0.74239486,0.0080572963,-0.66991401,0
2.8880181,-0.28071737,-2.6813712,0.55324125,-0.55657941,-0.61979294,0
-1.388629,-1.668185,-2.1483629,-0.74239486,0.0080572963,-0.66991401,0
-2.712153,-2.0514796,4.9943876,-0.55324125,0.55657941,0.61979294,0
-1.4081283,-2.7246528,-2.3226919,-0.74239486,0.0080572963,-0.66991401,0
-1.5905906,3.9346192,-2.0883861,-0.74239486,0.0080572963,-0.66991401,0
-1.202466,-1.2419018,-2.7047744,-0.74239486,0.0080572963,-0.66991401,0
-0.836191,-4.1666036,3.0636292,-0.3778542,-0.83075523,0.40874416,0
-2.2567246,-0.61305857,4.19238,-0.55324125,0.55657941,0.61979294,0
0.26208162,-5.4323721,1.8540814,-0.3778542,-0.83075523,0.40874416,0
-2.4028392,-4.3939176,1.0659235,-0.3778542,-0.83075523,0.40874416,0
1.4246731,3.5325639,-3.4932961,0.3778542,0.83075523,-0.40874416,0
-2.8534949,-2.3110576,4.4952936,-0.3778542,-0.83075523,0.40874416,0
2.643662,0.91517544,1.1089135,0.74239486,-0.0080572963,0.66991401,0
-2.3399343,-2.5377009,4.7784657,-0.3778542,-0.83075523,0.40874416,0
-2.1008565,-2.8687577,-1.2800155,-0.74239486,0.0080572963,-0.66991401,0
-1.4083431,-2.1037021,-2.3707743,-0.74239486,0.0080572963,-0.66991401,0
0.70306015,5.414464,1.2268476,-0.55324125,0.55657941,0.61979294,0
0.046926498,-2.2379146,-3.498049,0.55324125,-0.55657941,-0.61979294,0
-0.20835829,-5.903656,0.52079296,-0.3778542,-0.83075523,0.40874416,0
-1.6517861,-3.6418846,3.3280761,-0.3778542,-0.83075523,0.40874416,0
-0.84841299,-4.162734,-2.3964453,0.55324125,-0.55657941,-0.61979294,0
-1.3424437,-0.53367543,4.7135863,-0.55324125,0.55657941,0.61979294,0
-2.6104808,-0.41601396,-0.69354486,-0.74239486,0.0080572963,-0.66991401,0
-4.1325617,-2.4003911,3.09482,-0.3778542,-0.83075523,0.40874416,0
-0.48756242,0.41917276,4.0152297,0.74239486,-0.0080572963,0.66991401,0
0.60951233,-5.2671986,1.9196699,-0.3778542,-0.83075523,0.40874416,0
-0.40799809,-0.39036834,-3.2089126,-0.74239486,0.0080572963,-0.66991401,0
-1.5066217,2.0936809,-1.9454303,-0.74239486,0.0080572963,-0.66991401,0
-2.1063325,-3.5516193,2.7603798,-0.3778542,-0.83075523,0.40874416,0
0.88271105,1.9121137,-4.5094728,-0.74239486,0.0080572963,-0.66991401,0
1.7805543,2.739924,2.0223904,0.74239486,-0.0080572963,0.66991401,0
3.3718731,2.3704262,-4.786797,0.3778542,0.83075523,-0.40874416,0
-0.5911274,0.92194277,3.9737525,-0.55324125,0.55657941,0.61979294,0
1.8681344,3.5945575,-2.7175441,0.3778542,0.83075523,-0.40874416,0
1.9971178,0.95373088,-4.8312502,0.55324125,-0.55657941,-0.61979294,0
-1.5572097,4.5011115,-1.7052469,-0.74239486,0.0080572963,-0.66991401,0
1.8612318,2.5211122,1.5908446,0.74239486,-0.0080572963,0.66991401,0
0.35586822,-4.790133,3.251884,-0.3778542,-0.83075523,0.40874416,0
-3.3800588,3.0443599,0.12757194,-0.55324125,0.55657941,0.61979294,0
2.215481,-4.0204864,1.2446342,0.74239486,-0.0080572963,0.66991401,0
-2.7891841,-2.6566942,4.185544,-0.3778542,-0.83075523,0.40874416,0
2.5358629,1.3156683,-4.2475929,0.55324125,-0.55657941,-0.61979294,0
0.3628304,-5.2822013,1.9063127,-0.3778542,-0.83075523,0.40874416,0
0.57058072,0.88083291,3.0131009,0.74239486,-0.0080572963,0.66991401,0
1.4715512,-0.99395525,2.0776629,0.74239486,-0.0080572963,0.66991401,0
-5.2104282,-2.4200587,2.0923619,-0.74239486,0.0080572963,-0.66991401,0
0.58178473,3.8515592,2.6828156,-0.55324125,0.55657941,0.61979294,0
-1.6684628,-1.3579789,5.3340111,-0.55324125,0.55657941,0.61979294,0
1.0034103,5.9190893,1.1091378,0.3778542,0.83075523,-0.40874416,0
2.0460913,-1.2756212,-2.5783734,0.55324125,-0.55657941,-0.61979294,0
2.1325018,-4.3440561,0.30685157,0.55324125,-0.55657941,-0.61979294,0
-0.91039932,-4.3254738,2.4550591,-0.3778542,-0.83075523,0.40874416,0
-0.20550585,-5.562036,0.71596766,-0.3778542,-0.83075523,0.40874416,0
1.6388184,4.5257149,-1.2825711,0.3778542,0.83075523,-0.40874416,0
0.1217556,3.6012065,2.2684734,-0.55324125,0.55657941,0.61979294,0
3.445559,4.5670533,-0.13577747,0.3778542,0.83075523,-0.40874416,0
-2.3218267,1.382863,2.1901629,-0.55324125,0.55657941,0.61979294,0
-1.7741108,-1.4495085,-1.8092505,-0.74239486,0.0080572963,-0.66991401,0
-1.8880637,-4.0992074,-1.9465921,-0.74239486,0.0080572963,-0.66991401,0
-0.9835968,4.9424968,0.013421297,-0.55324125,0.55657941,0.61979294,0
-2.9971666,1.2614164,-0.46212971,-0.74239486,0.0080572963,-0.66991401,0
1.8956072,-0.69233626,-3.2773302,0.55324125,-0.55657941,-0.61979294,0
0.30182278,4.3709259,-3.1473665,0.3778542,0.83075523,-0.40874416,0
-0.44222307,-1.8012083,-3.0269098,-0.74239486,0.0080572963,-0.66991401,0
-1.9594721,-2.9076843,4.8527818,-0.3778542,-0.83075523,0.40874416,0
-3.1064653,-3.2867231,2.4206154,-0.3778542,-0.83075523,0.40874416,0
-3.6739786,-2.5377669,0.4709959,-0.74239486,0.0080572963,-0.66991401,0
3.2545514,3.2103996,-2.3260117,0.3778542,0.83075523,-0.40874416,0
-1.3075538,5.7248373,-2.2003765,0.3778542,0.83075523,-0.40874416,0
1.1523302,-4.8591051,2.1003222,0.74239486,-0.0080572963,0.66991401,0
-2.687753,-3.2645466,2.7388833,-0.3778542,-0.83075523,0.40874416,0
-3.9780784,-1.1075199,0.91262698,-0.74239486,0.0080572963,-0.66991401,0
-2.446943,4.0148878,0.066796392,-0.55324125,0.55657941,0.61979294,0
-0.63978994,3.7508712,-2.8033581,-0.74239486,0.0080572963,-0.66991401,0
1.0660732,-4.045804,2.4989481,0.74239486,-0.0080572963,0.66991401,0
-2.1427474,-4.0158505,2.0094492,-0.3778542,-0.83075523,0.40874416,0
0.47214079,1.1720116,-4.481523,-0.74239486,0.0080572963,-0.66991401,0
3.6333156,0.80488896,-3.3533421,0.55324125,-0.55657941,-0.61979294,0
-2.752039,3.8533459,-0.73065895,-0.74239486,0.0080572963,-0.66991401,0
-2.4473186,-2.3972478,-0.86009693,-0.74239486,0.0080572963,-0.66991401,0
-3.8795269,-0.61610222,2.7103057,-0.55324125,0.55657941,0.61979294,0
-1.9221072,4.5578918,-0.42890298,-0.55324125,0.55657941,0.61979294,0
1.2955339,4.4453659,-1.7246253,0.3778542,0.83075523,-0.40874416,0
-1.4785306,-0.054341018,4.3452263,-0.55324125,0.55657941,0.61979294,0
-4.1703534,-3.0232451,1.7823796,-0.3778542,-0.83075523,0.40874416,0
-3.2628088,-3.4950652,2.0544426,-0.3778542,-0.83075523,0.40874416,0
1.0317359,5.7445388,0.87924552,0.3778542,0.83075523,-0.40874416,0
1.6223562,4.0304136,-2.7025733,0.3778542,0.83075523,-0.40874416,0
3.3919597,-1.5915866,-1.4021204,0.55324125,-0.55657941,-0.61979294,0
0.69447064,4.2845812,-2.8267317,0.3778542,0.83075523,-0.40874416,0
4.235383,0.50679398,-2.5133774,0.55324125,-0.55657941,-0.61979294,0
1.5232403,-0.025134414,-3.9962387,0.55324125,-0.55657941,-0.61979294,0
-0.95569181,5.7604661,-1.14133,0.3778542,0.83075523,-0.40874416,0
2.2028995,-5.689332,1.412318,0.74239486,-0.0080572963,0.66991401,0
2.554249,5.109879,0.34684277,0.3778542,0.83075523,-0.40874416,0
-2.6889606,2.0537317,1.6805513,-0.55324125,0.55657941,0.61979294,0
2.9750104,4.2799635,-1.2265768,0.3778542,0.83075523,-0.40874416,0
-3.2260714,-2.0256982,4.6997766,-0.55324125,0.55657941,0.61979294,0
-2.9212449,1.2609961,1.8377881,-0.55324125,0.55657941,0.61979294,0
-1.1025105,-0.89933479,-2.5140996,-0.74239486,0.0080572963,-0.66991401,0
-0.12359166,-5.0733085,1.5027556,-0.3778542,-0.83075523,0.40874416,0
-2.208029,-4.4387703,0.77396297,-0.3778542,-0.83075523,0.40874416,0
-2.6615891,2.7710335,0.85737252,-0.55324125,0.55657941,0.61979294,0
-4.966651,-1.6657209,1.8691239,-0.74239486,0.0080572963,-0.66991401,0
4.2375388,0.72462749,-2.8347425,0.55324125,-0.55657941,-0.61979294,0
-0.27562857,-2.0762384,3.9338732,0.74239486,-0.0080572963,0.66991401,0
-3.4136224,2.9232733,0.043671727,-0.74239486,0.0080572963,-0.66991401,0
4.4755387,1.3826945,-2.948905,0.55324125,-0.55657941,-0.61979294,0
-3.7881927,2.1472559,0.34565389,-0.74239486,0.0080572963,-0.66991401,0
0.9698838,2.9181025,-4.621666,-0.74239486,0.0080572963,-0.66991401,0
1.5768137,5.6815662,1.0019968,0.3778542,0.83075523,-0.40874416,0
2.3963685,-2.9746933,1.2831686,0.74239486,-0.0080572963,0.66991401,0
-0.34610271,-5.6049147,0.34313273,-0.3778542,-0.83075523,0.40874416,0
3.8032656,0.39268327,-0.59478807,0.74239486,-0.0080572963,0.66991401,0
0.4426744,-0.004198432,-4.2889204,-0.74239486,0.0080572963,-0.66991401,0
