-2.0866642,0.73111463,2.019171,-0.59072161,0.18807554,0.78464997,0
-0.82258338,-4.1071806,2.9394617,0.26536468,-0.87307501,0.40904957,0
2.4771452,-1.3635671,2.2061763,0.76199049,0.44985282,0.46583569,0
2.2836621,-3.2595994,2.4221556,0.26536468,-0.87307501,0.40904957,0
1.8137308,3.7163186,-1.0995159,0.76199049,0.44985282,0.46583569,0
1.9963418,2.4115632,-0.42527187,0.76199049,0.44985282,0.46583569,0
-2.0487511,3.1388617,1.4733241,-0.59072161,0.18807554,0.78464997,0
0.37555134,-4.4274707,1.0959809,0.26536468,-0.87307501,0.40904957,0
1.1919317,-2.8155227,4.004426,0.26536468,-0.87307501,0.40904957,0
0.38559783,4.9523664,-0.60181808,-0.26536468,0.87307501,-0.40904957,0
1.1476917,3.1753516,0.25208408,0.76199049,0.44985282,0.46583569,0
-2.2217166,3.8369098,1.2034709,-0.59072161,0.18807554,0.78464997,0
-2.0503101,3.2948933,-2.6339803,-0.26536468,0.87307501,-0.40904957,0
-1.7010124,-1.2633035,2.7237322,-0.59072161,0.18807554,0.78464997,0
-0.63550842,-0.5954361,-4.1462064,-0.76199049,-0.44985282,-0.46583569,0
1.3687928,-2.2759337,5.0485296,0.26536468,-0.87307501,0.40904957,0
-0.11837345,-2.2719519,4.3139577,-0.59072161,0.18807554,0.78464997,0
-1.0318376,-0.79125416,3.3227658,-0.59072161,0.18807554,0.78464997,0
1.1192098,-3.2309155,-2.2139044,0.59072161,-0.18807554,-0.78464997,0
0.47378278,-0.24754667,4.1237583,-0.59072161,0.18807554,0.78464997,0
2.3190372,-0.93079162,2.2934303,0.76199049,0.44985282,0.46583569,0
2.5870509,-3.2771201,1.9043183,0.26536468,-0.87307501,0.40904957,0
0.56908762,-3.2769551,4.0290022,0.26536468,-0.87307501,0.40904957,0
-3.5601878,2.5993261,-1.7745318,-0.76199049,-0.44985282,-0.46583569,0
-1.9012593,-2.7091904,2.8795123,-0.59072161,0.18807554,0.78464997,0
-0.35367852,0.96019959,-4.2447133,0.59072161,-0.18807554,-0.78464997,0
-1.5136557,4.5309329,1.7098759,-0.59072161,0.18807554,0.78464997,0
2.5473306,1.7539301,-2.0792677,0.59072161,-0.18807554,-0.78464997,0
1.9758201,3.1526685,-3.3258145,0.59072161,-0.18807554,-0.78464997,0
-3.8174117,2.2934957,-1.6996248,-0.76199049,-0.44985282,-0.46583569,0
1.4784114,2.1413934,-3.2964482,0.59072161,-0.18807554,-0.78464997,0
1.5838845,1.985198,1.0736549,0.76199049,0.44985282,0.46583569,0
-3.231277,-0.91193563,1.5078012,-0.59072161,0.18807554,0.78464997,0
-3.2969964,-0.76289129,1.4957453,-0.59072161,0.18807554,0.78464997,0
4.3056984,-2.6866035,0.99199271,0.76199049,0.44985282,0.46583569,0
-2.043761,4.8174787,0.78836632,-0.26536468,0.87307501,-0.40904957,0
0.9285934,-5.2887964,-0.49298406,0.26536468,-0.87307501,0.40904957,0
-3.1724043,4.4079199,0.1475451,-0.59072161,0.18807554,0.78464997,0
-2.3415596,3.7309484,1.3074307,-0.59072161,0.18807554,0.78464997,0
1.2526873,4.7229199,-1.486496,0.76199049,0.44985282,0.46583569,0
3.3221674,-0.67617083,-1.2025113,0.59072161,-0.18807554,-0.78464997,0
2.5075805,3.804183,-2.808497,0.59072161,-0.18807554,-0.78464997,0
0.49693888,0.64357853,3.5298939,0.76199049,0.44985282,0.46583569,0
2.557158,1.8634787,-0.23686558,0.76199049,0.44985282,0.46583569,0
-1.2200289,0.81776345,-3.9658294,-0.76199049,-0.44985282,-0.46583569,0
-1.8289754,2.614145,1.5932543,-0.59072161,0.18807554,0.78464997,0
2.6595736,-1.2229652,2.5433931,0.76199049,0.44985282,0.46583569,0
-1.9538349,4.392972,-0.26002598,-0.26536468,0.87307501,-0.40904957,0
-0.58468771,-0.10292053,-4.090014,0.59072161,-0.18807554,-0.78464997,0
-0.85289031,-4.8353372,1.569406,0.26536468,-0.87307501,0.40904957,0
1.4487895,1.3711896,1.5300694,0.76199049,0.44985282,0.46583569,0
1.3581798,3.9463935,-0.33216012,0.76199049,0.44985282,0.46583569,0
-2.8975384,0.49909568,-1.1680113,-0.76199049,-0.44985282,-0.46583569,0
-1.9280882,-3.7725053,1.4012399,-0.76199049,-0.44985282,-0.46583569,0
-2.1044903,-3.449111,1.1622437,-0.76199049,-0.44985282,-0.46583569,0
0.7632997,-4.7106514,0.54494524,0.26536468,-0.87307501,0.40904957,0
-1.5761619,3.9409304,1.5203251,-0.59072161,0.18807554,0.78464997,0
3.1396503,1.2251636,-1.1045398,0.76199049,0.44985282,0.46583569,0
-3.3978226,2.2152369,-1.8506212,-0.76199049,-0.44985282,-0.46583569,0
-2.3417411,-2.8721595,1.5426409,-0.76199049,-0.44985282,-0.46583569,0
1.5990477,-2.0570033,-2.052495,0.59072161,-0.18807554,-0.78464997,0
-2.0096316,4.8640079,0.98615122,-0.26536468,0.87307501,-0.40904957,0
0.86359137,4.3888822,-2.617764,-0.26536468,0.87307501,-0.40904957,0
0.18984938,2.5324678,3.0207815,0.76199049,0.44985282,0.46583569,0
-0.40091622,-4.398314,1.4046812,0.26536468,-0.87307501,0.40904957,0
-1.5241275,-0.73149574,-2.5457788,-0.76199049,-0.44985282,-0.46583569,0
0.47626925,-2.774013,4.9666653,0.26536468,-0.87307501,0.40904957,0
0.50212461,-3.6539736,2.8458283,0.26536468,-0.87307501,0.40904957,0
0.36759904,-3.5460658,3.184531,0.26536468,-0.87307501,0.40904957,0
3.8289616,-3.3916392,1.2695515,0.26536468,-0.87307501,0.40904957,0
-2.404763,1.1658992,-2.8893006,-0.76199049,-0.44985282,-0.46583569,0
0.43908632,-4.4222145,1.1646199,0.26536468,-0.87307501,0.40904957,0
-1.246614,-2.5712457,-1.0411559,-0.76199049,-0.44985282,-0.46583569,0
0.43181133,-3.8557568,-2.5439978,0.59072161,-0.18807554,-0.78464997,0
-3.0844293,1.1537253,1.0657902,-0.59072161,0.18807554,0.78464997,0
2.8708751,-3.998476,0.87415147,0.26536468,-0.87307501,0.40904957,0
-0.6677196,2.7829475,2.8995259,-0.59072161,0.18807554,0.78464997,0
0.98909771,0.75312066,3.1504402,0.76199049,0.44985282,0.46583569,0
-0.88168615,-4.3383818,-0.14754951,-0.76199049,-0.44985282,-0.46583569,0
-0.59222519,2.7916141,-4.4338055,-0.26536468,0.87307501,-0.40904957,0
-3.3082063,-0.67132384,0.74829859,-0.76199049,-0.44985282,-0.46583569,0
-1.6679691,-4.3185287,1.3907022,-0.76199049,-0.44985282,-0.46583569,0
-1.3358902,-0.034005404,-2.8871701,-0.76199049,-0.44985282,-0.46583569,0
1.7457299,0.61639249,2.117378,0.76199049,0.44985282,0.46583569,0
1.9238822,-3.8165238,1.4274793,0.26536468,-0.87307501,0.40904957,0
0.28983569,-0.60333776,-3.6326864,0.59072161,-0.18807554,-0.78464997,0
1.9647069,-4.8887973,-0.61059356,0.26536468,-0.87307501,0.40904957,0
-3.9555223,0.84614933,0.44237959,-0.76199049,-0.44985282,-0.46583569,0
-2.8973544,-0.91045094,0.28837949,-0.76199049,-0.44985282,-0.46583569,0
3.9683237,-3.5837908,1.0137191,0.26536468,-0.87307501,0.40904957,0
0.21453762,-4.6130815,-1.1457777,-0.76199049,-0.44985282,-0.46583569,0
0.66526437,4.7994294,-0.73673391,-0.26536468,0.87307501,-0.40904957,0
-3.8719962,3.7866852,-0.20418191,-0.59072161,0.18807554,0.78464997,0
0.30008912,-4.2932177,-1.4937946,-0.76199049,-0.44985282,-0.46583569,0
-2.7837424,3.6139808,-1.1991191,-0.26536468,0.87307501,-0.40904957,0
-0.94552076,0.38335562,3.084969,-0.59072161,0.18807554,0.78464997,0
0.59965169,-3.2932439,4.0490046,0.26536468,-0.87307501,0.40904957,0
-1.8193049,3.1926491,1.7426388,-0.59072161,0.18807554,0.78464997,0
1.9610795,-3.8717618,1.3209419,0.26536468,-0.87307501,0.40904957,0
0.032862149,-3.2547517,4.4427261,0.26536468,-0.87307501,0.40904957,0
-2.9126487,-0.76206648,2.0564857,-0.59072161,0.18807554,0.78464997,0
1.7745838,-5.1853471,-1.4342784,0.26536468,-0.87307501,0.40904957,0
0.32853416,-2.250145,4.7975049,-0.59072161,0.18807554,0.78464997,0
-3.6585097,2.0678978,-1.6146264,-0.76199049,-0.44985282,-0.46583569,0
0.61511135,-4.2904801,1.0025511,0.26536468,-0.87307501,0.40904957,0
-1.8433266,0.78101802,-2.9570608,-0.76199049,-0.44985282,-0.46583569,0
4.0078068,-1.5067136,-0.27802062,0.59072161,-0.18807554,-0.78464997,0
0.45240307,-5.1878347,-0.63949537,0.26536468,-0.87307501,0.40904957,0
-0.73826122,1.1096302,3.2375066,-0.59072161,0.18807554,0.78464997,0
-0.88890529,-3.9454751,3.1724541,0.26536468,-0.87307501,0.40904957,0
2.7555065,2.8721514,-2.6627285,0.59072161,-0.18807554,-0.78464997,0
3.3058152,-3.875104,0.71233916,0.26536468,-0.87307501,0.40904957,0
1.7978785,1.8229536,0.98774189,0.76199049,0.44985282,0.46583569,0
0.99683166,-4.923461,-0.20740914,0.26536468,-0.87307501,0.40904957,0
-2.105679,4.6311603,-0.13988018,-0.26536468,0.87307501,-0.40904957,0
-2.783576,4.5034552,0.84128618,-0.59072161,0.18807554,0.78464997,0
1.1462812,-3.1849895,3.6991789,0.26536468,-0.87307501,0.40904957,0
0.63692605,3.4853351,0.56274283,0.76199049,0.44985282,0.46583569,0
0.73136222,-1.572499,4.8535581,-0.59072161,0.18807554,0.78464997,0
-0.85599631,-2.4503951,3.8683953,-0.59072161,0.18807554,0.78464997,0
-0.96648282,0.1978054,-3.5548906,-0.76199049,-0.44985282,-0.46583569,0
4.866344,-3.3987703,0.77217722,0.26536468,-0.87307501,0.40904957,0
-4.5214329,3.1310692,-0.7365706,-0.76199049,-0.44985282,-0.46583569,0
-1.4682362,2.3290486,-5.2140398,-0.26536468,0.87307501,-0.40904957,0
4.1354094,-3.8406608,0.366889,0.26536468,-0.87307501,0.40904957,0
-1.0904461,-2.3975332,-1.6254824,-0.76199049,-0.44985282,-0.46583569,0
0.7847532,-3.5358253,2.688971,0.26536468,-0.87307501,0.40904957,0
-0.51906824,3.598362,2.3256879,0.76199049,0.44985282,0.46583569,0
-2.4928262,-4.270978,3.1547554,-0.59072161,0.18807554,0.78464997,0
-1.8997546,3.0575166,-3.257086,-0.26536468,0.87307501,-0.40904957,0
-2.8187857,1.7531905,-2.0655544,-0.76199049,-0.44985282,-0.46583569,0
0.82663381,-3.5977244,3.2079101,0.26536468,-0.87307501,0.40904957,0
3.1253843,-2.6055005,2.8209622,0.76199049,0.44985282,0.46583569,0
0.25745463,-4.8660035,0.045003891,0.26536468,-0.87307501,0.40904957,0
1.6316874,-3.3226886,3.2625065,0.26536468,-0.87307501,0.40904957,0
1.4042721,-4.482439,0.31880045,0.26536468,-0.87307501,0.40904957,0
2.9128568,0.69076669,0.065101743,0.76199049,0.44985282,0.46583569,0
2.911252,-0.76692462,-1.3465809,0.59072161,-0.18807554,-0.78464997,0
2.9759884,-1.8632402,1.9126747,0.76199049,0.44985282,0.46583569,0
1.3890553,4.7413774,-1.6617645,-0.26536468,0.87307501,-0.40904957,0
3.254621,1.5023581,-1.7276318,0.59072161,-0.18807554,-0.78464997,0
-2.4856956,-0.32164097,2.1205328,-0.59072161,0.18807554,0.78464997,0
4.4802194,-3.3052948,0.58664346,0.59072161,-0.18807554,-0.78464997,0
2.7515051,-2.4719214,-0.92508268,0.59072161,-0.18807554,-0.78464997,0
1.2174017,-3.6384318,2.0977199,0.26536468,-0.87307501,0.40904957,0
2.0405807,3.0847721,-3.1077149,0.59072161,-0.18807554,-0.78464997,0
1.2320386,-1.4860407,4.7046623,0.76199049,0.44985282,0.46583569,0
2.3794975,-4.2838879,0.57282615,0.26536468,-0.87307501,0.40904957,0
-0.40651369,2.9497352,2.8080359,0.76199049,0.44985282,0.46583569,0
-0.17704213,-0.80699694,3.8741734,-0.59072161,0.18807554,0.78464997,0
2.1188653,1.9932259,-2.8472846,0.59072161,-0.18807554,-0.78464997,0
-0.062158227,0.6489687,3.7309775,-0.59072161,0.18807554,0.78464997,0
-2.3885694,-2.997921,2.8286786,-0.59072161,0.18807554,0.78464997,0
-0.10188615,-0.3473748,3.8624139,-0.59072161,0.18807554,0.78464997,0
3.4740202,0.29106313,-0.65126622,0.76199049,0.44985282,0.46583569,0
-2.8253894,-2.1116669,1.6176549,-0.76199049,-0.44985282,-0.46583569,0
-1.4903948,-3.8443716,3.7135854,-0.59072161,0.18807554,0.78464997,0
0.14370139,3.0922136,-4.3001757,0.59072161,-0.18807554,-0.78464997,0
-1.6802958,1.1864055,-3.9785967,-0.76199049,-0.44985282,-0.46583569,0
-1.1701497,2.3015332,-5.3616314,-0.26536468,0.87307501,-0.40904957,0
-1.2727383,4.2183275,-1.2270989,-0.26536468,0.87307501,-0.40904957,0
1.1510599,-3.0856946,3.438714,0.26536468,-0.87307501,0.40904957,0
-0.16935837,-2.7858603,-2.7254686,-0.76199049,-0.44985282,-0.46583569,0
2.7563367,3.1351607,-2.2817435,0.59072161,-0.18807554,-0.78464997,0
2.2106247,-4.6073551,0.12644529,0.26536468,-0.87307501,0.40904957,0
-2.0459392,3.279135,-2.3228734,-0.26536468,0.87307501,-0.40904957,0
1.5372338,3.87713,-1.0681155,0.76199049,0.44985282,0.46583569,0
3.1151905,-0.19550854,0.28346574,0.76199049,0.44985282,0.46583569,0
0.93845958,-3.0781674,3.5930972,0.26536468,-0.87307501,0.40904957,0
0.98536485,3.9819241,0.052687645,0.76199049,0.44985282,0.46583569,0
-2.5850129,1.4022894,1.3335459,-0.59072161,0.18807554,0.78464997,0
-3.4547567,3.2471061,-1.9642847,-0.26536468,0.87307501,-0.40904957,0
0.39084601,1.956786,-3.8347626,0.59072161,-0.18807554,-0.78464997,0
1.735576,-0.019355416,2.30445,0.76199049,0.44985282,0.46583569,0
0.41132581,-4.0999551,1.5196371,0.26536468,-0.87307501,0.40904957,0
-0.85640538,2.1342239,2.8105967,-0.59072161,0.18807554,0.78464997,0
-2.3680584,2.1965826,1.4239471,-0.59072161,0.18807554,0.78464997,0
1.7708068,-4.6888566,-0.64390779,0.26536468,-0.87307501,0.40904957,0
-0.1291678,2.7691517,3.0338397,0.76199049,0.44985282,0.46583569,0
-2.7179301,2.1916721,-2.9704213,-0.76199049,-0.44985282,-0.46583569,0
-0.38035107,-4.8950281,1.0976069,0.26536468,-0.87307501,0.40904957,0
-2.7492304,3.757967,-1.0546777,-0.26536468,0.87307501,-0.40904957,0
0.71076107,3.4237657,-3.9812417,-0.26536468,0.87307501,-0.40904957,0
3.3960023,-0.80963683,0.23392558,0.76199049,0.44985282,0.46583569,0
1.8930595,-4.1561737,-1.3879938,0.59072161,-0.18807554,-0.78464997,0
2.2892044,-4.2413301,-1.2608399,0.59072161,-0.18807554,-0.78464997,0
-0.76126981,4.8810854,0.20330763,-0.26536468,0.87307501,-0.40904957,0
-0.91243881,-1.6920542,3.7182865,-0.59072161,0.18807554,0.78464997,0
-1.4929315,-1.9190381,3.145376,-0.59072161,0.18807554,0.78464997,0
-2.2778451,2.686285,-3.3865848,-0.26536468,0.87307501,-0.40904957,0
-1.2201073,0.26251554,-3.4575233,-0.76199049,-0.44985282,-0.46583569,0
1.7146921,-3.0208728,3.1360259,0.26536468,-0.87307501,0.40904957,0
-0.083085179,-0.3499068,4.0076127,-0.59072161,0.18807554,0.78464997,0
-1.3726928,4.6179447,1.4735241,-0.59072161,0.18807554,0.78464997,0
1.9554964,-1.912353,3.609087,0.76199049,0.44985282,0.46583569,0
-1.8780628,-2.7986975,3.3027217,-0.59072161,0.18807554,0.78464997,0
1.5760841,-4.294147,-1.5796211,0.59072161,-0.18807554,-0.78464997,0
-4.1612883,3.4331794,-1.3855114,-0.26536468,0.87307501,-0.40904957,0
2.6475179,-3.8881567,-0.69342732,0.59072161,-0.18807554,-0.78464997,0
0.72816163,0.85802221,2.9544072,0.76199049,0.44985282,0.46583569,0
3.9424138,-2.577069,-0.095115185,0.59072161,-0.18807554,-0.78464997,0
1.4761932,-3.8333981,1.6405983,0.26536468,-0.87307501,0.40904957,0
-0.70030648,3.6248345,-2.5129604,-0.26536468,0.87307501,-0.40904957,0
-0.3019169,2.7673254,-4.6956425,-0.26536468,0.87307501,-0.40904957,0
-0.74246472,-2.561636,3.7140579,-0.59072161,0.18807554,0.78464997,0
1.0524747,-3.3021462,-2.1317325,0.59072161,-0.18807554,-0.78464997,0
-0.046481133,4.2265258,1.6666073,0.76199049,0.44985282,0.46583569,0
-0.27502465,-3.6662626,-1.2395024,-0.76199049,-0.44985282,-0.46583569,0
-0.65412617,-3.0372586,-1.2689871,-0.76199049,-0.44985282,-0.46583569,0
2.5730798,2.4116879,-2.4662719,0.59072161,-0.18807554,-0.78464997,0
-4.0249214,1.3334806,-0.16202474,-0.76199049,-0.44985282,-0.46583569,0
0.83669817,-0.88931417,4.415823,-0.59072161,0.18807554,0.78464997,0
-2.2369387,1.4103147,1.5792047,-0.59072161,0.18807554,0.78464997,0
3.8104961,-1.2770529,-0.58662927,0.59072161,-0.18807554,-0.78464997,0
-0.066430211,-4.5926018,1.6120634,0.26536468,-0.87307501,0.40904957,0
2.6110356,-2.4854283,3.5235281,0.76199049,0.44985282,0.46583569,0
-2.8161752,1.2540467,1.5857029,-0.59072161,0.18807554,0.78464997,0
2.5787072,-2.8813159,2.8588896,0.26536468,-0.87307501,0.40904957,0
-4.2089539,2.9547572,-0.28593898,-0.59072161,0.18807554,0.78464997,0
1.6058651,1.3100643,-2.9157639,0.59072161,-0.18807554,-0.78464997,0
1.3720942,-3.6158082,2.0310445,0.26536468,-0.87307501,0.40904957,0
1.827262,-0.32855672,-2.1570354,0.59072161,-0.18807554,-0.78464997,0
-2.2776923,2.0280921,1.6507602,-0.59072161,0.18807554,0.78464997,0
4.2258487,-2.1048315,-0.22809505,0.59072161,-0.18807554,-0.78464997,0
1.7505453,-2.7168241,4.5186872,0.26536468,-0.87307501,0.40904957,0
-0.33432651,-1.4124746,-3.6186614,-0.76199049,-0.44985282,-0.46583569,0
-1.811849,-4.2763643,3.4033129,0.26536468,-0.87307501,0.40904957,0
0.8998251,-4.3519535,0.64366174,0.26536468,-0.87307501,0.40904957,0
1.2088374,4.4629683,-1.9964629,-0.26536468,0.87307501,-0.40904957,0
4.3120084,-3.4260757,0.92207551,0.26536468,-0.87307501,0.40904957,0
3.2064357,0.089915469,-1.4836779,0.59072161,-0.18807554,-0.78464997,0
2.2206573,-1.4970827,3.2834735,0.76199049,0.44985282,0.46583569,0
-0.14063257,3.7611046,-2.6962781,-0.26536468,0.87307501,-0.40904957,0
-3.1839757,-0.19458807,-0.2552501,-0.76199049,-0.44985282,-0.46583569,0
2.1198435,-0.48346043,2.4564638,0.76199049,0.44985282,0.46583569,0
1.4737172,-4.6889591,0.41438723,0.26536468,-0.87307501,0.40904957,0
0.55432987,-4.9061346,0.50856709,0.26536468,-0.87307501,0.40904957,0
1.4230337,0.68267465,1.9580597,0.76199049,0.44985282,0.46583569,0
3.169117,-3.1156344,-0.72525644,0.59072161,-0.18807554,-0.78464997,0
1.804793,-0.012579203,-2.2463977,0.59072161,-0.18807554,-0.78464997,0
2.8026485,-3.1107457,2.2359121,0.26536468,-0.87307501,0.40904957,0
0.56955665,-0.87008357,4.6954818,-0.59072161,0.18807554,0.78464997,0
1.9129456,3.1096287,-1.0186739,0.76199049,0.44985282,0.46583569,0
2.4234843,-2.7322609,3.2086682,0.26536468,-0.87307501,0.40904957,0
1.4859905,0.21877384,2.6169181,0.76199049,0.44985282,0.46583569,0
4.754663,-3.3492301,0.60244036,0.59072161,-0.18807554,-0.78464997,0
3.1712458,-0.83420968,1.1823556,0.76199049,0.44985282,0.46583569,0
0.70690155,-4.5866237,0.75868893,0.26536468,-0.87307501,0.40904957,0
-2.2469358,-3.8971882,1.7714206,-0.76199049,-0.44985282,-0.46583569,0
-0.31761578,1.810946,-4.414999,0.59072161,-0.18807554,-0.78464997,0
-2.7270472,-0.31355071,-0.43439531,-0.76199049,-0.44985282,-0.46583569,0
-3.7650418,3.0162783,-1.8901224,-0.26536468,0.87307501,-0.40904957,0
2.1137915,-4.7277622,-0.54843664,0.26536468,-0.87307501,0.40904957,0
-2.9309249,-1.3300729,0.90514302,-0.76199049,-0.44985282,-0.46583569,0
2.5327632,-3.9617057,-0.95075631,0.59072161,-0.18807554,-0.78464997,0
-0.82662296,-2.4977016,3.8528056,-0.59072161,0.18807554,0.78464997,0
0.093770266,-4.611578,-1.4097176,-0.76199049,-0.44985282,-0.46583569,0
2.9036553,-4.6245255,-0.30637383,0.26536468,-0.87307501,0.40904957,0
1.8159847,3.0762138,-3.3407812,0.59072161,-0.18807554,-0.78464997,0
1.6166215,1.6180502,-2.9550533,0.59072161,-0.18807554,-0.78464997,0
-0.11814374,-3.5389009,3.810674,0.26536468,-0.87307501,0.40904957,0
-1.7666373,4.5559707,0.081480742,-0.26536468,0.87307501,-0.40904957,0
1.5230098,-2.3754258,-2.1056271,0.59072161,-0.18807554,-0.78464997,0
1.4484626,0.87413788,1.8595502,0.76199049,0.44985282,0.46583569,0
-1.4673783,-1.1867946,-2.1692622,-0.76199049,-0.44985282,-0.46583569,0
-3.0969398,-1.4441794,2.0382652,-0.59072161,0.18807554,0.78464997,0
1.6082313,1.2470986,-2.9199257,0.59072161,-0.18807554,-0.78464997,0
3.5568786,0.12369037,-0.65524,0.76199049,0.44985282,0.46583569,0
-1.6763394,2.6737757,-4.4656701,-0.26536468,0.87307501,-0.40904957,0
-0.028773308,-4.7999315,-0.81623566,-0.76199049,-0.44985282,-0.46583569,0
2.4185009,3.6096258,-2.4704454,0.76199049,0.44985282,0.46583569,0
3.5082693,-3.9716415,0.40134716,0.26536468,-0.87307501,0.40904957,0
2.2795103,-4.1810112,1.0518572,0.26536468,-0.87307501,0.40904957,0
-1.9121703,-2.4031777,2.8527184,-0.59072161,0.18807554,0.78464997,0
-0.51093465,-3.06604,3.994802,-0.59072161,0.18807554,0.78464997,0
-0.12286448,3.6815023,2.2526231,0.76199049,0.44985282,0.46583569,0
-1.5282981,3.1272483,-3.1527267,-0.26536468,0.87307501,-0.40904957,0
-0.59174567,-4.0473118,3.2027457,0.26536468,-0.87307501,0.40904957,0
2.179234,2.8934116,-1.0387471,0.76199049,0.44985282,0.46583569,0
0.34250909,1.9061182,-3.7930973,0.59072161,-0.18807554,-0.78464997,0
-1.5035616,-4.423821,2.9898667,0.26536468,-0.87307501,0.40904957,0
0.68120873,-2.0742772,-2.6299725,0.59072161,-0.18807554,-0.78464997,0
-1.2397711,0.025215864,3.0356514,-0.59072161,0.18807554,0.78464997,0
-1.3169222,-0.90610075,-2.2815354,-0.76199049,-0.44985282,-0.46583569,0
-1.7843759,2.7811649,1.9388252,-0.59072161,0.18807554,0.78464997,0
0.43227267,-2.35548,-2.9740803,0.59072161,-0.18807554,-0.78464997,0
0.57998174,4.5742979,-1.1861613,-0.26536468,0.87307501,-0.40904957,0
1.4464624,-3.7648509,1.7165139,0.26536468,-0.87307501,0.40904957,0
4.2246919,-2.6295359,0.10156012,0.59072161,-0.18807554,-0.78464997,0
-3.0102925,3.4852235,0.76449347,-0.59072161,0.18807554,0.78464997,0
1.0247049,-2.6310842,4.7527714,0.26536468,-0.87307501,0.40904957,0
-0.21961689,4.3047519,1.4293553,0.76199049,0.44985282,0.46583569,0
2.9622302,1.3599391,-1.1734513,0.76199049,0.44985282,0.46583569,0
-1.255754,4.5073032,1.7548476,-0.59072161,0.18807554,0.78464997,0
-0.47866201,4.9714718,-0.064579248,-0.26536468,0.87307501,-0.40904957,0
2.6251047,0.36294401,0.45705044,0.76199049,0.44985282,0.46583569,0
1.0582631,-0.16016853,-2.9516685,0.59072161,-0.18807554,-0.78464997,0
2.0389261,-1.837213,-1.9509875,0.59072161,-0.18807554,-0.78464997,0
-0.93631887,-0.089338779,2.8909967,-0.59072161,0.18807554,0.78464997,0
-1.1930609,-4.6629047,2.17049,0.26536468,-0.87307501,0.40904957,0
-2.5741804,-0.201225,2.0031688,-0.59072161,0.18807554,0.78464997,0
-2.9761381,3.5068097,0.49680829,-0.59072161,0.18807554,0.78464997,0
1.6661021,-2.0754664,4.9025545,0.76199049,0.44985282,0.46583569,0
-0.29277784,3.7414312,-2.5673692,-0.26536468,0.87307501,-0.40904957,0
-0.71942472,5.3282404,1.2814183,0.76199049,0.44985282,0.46583569,0
-1.4340463,4.6902089,0.2376647,-0.26536468,0.87307501,-0.40904957,0
-4.0799766,1.8389509,0.18953133,-0.59072161,0.18807554,0.78464997,0
0.58322835,-5.350739,-0.4109602,0.26536468,-0.87307501,0.40904957,0
1.0004889,-1.6402867,-2.7582057,0.59072161,-0.18807554,-0.78464997,0
0.78627062,0.32780099,-3.2830844,0.59072161,-0.18807554,-0.78464997,0
-1.9169784,-2.7250259,2.9894788,-0.59072161,0.18807554,0.78464997,0
3.0156908,0.50280088,-1.7133842,0.59072161,-0.18807554,-0.78464997,0
-0.95324707,2.544723,2.4071043,-0.59072161,0.18807554,0.78464997,0
1.3202521,-0.12505817,3.6225715,0.76199049,0.44985282,0.46583569,0
2.0456681,-2.8302484,3.8920987,0.26536468,-0.87307501,0.40904957,0
-2.9464552,2.5322816,-3.2831254,-0.76199049,-0.44985282,-0.46583569,0
-2.866334,2.8037524,-3.0194638,-0.26536468,0.87307501,-0.40904957,0
1.9468012,-4.2725425,0.66552401,0.26536468,-0.87307501,0.40904957,0
0.30619025,-0.3153801,4.2973866,-0.59072161,0.18807554,0.78464997,0
2.4701655,-3.3726182,-1.2375948,0.59072161,-0.18807554,-0.78464997,0
-2.2824872,1.7908051,-3.0315735,-0.76199049,-0.44985282,-0.46583569,0
2.8026152,-3.3902099,-1.025769,0.59072161,-0.18807554,-0.78464997,0
-2.3751621,-1.3733746,2.1758733,-0.59072161,0.18807554,0.78464997,0
1.3048246,4.980813,-1.289914,0.76199049,0.44985282,0.46583569,0
-1.383432,-2.0962276,-1.2896351,-0.76199049,-0.44985282,-0.46583569,0
-1.4848797,1.6987238,2.4253416,-0.59072161,0.18807554,0.78464997,0
3.7719965,-1.6549671,0.85041738,0.76199049,0.44985282,0.46583569,0
3.9259424,-0.71876466,-0.085723639,0.76199049,0.44985282,0.46583569,0
0.72058034,-1.375131,-2.7570372,0.59072161,-0.18807554,-0.78464997,0
-2.0449693,-3.8492737,3.0436785,-0.59072161,0.18807554,0.78464997,0
0.017049909,-1.7995287,4.5110707,-0.59072161,0.18807554,0.78464997,0
-0.67750174,-3.9024563,-0.080188394,-0.76199049,-0.44985282,-0.46583569,0
0.0032747388,-3.9233117,2.3263693,0.26536468,-0.87307501,0.40904957,0
1.6485343,-0.17340791,-2.6056645,0.59072161,-0.18807554,-0.78464997,0
4.1818895,-3.377871,1.1845016,0.26536468,-0.87307501,0.40904957,0
-0.17567113,-3.864449,2.8213565,0.26536468,-0.87307501,0.40904957,0
1.316927,4.7633018,-1.1850573,0.76199049,0.44985282,0.46583569,0
-2.8066001,1.1032958,1.3055897,-0.59072161,0.18807554,0.78464997,0
1.5500345,3.025645,-0.31947011,0.76199049,0.44985282,0.46583569,0
-2.6748765,-2.0308132,0.70584738,-0.76199049,-0.44985282,-0.46583569,0
1.4083841,-1.5289965,-2.227622,0.59072161,-0.18807554,-0.78464997,0
2.0993521,1.4484193,0.57932353,0.76199049,0.44985282,0.46583569,0
2.6719475,-4.217411,-0.22034335,0.26536468,-0.87307501,0.40904957,0
2.6705844,-0.10792494,0.76097786,0.76199049,0.44985282,0.46583569,0
-3.4905739,3.6040797,0.33484554,-0.59072161,0.18807554,0.78464997,0
1.2248701,0.45982933,2.8428469,0.76199049,0.44985282,0.46583569,0
0.47196579,-2.8123927,-2.8934655,0.59072161,-0.18807554,-0.78464997,0
0.72317052,3.6630707,0.58952022,0.76199049,0.44985282,0.46583569,0
-1.7390608,4.3219118,-0.44650865,-0.26536468,0.87307501,-0.40904957,0
-0.65153575,5.2761946,1.3852252,0.76199049,0.44985282,0.46583569,0
-1.6873538,-2.8238134,0.32270467,-0.76199049,-0.44985282,-0.46583569,0
-0.85085654,0.60101557,-4.4136233,-0.76199049,-0.44985282,-0.46583569,0
-1.8007587,2.3476841,1.6664917,-0.59072161,0.18807554,0.78464997,0
2.2193682,-2.0290272,3.535521,0.76199049,0.44985282,0.46583569,0
-3.9793527,1.2594335,-0.45611429,-0.76199049,-0.44985282,-0.46583569,0
-3.6278563,3.2187393,-1.4077547,-0.26536468,0.87307501,-0.40904957,0
4.3961544,-2.1370864,0.25346947,0.76199049,0.44985282,0.46583569,0
-0.21406694,2.5538151,-4.3546124,0.59072161,-0.18807554,-0.78464997,0
0.35003996,2.8222036,2.1764989,0.76199049,0.44985282,0.46583569,0
3.180892,-3.7985752,1.166852,0.26536468,-0.87307501,0.40904957,0
-1.9558158,2.7363572,-4.2721443,-0.26536468,0.87307501,-0.40904957,0
-1.5325191,1.951723,-4.5628672,-0.76199049,-0.44985282,-0.46583569,0
2.5540569,-1.6811206,2.792537,0.76199049,0.44985282,0.46583569,0
-0.32745266,-4.1380596,2.8039782,0.26536468,-0.87307501,0.40904957,0
3.3923051,-1.047307,1.1075923,0.76199049,0.44985282,0.46583569,0
-0.86115611,0.81237447,2.7282445,-0.59072161,0.18807554,0.78464997,0
1.6371055,-3.708817,1.8435109,0.26536468,-0.87307501,0.40904957,0
-0.94259536,-1.3508217,3.3802795,-0.59072161,0.18807554,0.78464997,0
0.55199802,1.9175248,2.8639102,0.76199049,0.44985282,0.46583569,0
-4.2960825,2.1032181,-0.66318774,-0.76199049,-0.44985282,-0.46583569,0
-2.4630551,4.7102251,0.461025,-0.26536468,0.87307501,-0.40904957,0
-1.0485907,5.2144661,0.4667635,-0.26536468,0.87307501,-0.40904957,0
0.60663533,-2.8491149,-2.6559567,0.59072161,-0.18807554,-0.78464997,0
-1.7729452,-2.2262683,-0.28882477,-0.76199049,-0.44985282,-0.46583569,0
-1.558491,0.32731289,2.4973612,-0.59072161,0.18807554,0.78464997,0
-0.1267128,-3.6126208,-1.3935313,-0.76199049,-0.44985282,-0.46583569,0
-2.6287618,2.9067132,-3.2210605,-0.26536468,0.87307501,-0.40904957,0
1.8365192,0.23207015,-2.348577,0.59072161,-0.18807554,-0.78464997,0
-0.55578077,0.69614065,3.305346,-0.59072161,0.18807554,0.78464997,0
-1.8730834,-2.5078084,-0.24015495,-0.76199049,-0.44985282,-0.46583569,0
-0.32807422,-0.99195355,3.6629777,-0.59072161,0.18807554,0.78464997,0
-0.37781453,-4.4245853,1.4026263,0.26536468,-0.87307501,0.40904957,0
1.4211738,-3.3545814,3.1837485,0.26536468,-0.87307501,0.40904957,0
0.85390449,-1.2311786,-2.725441,0.59072161,-0.18807554,-0.78464997,0
2.8099542,-1.852958,2.7999525,0.76199049,0.44985282,0.46583569,0
-0.23484397,0.29719806,3.4953282,-0.59072161,0.18807554,0.78464997,0
-0.3940227,5.1608396,0.47432137,-0.26536468,0.87307501,-0.40904957,0
2.2783914,4.0379281,-2.9130526,0.59072161,-0.18807554,-0.78464997,0
-2.8844802,-3.179642,2.4267945,-0.59072161,0.18807554,0.78464997,0
-0.83846498,-4.3460665,0.17712998,-0.76199049,-0.44985282,-0.46583569,0
-2.4910357,0.47866422,1.9084557,-0.59072161,0.18807554,0.78464997,0
-3.0489099,0.52987051,-0.76574838,-0.76199049,-0.44985282,-0.46583569,0
-0.22632551,3.8966258,1.8012158,0.76199049,0.44985282,0.46583569,0
-2.2558713,-2.0295253,0.47611806,-0.76199049,-0.44985282,-0.46583569,0
1.9009308,0.73139268,-2.4640419,0.59072161,-0.18807554,-0.78464997,0
-0.33152145,1.0128874,-4.2947707,0.59072161,-0.18807554,-0.78464997,0
-2.3646715,0.19630221,1.8003839,-0.59072161,0.18807554,0.78464997,0
-1.7889692,3.2098231,-2.9195001,-0.26536468,0.87307501,-0.40904957,0
1.5041997,-3.7360764,-1.8322802,0.59072161,-0.18807554,-0.78464997,0
-2.0110281,3.3002222,1.3769863,-0.59072161,0.18807554,0.78464997,0
3.6809216,-1.535786,-0.84473932,0.59072161,-0.18807554,-0.78464997,0
-0.072632432,0.73082757,3.5593014,-0.59072161,0.18807554,0.78464997,0
2.8336225,1.5686902,-2.318078,0.59072161,-0.18807554,-0.78464997,0
-2.5851181,-2.5162306,1.4734128,-0.76199049,-0.44985282,-0.46583569,0
-3.1780522,-0.066150472,1.64413,-0.59072161,0.18807554,0.78464997,0
0.17981851,-4.5826368,1.1560912,0.26536468,-0.87307501,0.40904957,0
1.1986172,0.02782011,-2.7943463,0.59072161,-0.18807554,-0.78464997,0
-2.1963089,4.6225648,1.1758757,-0.59072161,0.18807554,0.78464997,0
-0.15435922,-3.7081089,2.800715,0.26536468,-0.87307501,0.40904957,0
1.4613289,1.7720748,-3.3317423,0.59072161,-0.18807554,-0.78464997,0
1.8067657,-2.2006345,-1.9227669,0.59072161,-0.18807554,-0.78464997,0
-2.1618481,1.565613,1.8465549,-0.59072161,0.18807554,0.78464997,0
-2.1670942,4.7771888,0.95984483,-0.59072161,0.18807554,0.78464997,0
3.3789432,-2.4166589,1.86376,0.76199049,0.44985282,0.46583569,0
1.0001223,4.1323686,-0.37350214,0.76199049,0.44985282,0.46583569,0
0.12347412,-5.0796518,0.52075005,0.26536468,-0.87307501,0.40904957,0
-2.8340821,4.3042793,-0.34294891,-0.26536468,0.87307501,-0.40904957,0
-2.2854142,-2.3360898,2.834199,-0.59072161,0.18807554,0.78464997,0
2.4829791,0.8420406,-2.2885597,0.59072161,-0.18807554,-0.78464997,0
-0.65756798,-5.0144897,0.62754631,0.26536468,-0.87307501,0.40904957,0
0.9098649,-5.4332085,-1.5895922,0.26536468,-0.87307501,0.40904957,0
-1.1149291,0.75761676,-4.0915079,-0.76199049,-0.44985282,-0.46583569,0
4.1520643,-2.8775084,0.95205927,0.76199049,0.44985282,0.46583569,0
-0.34384239,-2.0150733,-2.7417321,-0.76199049,-0.44985282,-0.46583569,0
-1.034626,4.2366705,2.1595678,-0.59072161,0.18807554,0.78464997,0
-1.9966488,1.9530089,1.7751927,-0.59072161,0.18807554,0.78464997,0
-2.8119094,-1.785567,1.1973122,-0.76199049,-0.44985282,-0.46583569,0
-2.3192556,0.89097989,-2.7090707,-0.76199049,-0.44985282,-0.46583569,0
-2.6826096,3.1491592,0.81642556,-0.59072161,0.18807554,0.78464997,0
2.0175309,-0.25368023,2.4120793,0.76199049,0.44985282,0.46583569,0
0.68690896,-3.3990688,3.1925814,0.26536468,-0.87307501,0.40904957,0
1.743228,-4.0635972,0.96499777,0.26536468,-0.87307501,0.40904957,0
1.9992049,-1.1523566,3.5479698,0.76199049,0.44985282,0.46583569,0
-2.5812776,-1.0981956,-0.29649806,-0.76199049,-0.44985282,-0.46583569,0
-1.6531255,2.4829795,-4.4702253,-0.26536468,0.87307501,-0.40904957,0
0.14994103,-2.4634795,4.2986345,-0.59072161,0.18807554,0.78464997,0
-2.4542124,0.39750126,1.7171698,-0.59072161,0.18807554,0.78464997,0
-1.9988265,3.8174667,-1.8125207,-0.26536468,0.87307501,-0.40904957,0
1.4172974,-4.0068526,1.8098223,0.26536468,-0.87307501,0.40904957,0
3.318857,-4.0888066,-0.11004376,0.26536468,-0.87307501,0.40904957,0
0.26289204,-2.7189164,4.5300961,-0.59072161,0.18807554,0.78464997,0
-0.1565485,-1.6310711,-3.2693121,-0.76199049,-0.44985282,-0.46583569,0
-1.1409025,4.7009187,1.8290737,-0.59072161,0.18807554,0.78464997,0
1.9078727,-4.544044,0.36357331,0.26536468,-0.87307501,0.40904957,0
2.2293508,-2.9212241,-1.5559261,0.59072161,-0.18807554,-0.78464997,0
2.4731262,-3.2251835,-1.4304425,0.59072161,-0.18807554,-0.78464997,0
0.12982848,3.5859599,-3.6520922,-0.26536468,0.87307501,-0.40904957,0
-0.29795152,1.1157426,-4.2545466,0.59072161,-0.18807554,-0.78464997,0
-0.30040061,4.8539066,-0.86930823,-0.26536468,0.87307501,-0.40904957,0
-0.31521076,3.7379832,-3.2030516,-0.26536468,0.87307501,-0.40904957,0
1.4009086,-3.8356755,2.2312348,0.26536468,-0.87307501,0.40904957,0
2.4266262,-2.0669339,-1.3469317,0.59072161,-0.18807554,-0.78464997,0
2.6012866,-3.1516962,2.570492,0.26536468,-0.87307501,0.40904957,0
-0.70092773,5.235239,0.73285782,-0.26536468,0.87307501,-0.40904957,0
1.5868676,1.9482349,1.0953697,0.76199049,0.44985282,0.46583569,0
-0.37918538,-3.9887819,3.0566609,0.26536468,-0.87307501,0.40904957,0
-2.7995057,4.0635204,-0.39804077,-0.26536468,0.87307501,-0.40904957,0
-1.609601,1.583733,-4.2822666,-0.76199049,-0.44985282,-0.46583569,0
-4.1357088,1.9129345,-0.41154385,-0.76199049,-0.44985282,-0.46583569,0
-3.7763562,-0.48482335,1.3066645,-0.59072161,0.18807554,0.78464997,0
0.23213291,-0.87025726,-3.364557,0.59072161,-0.18807554,-0.78464997,0
-3.6564429,3.8681691,0.094959497,-0.59072161,0.18807554,0.78464997,0
-3.0685143,0.98249662,-1.6411607,-0.76199049,-0.44985282,-0.46583569,0
-1.8534694,-2.4240363,2.9856813,-0.59072161,0.18807554,0.78464997,0
-3.2523317,4.1872268,-0.01922226,-0.26536468,0.87307501,-0.40904957,0
0.18217678,-3.374836,3.5295463,0.26536468,-0.87307501,0.40904957,0
2.7294245,-1.2454779,-1.5674182,0.59072161,-0.18807554,-0.78464997,0
-1.6592278,0.18461263,2.6249485,-0.59072161,0.18807554,0.78464997,0
-0.57865071,5.3484492,0.60341311,-0.26536468,0.87307501,-0.40904957,0
-2.1300263,3.8088412,-1.443476,-0.26536468,0.87307501,-0.40904957,0
3.70224,-1.0669491,-0.83281898,0.59072161,-0.18807554,-0.78464997,0
-1.7424047,-3.733258,0.69328976,-0.76199049,-0.44985282,-0.46583569,0
-3.047333,-1.5572596,1.0673636,-0.76199049,-0.44985282,-0.46583569,0
-0.92819428,4.2121053,-1.579319,-0.26536468,0.87307501,-0.40904957,0
2.1090434,-1.8864927,-1.8159078,0.59072161,-0.18807554,-0.78464997,0
-0.14535546,5.0175729,0.99988472,0.76199049,0.44985282,0.46583569,0
0.38031888,-5.0644269,-0.43079567,0.26536468,-0.87307501,0.40904957,0
-4.0451622,1.3188176,-0.13752246,-0.76199049,-0.44985282,-0.46583569,0
-0.96638668,-4.5785503,1.7932125,0.26536468,-0.87307501,0.40904957,0
2.4049416,-4.1994166,-1.0703083,0.59072161,-0.18807554,-0.78464997,0
-4.0252132,1.5317007,0.021958351,-0.76199049,-0.44985282,-0.46583569,0
3.6328695,-1.7798166,-0.7342689,0.59072161,-0.18807554,-0.78464997,0
0.38243079,-4.9304066,0.25798535,0.26536468,-0.87307501,0.40904957,0
1.6543844,-3.600235,-1.8708773,0.59072161,-0.18807554,-0.78464997,0
-1.0792816,2.3687122,2.6007776,-0.59072161,0.18807554,0.78464997,0
0.29293287,2.9350133,1.671241,0.76199049,0.44985282,0.46583569,0
0.88036299,4.7551861,-1.3125799,-0.26536468,0.87307501,-0.40904957,0
-4.3618665,1.4001151,0.0025470257,-0.76199049,-0.44985282,-0.46583569,0
-0.52794898,-0.41079569,3.3019471,-0.59072161,0.18807554,0.78464997,0
-1.1821983,2.5274627,2.4227879,-0.59072161,0.18807554,0.78464997,0
-1.7191435,-3.5466347,3.1681118,-0.59072161,0.18807554,0.78464997,0
-1.5181795,4.4013128,-0.23216128,-0.26536468,0.87307501,-0.40904957,0
-2.4895453,-4.0136895,2.7229133,-0.59072161,0.18807554,0.78464997,0
-0.84403878,-2.2277427,-1.7341677,-0.76199049,-0.44985282,-0.46583569,0
3.0332303,-3.241724,2.4010828,0.26536468,-0.87307501,0.40904957,0
2.9855216,-2.7930272,3.0857685,0.76199049,0.44985282,0.46583569,0
-0.88523555,-3.3563056,4.1235132,-0.59072161,0.18807554,0.78464997,0
-3.1277094,-1.1140341,1.2279439,-0.76199049,-0.44985282,-0.46583569,0
-1.8170444,-2.6748443,3.0616107,-0.59072161,0.18807554,0.78464997,0
0.50912333,-5.4398599,-0.54373765,0.26536468,-0.87307501,0.40904957,0
0.37864828,-0.36162043,-3.3708031,0.59072161,-0.18807554,-0.78464997,0
-3.4105611,2.2077551,0.96452582,-0.59072161,0.18807554,0.78464997,0
-0.9815039,-1.6869441,3.6420441,-0.59072161,0.18807554,0.78464997,0
0.5012691,4.7432342,-0.42527556,0.76199049,0.44985282,0.46583569,0
1.7503028,2.9292066,-3.3115582,0.59072161,-0.18807554,-0.78464997,0
3.595691,-3.1517522,2.0831933,0.26536468,-0.87307501,0.40904957,0
1.1202836,-2.5381603,4.7315273,0.26536468,-0.87307501,0.40904957,0
3.501585,-3.130281,1.9923964,0.26536468,-0.87307501,0.40904957,0
-0.5069778,5.0020852,0.45641184,-0.26536468,0.87307501,-0.40904957,0
-1.5160515,4.6631217,0.42106199,-0.26536468,0.87307501,-0.40904957,0
2.0269809,0.0019959211,1.9970845,0.76199049,0.44985282,0.46583569,0
-1.5774384,4.4830003,-0.16992378,-0.26536468,0.87307501,-0.40904957,0
2.7912843,0.83499193,-1.7554412,0.59072161,-0.18807554,-0.78464997,0
-1.6062305,-1.4423521,-1.0984178,-0.76199049,-0.44985282,-0.46583569,0
-3.4385338,1.7941419,-1.8571641,-0.76199049,-0.44985282,-0.46583569,0
-1.9220054,-0.82268143,-1.1714387,-0.76199049,-0.44985282,-0.46583569,0
1.8532525,4.1558094,-1.5314949,0.76199049,0.44985282,0.46583569,0
2.3737047,3.3262115,-2.7413492,0.59072161,-0.18807554,-0.78464997,0
3.6499338,-3.2462142,1.9531038,0.26536468,-0.87307501,0.40904957,0
-1.8187506,1.7552066,-3.6965656,-0.76199049,-0.44985282,-0.46583569,0
-2.5846262,-1.7793171,0.99719369,-0.76199049,-0.44985282,-0.46583569,0
-2.450614,2.5323582,1.2064618,-0.59072161,0.18807554,0.78464997,0
0.10018194,4.5972977,-0.8264091,-0.26536468,0.87307501,-0.40904957,0
-0.65281844,4.2258506,-1.1442709,-0.26536468,0.87307501,-0.40904957,0
-0.24812961,-3.0424695,-2.2390954,-0.76199049,-0.44985282,-0.46583569,0
-0.60233736,-1.4373916,3.8047922,-0.59072161,0.18807554,0.78464997,0
-3.5326591,1.8073506,0.48298752,-0.59072161,0.18807554,0.78464997,0
-3.2247989,4.0367727,-0.65039945,-0.26536468,0.87307501,-0.40904957,0
-3.4868925,-1.0235679,1.5442624,-0.59072161,0.18807554,0.78464997,0
-4.5396171,2.7216625,-0.55648398,-0.76199049,-0.44985282,-0.46583569,0
-0.54195642,5.3629203,0.74117172,-0.26536468,0.87307501,-0.40904957,0
-2.3384175,-1.1921673,2.4405527,-0.59072161,0.18807554,0.78464997,0
1.1669049,-2.651336,4.2503223,0.26536468,-0.87307501,0.40904957,0
-0.074874997,-4.6918583,1.3304656,0.26536468,-0.87307501,0.40904957,0
-1.6049521,5.3210545,1.2312474,-0.26536468,0.87307501,-0.40904957,0
-1.1379386,4.2162237,-1.7138517,-0.26536468,0.87307501,-0.40904957,0
2.7838142,1.5624095,-2.2981288,0.59072161,-0.18807554,-0.78464997,0
-1.8186407,-2.7500155,0.53772283,-0.76199049,-0.44985282,-0.46583569,0
-2.9637015,3.6812875,0.60928297,-0.59072161,0.18807554,0.78464997,0
0.82986522,-4.6404338,-1.9915435,0.59072161,-0.18807554,-0.78464997,0
0.50137234,3.3761032,0.96949339,0.76199049,0.44985282,0.46583569,0
-0.21681261,5.0936928,-0.37462544,-0.26536468,0.87307501,-0.40904957,0
2.8186698,0.53157282,-2.0090756,0.59072161,-0.18807554,-0.78464997,0
0.27913237,4.1764545,-2.4527569,-0.26536468,0.87307501,-0.40904957,0
2.8611338,1.8180732,-1.303287,0.76199049,0.44985282,0.46583569,0
-1.2847528,2.8025918,-4.364109,-0.26536468,0.87307501,-0.40904957,0
-2.2338214,-1.52881,2.6515927,-0.59072161,0.18807554,0.78464997,0
4.0652719,-1.7611812,-0.48040843,0.59072161,-0.18807554,-0.78464997,0
1.2227176,0.43635535,3.1053653,0.76199049,0.44985282,0.46583569,0
1.0608847,-5.3019958,-1.6949596,0.59072161,-0.18807554,-0.78464997,0
-1.1691033,-4.4906526,1.8027616,0.26536468,-0.87307501,0.40904957,0
-1.0692575,-0.44339466,-3.5372324,-0.76199049,-0.44985282,-0.46583569,0
-3.3385937,3.8731177,0.58347225,-0.59072161,0.18807554,0.78464997,0
2.3108208,-2.2883193,4.2056932,0.76199049,0.44985282,0.46583569,0
0.80340201,-0.1579814,4.1297116,0.76199049,0.44985282,0.46583569,0
-1.9659662,2.493835,1.9832183,-0.59072161,0.18807554,0.78464997,0
3.4457068,-1.1031393,0.55529904,0.76199049,0.44985282,0.46583569,0
0.53717089,-4.5697341,0.82680464,0.26536468,-0.87307501,0.40904957,0
-0.56877959,-0.28064096,3.4796052,-0.59072161,0.18807554,0.78464997,0
1.1019421,-2.4012861,-2.5875857,0.59072161,-0.18807554,-0.78464997,0
0.015419245,-3.2974753,-1.856436,-0.76199049,-0.44985282,-0.46583569,0
0.6532672,0.83580208,3.5616622,0.76199049,0.44985282,0.46583569,0
-0.024840057,-3.6896877,2.7110963,0.26536468,-0.87307501,0.40904957,0
2.3687191,-2.7283044,-1.532469,0.59072161,-0.18807554,-0.78464997,0
-3.8772905,0.59644586,0.71360934,-0.76199049,-0.44985282,-0.46583569,0
-1.7630978,3.7508814,1.395849,-0.59072161,0.18807554,0.78464997,0
-2.158288,1.414777,-3.3356082,-0.76199049,-0.44985282,-0.46583569,0
0.34127355,-5.2714896,-0.82703948,-0.76199049,-0.44985282,-0.46583569,0
1.8313767,0.96929955,-2.5713739,0.59072161,-0.18807554,-0.78464997,0
1.816427,-4.6123219,-0.35488105,0.26536468,-0.87307501,0.40904957,0
0.90647173,-4.2005162,-2.0385642,0.59072161,-0.18807554,-0.78464997,0
-1.1527498,3.2919846,-3.0884824,-0.26536468,0.87307501,-0.40904957,0
-3.7149868,-0.26091793,1.2362763,-0.59072161,0.18807554,0.78464997,0
0.79888582,3.7118216,-4.0727825,-0.26536468,0.87307501,-0.40904957,0
3.6974852,-2.0555809,1.4147897,0.76199049,0.44985282,0.46583569,0
3.6040154,-3.3335638,-0.070916176,0.59072161,-0.18807554,-0.78464997,0
2.0095949,0.24161494,1.4185964,0.76199049,0.44985282,0.46583569,0
-2.7191701,-0.43352157,2.1247728,-0.59072161,0.18807554,0.78464997,0
-2.7996991,2.2365551,-3.3226371,-0.76199049,-0.44985282,-0.46583569,0
2.1811423,3.7459397,-1.5319231,0.76199049,0.44985282,0.46583569,0
0.078475118,1.3670168,3.5357721,0.76199049,0.44985282,0.46583569,0
-2.070791,2.9479156,-3.7647121,-0.26536468,0.87307501,-0.40904957,0
0.18344283,-0.20308256,-3.7853656,0.59072161,-0.18807554,-0.78464997,0
-0.21421456,-3.7985816,2.9787998,0.26536468,-0.87307501,0.40904957,0
-2.9701781,2.4067287,1.0746398,-0.59072161,0.18807554,0.78464997,0
-1.0521237,1.5287801,-5.0578575,0.59072161,-0.18807554,-0.78464997,0
-1.885103,-3.4572098,1.4085672,-0.76199049,-0.44985282,-0.46583569,0
0.62492621,-3.2584233,3.9733863,0.26536468,-0.87307501,0.40904957,0
-1.6982498,4.831625,1.1492088,-0.59072161,0.18807554,0.78464997,0
1.2811353,-5.4650664,-1.0997758,0.26536468,-0.87307501,0.40904957,0
2.4504128,-4.1127653,-1.167969,0.59072161,-0.18807554,-0.78464997,0
-2.1496153,3.8960776,-1.5075881,-0.26536468,0.87307501,-0.40904957,0
0.37386084,-0.5163846,-3.645864,0.59072161,-0.18807554,-0.78464997,0
-2.6439207,3.6813819,0.7935183,-0.59072161,0.18807554,0.78464997,0
3.7342,-0.68716741,-0.044270992,0.76199049,0.44985282,0.46583569,0
-2.9681032,-0.39698768,-0.45399082,-0.76199049,-0.44985282,-0.46583569,0
1.4418726,-1.0755835,4.4544182,0.76199049,0.44985282,0.46583569,0
-2.2007139,-1.4167023,2.4008071,-0.59072161,0.18807554,0.78464997,0
-4.5523,2.6003966,-0.15336156,-0.76199049,-0.44985282,-0.46583569,0
-2.2796807,0.45731553,1.9571376,-0.59072161,0.18807554,0.78464997,0
-1.7136064,2.8652668,2.0958624,-0.59072161,0.18807554,0.78464997,0
3.4701433,0.31250268,-1.2173672,0.59072161,-0.18807554,-0.78464997,0
-2.0172987,-1.9349942,2.7260222,-0.59072161,0.18807554,0.78464997,0
-1.5254188,1.9429299,-5.1026878,-0.76199049,-0.44985282,-0.46583569,0
-0.88264525,0.37733579,-4.2460113,-0.76199049,-0.44985282,-0.46583569,0
-0.77792627,1.9694426,-4.9221163,0.59072161,-0.18807554,-0.78464997,0
1.637059,3.0997393,-0.71341091,0.76199049,0.44985282,0.46583569,0
3.2390568,1.4566214,-1.3270946,0.76199049,0.44985282,0.46583569,0
-1.0069066,3.3924227,-3.2033613,-0.26536468,0.87307501,-0.40904957,0
1.9290729,-4.8392596,-0.16993546,0.26536468,-0.87307501,0.40904957,0
0.32807645,2.9487596,-4.1817398,0.59072161,-0.18807554,-0.78464997,0
-1.4723754,5.0975361,1.1950364,-0.26536468,0.87307501,-0.40904957,0
-1.2276171,-1.7871277,3.3698289,-0.59072161,0.18807554,0.78464997,0
-2.4161096,-4.5638266,3.3033507,0.26536468,-0.87307501,0.40904957,0
-1.4118698,-3.8064232,0.42448473,-0.76199049,-0.44985282,-0.46583569,0
-1.7286093,1.0733722,2.1044264,-0.59072161,0.18807554,0.78464997,0
1.6112282,1.3170307,1.2707384,0.76199049,0.44985282,0.46583569,0
-2.5529716,-0.87213606,-0.16504282,-0.76199049,-0.44985282,-0.46583569,0
2.0974894,-3.3925996,2.4140141,0.26536468,-0.87307501,0.40904957,0
-2.462275,-3.7024214,2.5604939,-0.76199049,-0.44985282,-0.46583569,0
-1.0416765,-2.7978735,-0.99625546,-0.76199049,-0.44985282,-0.46583569,0
-1.2165706,-4.3517628,0.66014326,-0.76199049,-0.44985282,-0.46583569,0
-2.8695507,4.5824862,0.36735368,-0.26536468,0.87307501,-0.40904957,0
1.2171677,-3.2658029,2.992672,0.26536468,-0.87307501,0.40904957,0
-3.7702453,4.1246142,-0.09126091,-0.26536468,0.87307501,-0.40904957,0
-1.9981411,-2.1861975,2.9289069,-0.59072161,0.18807554,0.78464997,0
3.9526362,-1.1419663,-0.7074641,0.59072161,-0.18807554,-0.78464997,0
-2.289336,-4.4045639,3.16682,0.26536468,-0.87307501,0.40904957,0
4.1108336,-3.1533792,0.082126856,0.59072161,-0.18807554,-0.78464997,0
-2.97019,1.6304194,-1.8149037,-0.76199049,-0.44985282,-0.46583569,0
-0.34261525,-4.7266107,1.0862131,0.26536468,-0.87307501,0.40904957,0
-1.8491595,-0.035029411,-2.4158187,-0.76199049,-0.44985282,-0.46583569,0
0.92671371,0.61105639,-3.4789622,0.59072161,-0.18807554,-0.78464997,0
2.0033903,-3.5071929,2.2160652,0.26536468,-0.87307501,0.40904957,0
2.912982,-3.4125111,-0.93274915,0.59072161,-0.18807554,-0.78464997,0
1.1782953,3.8492398,-0.36666989,0.76199049,0.44985282,0.46583569,0
1.9932263,0.7968204,1.2097821,0.76199049,0.44985282,0.46583569,0
-1.0912104,-4.0708919,2.593442,0.26536468,-0.87307501,0.40904957,0
2.2522578,-1.0811713,-1.8919973,0.59072161,-0.18807554,-0.78464997,0
-2.4168499,2.7219586,-3.6052759,-0.26536468,0.87307501,-0.40904957,0
-1.454891,1.9492294,-4.8128848,-0.76199049,-0.44985282,-0.46583569,0
-0.23052651,-2.6764698,4.4731779,-0.59072161,0.18807554,0.78464997,0
-0.19662309,1.2244263,3.4957683,-0.59072161,0.18807554,0.78464997,0
-1.4095485,0.50452673,-3.681838,-0.76199049,-0.44985282,-0.46583569,0
-0.092973709,5.0302305,-0.42816567,-0.26536468,0.87307501,-0.40904957,0
-1.0744071,3.9225445,2.3050718,-0.59072161,0.18807554,0.78464997,0
0.73635566,2.0318429,2.097465,0.76199049,0.44985282,0.46583569,0
-2.4061091,-0.25485778,-1.0183263,-0.76199049,-0.44985282,-0.46583569,0
-4.3661661,2.5434861,0.079405308,-0.59072161,0.18807554,0.78464997,0
-1.2883012,-2.3708506,3.4685855,-0.59072161,0.18807554,0.78464997,0
1.0227489,-5.3310518,-0.86912966,0.26536468,-0.87307501,0.40904957,0
2.5129826,-1.8347511,3.3369179,0.76199049,0.44985282,0.46583569,0
3.0319998,-1.8382509,-1.3465306,0.59072161,-0.18807554,-0.78464997,0
-0.5856545,1.886821,2.9590213,-0.59072161,0.18807554,0.78464997,0
-0.70256245,-3.424691,-0.48835212,-0.76199049,-0.44985282,-0.46583569,0
2.3111339,-0.12136048,-1.8057882,0.59072161,-0.18807554,-0.78464997,0
1.2985735,-1.0052903,3.9258661,0.76199049,0.44985282,0.46583569,0
1.334121,-4.5151172,0.24702525,0.26536468,-0.87307501,0.40904957,0
-4.4875231,2.4992623,-0.12791777,-0.59072161,0.18807554,0.78464997,0
2.0492585,-3.3720922,-1.5384841,0.59072161,-0.18807554,-0.78464997,0
-3.31496,-0.69531846,0.41403919,-0.76199049,-0.44985282,-0.46583569,0
-1.5539434,1.3820255,-4.2242374,-0.76199049,-0.44985282,-0.46583569,0
0.41938984,4.9309855,0.28324616,0.76199049,0.44985282,0.46583569,0
4.021019,-1.5187197,0.15534163,0.76199049,0.44985282,0.46583569,0
0.91838431,-3.3242464,3.6261501,0.26536468,-0.87307501,0.40904957,0
-1.99194,-3.5535712,3.1133671,-0.59072161,0.18807554,0.78464997,0
1.2108907,-2.5940962,4.5118885,0.26536468,-0.87307501,0.40904957,0
3.0132761,-1.1500944,-1.0723259,0.59072161,-0.18807554,-0.78464997,0
3.3098307,0.089826763,-1.4196614,0.59072161,-0.18807554,-0.78464997,0
-1.660244,2.5122743,-4.0932417,-0.26536468,0.87307501,-0.40904957,0
-3.4022923,3.4243212,0.53898931,-0.59072161,0.18807554,0.78464997,0
0.89625168,2.6368971,-3.6758256,0.59072161,-0.18807554,-0.78464997,0
-1.2984976,-3.2429445,3.739248,-0.59072161,0.18807554,0.78464997,0
1.4318868,1.0193419,2.4127383,0.76199049,0.44985282,0.46583569,0
3.1560068,0.14708471,-0.056686878,0.76199049,0.44985282,0.46583569,0
-2.3595128,2.1388175,-3.9747355,-0.76199049,-0.44985282,-0.46583569,0
-1.9602877,0.33816671,2.2184505,-0.59072161,0.18807554,0.78464997,0
-3.1786065,1.6683861,-1.6828146,-0.76199049,-0.44985282,-0.46583569,0
-0.69982624,-2.954082,3.7932458,-0.59072161,0.18807554,0.78464997,0
0.35311937,-2.8214045,-2.7574682,0.59072161,-0.18807554,-0.78464997,0
3.489584,-1.4299554,0.78726268,0.76199049,0.44985282,0.46583569,0
-1.656826,2.8983901,-3.3170464,-0.26536468,0.87307501,-0.40904957,0
-0.29061937,0.19651508,-4.0413251,0.59072161,-0.18807554,-0.78464997,0
0.33435333,2.7639761,1.8030387,0.76199049,0.44985282,0.46583569,0
-1.5367105,3.4628415,1.8449728,-0.59072161,0.18807554,0.78464997,0
-4.1341314,0.46860263,0.70664215,-0.59072161,0.18807554,0.78464997,0
-0.94469798,0.29612708,-4.1915359,-0.76199049,-0.44985282,-0.46583569,0
1.9518791,-3.9130273,1.2935631,0.26536468,-0.87307501,0.40904957,0
-3.2648225,-1.5154302,1.0284486,-0.76199049,-0.44985282,-0.46583569,0
-0.75023711,1.529068,3.1097374,-0.59072161,0.18807554,0.78464997,0
2.2796605,-4.2877903,0.41273761,0.26536468,-0.87307501,0.40904957,0
0.29838526,-3.7603359,3.1769776,0.26536468,-0.87307501,0.40904957,0
2.9327586,0.34240443,0.021850228,0.76199049,0.44985282,0.46583569,0
-0.90440899,-2.8040657,-1.2969407,-0.76199049,-0.44985282,-0.46583569,0
-2.8030114,-0.38264811,1.9844372,-0.59072161,0.18807554,0.78464997,0
3.8915682,-1.0019766,-0.49602592,0.59072161,-0.18807554,-0.78464997,0
-2.6074462,2.5961969,-3.5970793,-0.76199049,-0.44985282,-0.46583569,0
-0.63286877,3.4378757,2.4253938,-0.59072161,0.18807554,0.78464997,0
-3.4029655,1.844501,-1.7547653,-0.76199049,-0.44985282,-0.46583569,0
1.1821399,4.0478258,-3.5647688,-0.26536468,0.87307501,-0.40904957,0
0.62976813,-5.0536957,-0.59971857,0.26536468,-0.87307501,0.40904957,0
