0.4776783,4.6902099,-0.57551622,0.020226598,0.99884129,0.043670863,0
-1.1500349,4.5485444,-1.0310088,0.020226598,0.99884129,0.043670863,0
0.6935606,-4.426949,-1.151527,-0.020226598,-0.99884129,-0.043670863,0
-3.1833167,-1.4870065,-3.169328,0.14179137,0.040372431,-0.98907298,0
0.87520105,-0.70918059,2.7916481,-0.14179137,-0.040372431,0.98907298,0
4.8984966,-1.5890112,1.1432691,0.98968995,-0.026197731,0.14081043,0
-1.6527156,2.1730134,-2.8139195,0.14179137,0.040372431,-0.98907298,0
4.0965548,4.4220953,1.5401311,0.020226598,0.99884129,0.043670863,0
5.219183,0.27851391,-0.7949872,0.98968995,-0.026197731,0.14081043,0
-2.9309545,-4.1795406,-3.0333114,0.14179137,0.040372431,-0.98907298,0
5.2811985,-0.72781467,-1.3452678,0.98968995,-0.026197731,0.14081043,0
4.1665368,-4.6062298,0.41641939,-0.020226598,-0.99884129,-0.043670863,0
-3.6362963,-1.561537,-2.919559,0.14179137,0.040372431,-0.98907298,0
4.959374,2.0367391,1.8459492,0.98968995,-0.026197731,0.14081043,0
4.9982266,0.050014973,-0.85535765,0.98968995,-0.026197731,0.14081043,0
4.9304943,2.8936832,0.049136639,0.98968995,-0.026197731,0.14081043,0
0.28263545,4.7492595,-1.8846754,0.020226598,0.99884129,0.043670863,0
-5.3126993,3.380712,1.3583436,-0.98968995,0.026197731,-0.14081043,0
-1.239675,-4.2789164,-0.30181289,-0.020226598,-0.99884129,-0.043670863,0
-4.9044952,3.4981914,-0.4735992,-0.98968995,0.026197731,-0.14081043,0
5.0801067,3.9995823,0.1741991,0.98968995,-0.026197731,0.14081043,0
-1.859376,-4.5130043,-1.776896,-0.020226598,-0.99884129,-0.043670863,0
3.4681151,4.5244355,-0.17704821,0.020226598,0.99884129,0.043670863,0
-5.0833573,1.310986,1.8520839,-0.98968995,0.026197731,-0.14081043,0
-3.9462345,4.6383743,1.0614114,0.020226598,0.99884129,0.043670863,0
0.6737324,0.50983822,2.5546727,-0.14179137,-0.040372431,0.98907298,0
4.7665553,4.3394508,-1.8068018,0.14179137,0.040372431,-0.98907298,0
-1.3603024,4.407042,2.3118997,0.020226598,0.99884129,0.043670863,0
-1.1475837,4.7324429,-1.2756842,0.020226598,0.99884129,0.043670863,0
4.5871916,1.9632223,-1.8075938,0.14179137,0.040372431,-0.98907298,0
-3.7789321,2.1504622,2.024816,-0.14179137,-0.040372431,0.98907298,0
3.6780968,1.1693323,3.1571441,-0.14179137,-0.040372431,0.98907298,0
2.4826508,3.3561673,2.9551084,-0.14179137,-0.040372431,0.98907298,0
-4.7211561,-2.1198411,-2.9340963,-0.98968995,0.026197731,-0.14081043,0
1.7732162,4.0026054,3.0428059,-0.14179137,-0.040372431,0.98907298,0
0.54692531,4.1688919,-2.2589717,0.14179137,0.040372431,-0.98907298,0
-4.723608,4.3521609,-0.48360515,-0.98968995,0.026197731,-0.14081043,0
4.7079506,-4.6618385,-1.1169931,-0.020226598,-0.99884129,-0.043670863,0
-0.65761006,3.1125836,-2.3612752,0.14179137,0.040372431,-0.98907298,0
-1.94539,-3.9123743,2.0637786,-0.14179137,-0.040372431,0.98907298,0
1.5119557,-4.5437169,-2.0282941,-0.020226598,-0.99884129,-0.043670863,0
-5.1408982,-2.1153021,0.79467201,-0.98968995,0.026197731,-0.14081043,0
0.40816736,4.7166481,-2.2290759,0.020226598,0.99884129,0.043670863,0
-3.460597,-4.2565374,-1.4762483,-0.020226598,-0.99884129,-0.043670863,0
-5.0527892,-1.9659147,0.4784317,-0.98968995,0.026197731,-0.14081043,0
2.2268343,-3.2188654,-2.3890312,0.14179137,0.040372431,-0.98907298,0
3.3782291,-0.22034007,2.8456416,-0.14179137,-0.040372431,0.98907298,0
-4.6373405,3.5236316,-2.0700748,-0.98968995,0.026197731,-0.14081043,0
-2.9074557,3.1545093,2.3001864,-0.14179137,-0.040372431,0.98907298,0
4.666584,-3.4528382,0.86821461,0.98968995,-0.026197731,0.14081043,0
4.2559299,2.1735039,3.2907979,-0.14179137,-0.040372431,0.98907298,0
-4.2155175,-0.64886236,1.7260938,-0.14179137,-0.040372431,0.98907298,0
-3.6887534,-4.2685986,-3.1614876,-0.020226598,-0.99884129,-0.043670863,0
-4.6538191,3.5289328,-0.97672462,-0.98968995,0.026197731,-0.14081043,0
2.420886,-3.9384286,2.8293762,-0.14179137,-0.040372431,0.98907298,0
2.3078694,4.4298582,1.6868215,0.020226598,0.99884129,0.043670863,0
1.3616276,4.5337496,2.7707262,0.020226598,0.99884129,0.043670863,0
0.15450859,0.97639763,2.4536672,-0.14179137,-0.040372431,0.98907298,0
-3.0056543,-2.97995,2.1451681,-0.14179137,-0.040372431,0.98907298,0
-4.8308077,4.3863497,1.9797024,0.020226598,0.99884129,0.043670863,0
-4.9106736,-2.3787241,-0.98752975,-0.98968995,0.026197731,-0.14081043,0
-4.8132868,3.1398184,-1.2690611,-0.98968995,0.026197731,-0.14081043,0
3.0969203,-4.4445825,1.596578,-0.020226598,-0.99884129,-0.043670863,0
0.56048441,4.6170969,-1.8439808,0.020226598,0.99884129,0.043670863,0
0.9434371,-4.6252732,1.7168288,-0.020226598,-0.99884129,-0.043670863,0
5.3581462,1.7505307,-0.52006435,0.98968995,-0.026197731,0.14081043,0
-5.3206882,-1.243659,1.1470938,-0.98968995,0.026197731,-0.14081043,0
-4.7840238,-4.2227612,-1.3865423,-0.98968995,0.026197731,-0.14081043,0
5.4976249,3.4918687,-1.1143918,0.98968995,-0.026197731,0.14081043,0
-5.3268456,4.3256502,1.4166801,-0.98968995,0.026197731,-0.14081043,0
-1.4578743,4.6744785,0.24827665,0.020226598,0.99884129,0.043670863,0
-0.74947548,-4.2750621,-2.1224802,-0.020226598,-0.99884129,-0.043670863,0
3.8307793,-4.3797622,-0.81055474,-0.020226598,-0.99884129,-0.043670863,0
-4.5994611,1.3753653,-2.9766912,-0.98968995,0.026197731,-0.14081043,0
-0.33065152,2.0885253,2.5054834,-0.14179137,-0.040372431,0.98907298,0
-5.1003466,-4.2885399,-0.90744829,-0.98968995,0.026197731,-0.14081043,0
-5.0061998,2.7107463,0.94725418,-0.98968995,0.026197731,-0.14081043,0
-5.1271892,-3.5089455,-1.0135136,-0.98968995,0.026197731,-0.14081043,0
0.0077824593,4.555325,2.3769825,0.020226598,0.99884129,0.043670863,0
-1.2105732,-4.2173367,-2.4487374,-0.020226598,-0.99884129,-0.043670863,0
-4.8563108,-3.8944969,-3.2273402,-0.98968995,0.026197731,-0.14081043,0
-2.1977682,0.23476696,2.4203417,-0.14179137,-0.040372431,0.98907298,0
0.92013192,0.35455525,2.5755949,-0.14179137,-0.040372431,0.98907298,0
1.7617929,-3.3656836,-2.2123678,0.14179137,0.040372431,-0.98907298,0
4.8977232,-1.1142102,0.58209562,0.98968995,-0.026197731,0.14081043,0
4.8387651,-4.0808158,1.2451086,0.98968995,-0.026197731,0.14081043,0
-3.2951171,4.8157282,-1.45637,0.020226598,0.99884129,0.043670863,0
0.73581696,3.3360157,2.7013388,-0.14179137,-0.040372431,0.98907298,0
-2.275372,0.99021024,-2.8852065,0.14179137,0.040372431,-0.98907298,0
3.2232451,4.1011376,3.0833693,-0.14179137,-0.040372431,0.98907298,0
-0.21666765,4.4776974,0.77218974,0.020226598,0.99884129,0.043670863,0
4.153336,-2.132395,2.9263728,-0.14179137,-0.040372431,0.98907298,0
-3.9990931,-0.090842724,1.7859972,-0.14179137,-0.040372431,0.98907298,0
-3.3601916,-3.7298408,1.8741972,-0.14179137,-0.040372431,0.98907298,0
4.0719523,4.342557,-0.8111701,0.020226598,0.99884129,0.043670863,0
5.3226471,-2.1141009,-1.2230823,0.98968995,-0.026197731,0.14081043,0
0.75292253,-4.7185707,0.42726934,-0.020226598,-0.99884129,-0.043670863,0
4.4545131,2.8544266,-1.6917548,0.14179137,0.040372431,-0.98907298,0
2.0523267,-4.3128242,-1.1290088,-0.020226598,-0.99884129,-0.043670863,0
-4.6353307,0.94176102,2.034086,-0.14179137,-0.040372431,0.98907298,0
-1.4869709,4.6419592,-0.080901325,0.020226598,0.99884129,0.043670863,0
4.2845669,4.2655096,1.5012007,0.020226598,0.99884129,0.043670863,0
2.9386601,-4.8230605,1.4699757,-0.020226598,-0.99884129,-0.043670863,0
4.1919093,2.8630419,-1.6966691,0.14179137,0.040372431,-0.98907298,0
1.9699085,-4.7510457,1.8146527,-0.020226598,-0.99884129,-0.043670863,0
5.0374141,1.9609232,1.2494197,0.98968995,-0.026197731,0.14081043,0
-3.508893,-4.2831287,-1.1922908,-0.020226598,-0.99884129,-0.043670863,0
4.9525304,0.54412794,-0.42650223,0.98968995,-0.026197731,0.14081043,0
-5.0740213,2.7316697,0.57522249,-0.98968995,0.026197731,-0.14081043,0
-4.8853488,0.51785123,-1.0634139,-0.98968995,0.026197731,-0.14081043,0
2.498251,-4.3639083,-0.82959592,-0.020226598,-0.99884129,-0.043670863,0
-4.8834028,-2.345118,-2.4730649,-0.98968995,0.026197731,-0.14081043,0
-5.1200023,-3.7588046,-1.569406,-0.98968995,0.026197731,-0.14081043,0
-2.6824181,-4.4428954,-0.71725321,-0.020226598,-0.99884129,-0.043670863,0
-1.025668,1.0137961,-2.5145144,0.14179137,0.040372431,-0.98907298,0
-1.3338468,4.4600282,-1.8653117,0.020226598,0.99884129,0.043670863,0
5.038475,-3.5351768,-0.11214137,0.98968995,-0.026197731,0.14081043,0
1.0233021,4.3311043,0.5370543,0.020226598,0.99884129,0.043670863,0
3.3762205,-4.3047419,-2.2078576,-0.020226598,-0.99884129,-0.043670863,0
0.33664465,-4.4283857,-0.41411579,-0.020226598,-0.99884129,-0.043670863,0
1.8373362,1.6833344,-2.0795472,0.14179137,0.040372431,-0.98907298,0
0.59442663,4.3775759,1.0851882,0.020226598,0.99884129,0.043670863,0
4.3844972,-4.7767248,0.19715607,-0.020226598,-0.99884129,-0.043670863,0
-4.9496903,2.7567892,-1.133146,-0.98968995,0.026197731,-0.14081043,0
-4.5435634,2.0634964,-1.8957446,-0.98968995,0.026197731,-0.14081043,0
-2.4729931,-0.50802326,2.014158,-0.14179137,-0.040372431,0.98907298,0
3.5275686,-4.4223223,-1.7825966,-0.020226598,-0.99884129,-0.043670863,0
4.929666,-3.8508048,-0.88645864,0.98968995,-0.026197731,0.14081043,0
-1.4767537,4.630734,2.3487105,0.020226598,0.99884129,0.043670863,0
4.1850171,1.5078664,2.9871392,-0.14179137,-0.040372431,0.98907298,0
4.8956428,0.41351008,2.5378687,0.98968995,-0.026197731,0.14081043,0
4.244874,1.9740257,-1.8744495,0.14179137,0.040372431,-0.98907298,0
4.7527156,0.75808442,1.4604335,0.98968995,-0.026197731,0.14081043,0
-5.1498995,-0.42980266,0.30980539,-0.98968995,0.026197731,-0.14081043,0
2.2236207,-1.9638593,-2.3505297,0.14179137,0.040372431,-0.98907298,0
-3.4692173,4.6801653,-0.59453762,0.020226598,0.99884129,0.043670863,0
4.422647,4.4925842,1.2408834,0.020226598,0.99884129,0.043670863,0
4.2515054,4.5952439,0.34464598,0.020226598,0.99884129,0.043670863,0
1.3061423,4.4994249,-0.76770544,0.020226598,0.99884129,0.043670863,0
-4.6116743,1.6071427,-2.7011967,-0.98968995,0.026197731,-0.14081043,0
-5.0701275,3.6203163,1.613884,-0.98968995,0.026197731,-0.14081043,0
4.5353975,-1.7189856,2.0991752,0.98968995,-0.026197731,0.14081043,0
5.2027445,-0.15010858,-0.25712204,0.98968995,-0.026197731,0.14081043,0
-5.1271992,-2.2236419,-0.75839233,-0.98968995,0.026197731,-0.14081043,0
0.057993889,-4.4465857,1.0250062,-0.020226598,-0.99884129,-0.043670863,0
0.79485798,4.2605586,2.0605297,0.020226598,0.99884129,0.043670863,0
-4.8274879,-1.3728511,-1.7186847,-0.98968995,0.026197731,-0.14081043,0
-5.1806426,2.2588112,1.5406795,-0.98968995,0.026197731,-0.14081043,0
-1.6253433,-4.6398911,0.49262547,-0.020226598,-0.99884129,-0.043670863,0
4.1522341,-4.5682726,-1.3095345,-0.020226598,-0.99884129,-0.043670863,0
4.0986648,-3.4870272,-2.1745577,0.14179137,0.040372431,-0.98907298,0
4.8022375,1.1190978,2.8233421,0.98968995,-0.026197731,0.14081043,0
4.8351974,3.7713914,3.0639911,0.98968995,-0.026197731,0.14081043,0
-3.4962564,-4.1600227,-3.3346395,0.14179137,0.040372431,-0.98907298,0
4.9179187,-3.6219025,0.57487464,0.98968995,-0.026197731,0.14081043,0
-0.58986169,-0.32086253,2.5568271,-0.14179137,-0.040372431,0.98907298,0
-4.8772969,-2.6903617,-1.0459948,-0.98968995,0.026197731,-0.14081043,0
-4.8580189,-3.8783579,-2.4043593,-0.98968995,0.026197731,-0.14081043,0
-1.5737691,4.5577755,1.0577698,0.020226598,0.99884129,0.043670863,0
-5.2024364,-0.90106082,1.0984292,-0.98968995,0.026197731,-0.14081043,0
4.6531286,3.4034967,2.8882651,0.98968995,-0.026197731,0.14081043,0
-3.9587541,-4.3276634,-0.85472965,-0.020226598,-0.99884129,-0.043670863,0
4.5649366,-0.27845156,2.0496597,0.98968995,-0.026197731,0.14081043,0
-5.0027347,3.2956023,0.20237923,-0.98968995,0.026197731,-0.14081043,0
4.5144157,0.24980158,2.5940928,0.98968995,-0.026197731,0.14081043,0
-3.1706679,-3.9259083,-3.1458397,0.14179137,0.040372431,-0.98907298,0
-4.5065322,2.3530297,-2.1697145,-0.98968995,0.026197731,-0.14081043,0
-1.1807083,-2.0460792,2.2380702,-0.14179137,-0.040372431,0.98907298,0
0.31747055,-3.1585512,-2.596751,0.14179137,0.040372431,-0.98907298,0
4.8048611,1.8949823,1.4586611,0.98968995,-0.026197731,0.14081043,0
-2.5590868,-4.4454217,-1.2253275,-0.020226598,-0.99884129,-0.043670863,0
-4.8579044,4.4706926,1.376349,0.020226598,0.99884129,0.043670863,0
-1.3871264,0.78623462,2.2126827,-0.14179137,-0.040372431,0.98907298,0
2.7768962,-4.7595167,1.1402801,-0.020226598,-0.99884129,-0.043670863,0
0.53026295,-4.3995299,-0.060377836,-0.020226598,-0.99884129,-0.043670863,0
-4.9171848,1.8124504,-0.22431946,-0.98968995,0.026197731,-0.14081043,0
3.3288012,4.4773741,-0.77554846,0.020226598,0.99884129,0.043670863,0
-1.5168734,3.6816807,2.6135716,-0.14179137,-0.040372431,0.98907298,0
-4.7851772,0.17100644,-1.1090746,-0.98968995,0.026197731,-0.14081043,0
-3.2200091,2.7900121,2.2123697,-0.14179137,-0.040372431,0.98907298,0
-1.1361418,-4.2683496,-2.4819961,-0.020226598,-0.99884129,-0.043670863,0
-5.1582022,3.547121,1.5244613,-0.98968995,0.026197731,-0.14081043,0
5.0806541,-1.9563593,0.13061357,0.98968995,-0.026197731,0.14081043,0
-2.3810666,-4.5390916,-1.4000943,-0.020226598,-0.99884129,-0.043670863,0
2.8282146,-0.89628363,2.8226829,-0.14179137,-0.040372431,0.98907298,0
4.8419075,-0.40756792,2.2625604,0.98968995,-0.026197731,0.14081043,0
5.19666,-1.3949878,-1.2877908,0.98968995,-0.026197731,0.14081043,0
-2.462132,-3.7818151,-3.2115753,0.14179137,0.040372431,-0.98907298,0
-5.2824531,2.6396847,1.1819162,-0.98968995,0.026197731,-0.14081043,0
2.3544991,-4.4268589,-0.72846735,-0.020226598,-0.99884129,-0.043670863,0
4.2420568,0.3989051,3.0688081,-0.14179137,-0.040372431,0.98907298,0
-4.9104066,2.1708252,-0.10766172,-0.98968995,0.026197731,-0.14081043,0
1.4325737,3.797863,-2.3340659,0.14179137,0.040372431,-0.98907298,0
2.3006406,-4.6666813,0.40447998,-0.020226598,-0.99884129,-0.043670863,0
0.1908884,-1.7782795,-2.7622325,0.14179137,0.040372431,-0.98907298,0
-1.0624495,4.705307,0.25205731,0.020226598,0.99884129,0.043670863,0
-1.2432103,-4.2855701,-0.92798114,-0.020226598,-0.99884129,-0.043670863,0
-0.63445401,4.646708,-1.8775002,0.020226598,0.99884129,0.043670863,0
2.6124096,-4.6062255,-0.29231417,-0.020226598,-0.99884129,-0.043670863,0
-4.6122751,2.1336524,-2.0500829,-0.98968995,0.026197731,-0.14081043,0
-2.6714048,-4.2421212,-2.8501565,-0.020226598,-0.99884129,-0.043670863,0
4.4138546,-2.7408681,2.7521369,0.98968995,-0.026197731,0.14081043,0
5.0603685,-1.5591583,-1.6710861,0.98968995,-0.026197731,0.14081043,0
-4.7338619,-4.1242285,-1.610486,-0.98968995,0.026197731,-0.14081043,0
-5.1437907,4.0179219,0.46791792,-0.98968995,0.026197731,-0.14081043,0
-3.2716994,-4.2732167,-2.3440094,-0.020226598,-0.99884129,-0.043670863,0
5.3837256,-0.59591198,-1.4803562,0.98968995,-0.026197731,0.14081043,0
0.50239599,0.7713902,-2.58567,0.14179137,0.040372431,-0.98907298,0
0.43682313,4.5316944,-0.70875216,0.020226598,0.99884129,0.043670863,0
-2.4276838,4.5618582,-2.3290579,0.020226598,0.99884129,0.043670863,0
-4.2948966,4.7800517,-0.42451894,0.020226598,0.99884129,0.043670863,0
2.1552234,-0.39003849,2.9079049,-0.14179137,-0.040372431,0.98907298,0
-0.16296911,3.4653232,2.4780219,-0.14179137,-0.040372431,0.98907298,0
-3.5216246,-2.2287521,-3.0231099,0.14179137,0.040372431,-0.98907298,0
4.8845582,-2.064692,1.3615103,0.98968995,-0.026197731,0.14081043,0
-3.0144289,4.6212959,0.39393878,0.020226598,0.99884129,0.043670863,0
0.75912595,-1.786064,-2.6676898,0.14179137,0.040372431,-0.98907298,0
3.7920718,-4.7961259,2.8530056,-0.14179137,-0.040372431,0.98907298,0
0.65252364,-1.7590237,2.6118729,-0.14179137,-0.040372431,0.98907298,0
0.40962505,4.5173025,2.0411329,0.020226598,0.99884129,0.043670863,0
-4.8308501,0.56655192,-0.3835783,-0.98968995,0.026197731,-0.14081043,0
-4.8329992,1.651289,-1.152386,-0.98968995,0.026197731,-0.14081043,0
0.48624706,4.1893039,-2.4805512,0.14179137,0.040372431,-0.98907298,0
-4.8762436,1.7202592,-2.0430605,-0.98968995,0.026197731,-0.14081043,0
-2.6365933,-1.2249508,1.9490907,-0.14179137,-0.040372431,0.98907298,0
5.3321743,-2.7824612,-1.803061,0.98968995,-0.026197731,0.14081043,0
-5.2526846,-4.2541885,1.2082186,-0.98968995,0.026197731,-0.14081043,0
-4.5912151,4.2925372,-1.7617631,-0.98968995,0.026197731,-0.14081043,0
-4.6306362,-0.62400293,1.8920619,-0.14179137,-0.040372431,0.98907298,0
4.767508,-4.4587674,0.74407363,0.98968995,-0.026197731,0.14081043,0
-3.8344076,-4.5488529,-0.14840364,-0.020226598,-0.99884129,-0.043670863,0
-4.2750025,4.5874915,-1.0717262,0.020226598,0.99884129,0.043670863,0
4.9838972,1.0701783,-0.37529087,0.98968995,-0.026197731,0.14081043,0
2.3418369,-2.9100647,-2.4394791,0.14179137,0.040372431,-0.98907298,0
-3.9227064,4.8118305,-2.4518037,0.020226598,0.99884129,0.043670863,0
-4.6419396,3.0274284,-1.6137927,-0.98968995,0.026197731,-0.14081043,0
-5.2407694,-0.48274446,0.079303741,-0.98968995,0.026197731,-0.14081043,0
-0.24199343,4.6400762,0.033255935,0.020226598,0.99884129,0.043670863,0
3.9747422,0.68580198,-1.8636787,0.14179137,0.040372431,-0.98907298,0
0.7852602,-4.4937253,2.2542295,-0.020226598,-0.99884129,-0.043670863,0
-4.6718378,-2.6195052,1.7474785,-0.14179137,-0.040372431,0.98907298,0
1.3089914,4.5130987,1.7895362,0.020226598,0.99884129,0.043670863,0
-1.6388402,-4.5684958,-0.48633575,-0.020226598,-0.99884129,-0.043670863,0
-1.5013869,-4.3860788,1.9334104,-0.14179137,-0.040372431,0.98907298,0
-4.8792129,3.5438614,-1.8713729,-0.98968995,0.026197731,-0.14081043,0
3.4634929,-4.7230015,-1.0040996,-0.020226598,-0.99884129,-0.043670863,0
1.2404842,-4.5520782,-1.2181797,-0.020226598,-0.99884129,-0.043670863,0
-2.893301,2.4269078,-2.6531136,0.14179137,0.040372431,-0.98907298,0
2.6684856,-3.3616281,2.745415,-0.14179137,-0.040372431,0.98907298,0
3.420002,-4.233778,2.6740153,-0.14179137,-0.040372431,0.98907298,0
4.5920048,-2.8501804,-2.1044211,0.14179137,0.040372431,-0.98907298,0
4.8251314,-3.2796483,0.68801093,0.98968995,-0.026197731,0.14081043,0
1.8224373,4.3279533,-2.2346241,0.14179137,0.040372431,-0.98907298,0
-0.22167234,-1.3288276,2.3371513,-0.14179137,-0.040372431,0.98907298,0
-4.0327768,-0.88660061,-3.0418458,0.14179137,0.040372431,-0.98907298,0
3.0737517,-3.8886781,-2.2232187,0.14179137,0.040372431,-0.98907298,0
-0.8751874,1.3566935,2.3341422,-0.14179137,-0.040372431,0.98907298,0
5.4525137,4.2485118,-1.2119641,0.020226598,0.99884129,0.043670863,0
-0.71248841,1.1313996,2.5502892,-0.14179137,-0.040372431,0.98907298,0
3.0546765,4.38305,2.9430892,0.020226598,0.99884129,0.043670863,0
-5.3033209,0.54158783,1.7819176,-0.98968995,0.026197731,-0.14081043,0
2.9617801,-4.3584175,-0.81132787,-0.020226598,-0.99884129,-0.043670863,0
-4.7399673,4.5101027,-0.5240891,-0.98968995,0.026197731,-0.14081043,0
-2.9344959,-1.4540374,-3.1607015,0.14179137,0.040372431,-0.98907298,0
-0.39824247,2.9287908,2.5920022,-0.14179137,-0.040372431,0.98907298,0
-4.7762222,-2.4705153,-1.5144606,-0.98968995,0.026197731,-0.14081043,0
4.8245416,-0.35871792,0.60691118,0.98968995,-0.026197731,0.14081043,0
-5.2759085,-1.1681099,0.61363745,-0.98968995,0.026197731,-0.14081043,0
4.7267814,-0.50367308,-2.0308332,0.14179137,0.040372431,-0.98907298,0
4.7684216,4.214149,0.74403906,0.020226598,0.99884129,0.043670863,0
-2.9295371,0.17609382,2.3030775,-0.14179137,-0.040372431,0.98907298,0
0.82015729,-4.8028054,1.9292597,-0.020226598,-0.99884129,-0.043670863,0
5.2004375,1.6262467,-0.78771973,0.98968995,-0.026197731,0.14081043,0
4.8825955,3.923996,3.1023922,0.98968995,-0.026197731,0.14081043,0
4.8264565,1.1455362,1.3196692,0.98968995,-0.026197731,0.14081043,0
5.3566675,1.6835718,-0.87872124,0.98968995,-0.026197731,0.14081043,0
4.0210152,-4.7268739,0.48499823,-0.020226598,-0.99884129,-0.043670863,0
-4.2168207,-1.3892417,2.0641711,-0.14179137,-0.040372431,0.98907298,0
-1.0590887,-1.1297977,2.4662743,-0.14179137,-0.040372431,0.98907298,0
2.5318308,4.370203,0.36485577,0.020226598,0.99884129,0.043670863,0
-1.8435208,-1.2110643,2.1496069,-0.14179137,-0.040372431,0.98907298,0
3.4063473,-4.5293961,-1.383023,-0.020226598,-0.99884129,-0.043670863,0
5.4230013,-1.2378807,-1.532378,0.98968995,-0.026197731,0.14081043,0
0.47768867,-2.8548701,2.6162705,-0.14179137,-0.040372431,0.98907298,0
4.597743,0.48333675,2.0917521,0.98968995,-0.026197731,0.14081043,0
1.5188432,-4.7582712,1.8974271,-0.020226598,-0.99884129,-0.043670863,0
-5.0844374,-0.044039726,1.069562,-0.98968995,0.026197731,-0.14081043,0
-0.098043203,0.99279094,-2.6517529,0.14179137,0.040372431,-0.98907298,0
2.631758,4.3348293,-0.43443394,0.020226598,0.99884129,0.043670863,0
-5.1740928,-2.0915821,0.22405481,-0.98968995,0.026197731,-0.14081043,0
0.29624295,4.4843025,-0.68942571,0.020226598,0.99884129,0.043670863,0
5.0437007,-1.9560633,-1.6932688,0.98968995,-0.026197731,0.14081043,0
-1.0235815,4.4877343,1.9899666,0.020226598,0.99884129,0.043670863,0
-5.2212334,-1.3697286,1.7165117,-0.14179137,-0.040372431,0.98907298,0
2.8639188,4.449934,2.4352605,0.020226598,0.99884129,0.043670863,0
-5.0296235,-2.8814628,-1.6018553,-0.98968995,0.026197731,-0.14081043,0
4.1788969,4.3723292,1.0810814,0.020226598,0.99884129,0.043670863,0
-4.832068,-0.1816929,-2.3791802,-0.98968995,0.026197731,-0.14081043,0
3.5658574,2.6305923,3.2611432,-0.14179137,-0.040372431,0.98907298,0
-0.1882472,3.4121766,2.6991837,-0.14179137,-0.040372431,0.98907298,0
-1.5962257,-4.446321,-2.769155,-0.020226598,-0.99884129,-0.043670863,0
-2.7755625,-4.5130997,-1.5250163,-0.020226598,-0.99884129,-0.043670863,0
-1.7717946,4.6741381,-1.2707295,0.020226598,0.99884129,0.043670863,0
-0.74929523,-4.3645382,-2.1445575,-0.020226598,-0.99884129,-0.043670863,0
-4.9243593,0.45622766,-1.9558711,-0.98968995,0.026197731,-0.14081043,0
-5.3729129,-1.2883039,1.2769003,-0.98968995,0.026197731,-0.14081043,0
4.6868939,1.7781303,-1.639792,0.14179137,0.040372431,-0.98907298,0
4.0829177,4.5655251,-0.1823926,0.020226598,0.99884129,0.043670863,0
-0.58040428,-4.5872879,-0.35234666,-0.020226598,-0.99884129,-0.043670863,0
4.6503654,-2.2118487,2.8751369,0.98968995,-0.026197731,0.14081043,0
-5.0174294,-3.2193556,-0.18238974,-0.98968995,0.026197731,-0.14081043,0
4.4712825,-3.3197489,2.6037898,0.98968995,-0.026197731,0.14081043,0
3.1957934,-2.6894207,2.6987581,-0.14179137,-0.040372431,0.98907298,0
-5.2060556,1.781852,0.55008268,-0.98968995,0.026197731,-0.14081043,0
3.7552426,0.14578053,3.028532,-0.14179137,-0.040372431,0.98907298,0
4.1685648,-4.4318099,-1.1663611,-0.020226598,-0.99884129,-0.043670863,0
2.2311599,-4.3168998,-0.91721725,-0.020226598,-0.99884129,-0.043670863,0
-1.4003934,-3.6909852,2.1819911,-0.14179137,-0.040372431,0.98907298,0
-4.7799945,-0.61029875,-1.3551369,-0.98968995,0.026197731,-0.14081043,0
-2.3691564,1.8604732,-2.8164899,0.14179137,0.040372431,-0.98907298,0
1.5651529,-4.4227977,0.1365068,-0.020226598,-0.99884129,-0.043670863,0
0.83652973,4.4015064,-0.6060648,0.020226598,0.99884129,0.043670863,0
1.6327964,-3.8339932,2.4196506,-0.14179137,-0.040372431,0.98907298,0
2.7962921,-3.2686207,2.5962746,-0.14179137,-0.040372431,0.98907298,0
4.9668059,1.0684729,1.7849369,0.98968995,-0.026197731,0.14081043,0
-1.7877235,-3.7755694,-2.795778,0.14179137,0.040372431,-0.98907298,0
1.3721099,-4.6493483,1.6385412,-0.020226598,-0.99884129,-0.043670863,0
-2.1891012,1.0731697,-2.6920619,0.14179137,0.040372431,-0.98907298,0
-5.0636525,0.98903942,1.9501052,-0.14179137,-0.040372431,0.98907298,0
-1.743897,-2.6540215,2.1441035,-0.14179137,-0.040372431,0.98907298,0
4.9406934,3.1382499,-1.6454868,0.14179137,0.040372431,-0.98907298,0
4.7565212,0.40987182,1.6944661,0.98968995,-0.026197731,0.14081043,0
2.5957708,-4.7083101,0.31033975,-0.020226598,-0.99884129,-0.043670863,0
-0.66738415,-3.5007129,-2.585104,0.14179137,0.040372431,-0.98907298,0
-0.67997599,4.431973,1.8550754,0.020226598,0.99884129,0.043670863,0
4.6420641,-2.5061283,2.4824929,0.98968995,-0.026197731,0.14081043,0
4.0315747,-3.5481784,3.1313818,-0.14179137,-0.040372431,0.98907298,0
-5.1392112,-1.1826301,-0.7744031,-0.98968995,0.026197731,-0.14081043,0
-4.8804278,4.6599383,-0.89189291,0.020226598,0.99884129,0.043670863,0
-2.4927959,-2.45509,-2.9067631,0.14179137,0.040372431,-0.98907298,0
-0.39199555,-3.267663,2.3956728,-0.14179137,-0.040372431,0.98907298,0
1.019835,-4.3984404,2.3074398,-0.14179137,-0.040372431,0.98907298,0
5.0482373,1.8226892,1.4693265,0.98968995,-0.026197731,0.14081043,0
4.7973204,0.73424613,0.82306623,0.98968995,-0.026197731,0.14081043,0
4.0928583,-4.32446,-1.8070582,-0.020226598,-0.99884129,-0.043670863,0
-5.3767967,-4.0967636,1.2688384,-0.98968995,0.026197731,-0.14081043,0
-0.69673896,-2.5209215,-2.90343,0.14179137,0.040372431,-0.98907298,0
1.169733,-4.7265038,1.8925761,-0.020226598,-0.99884129,-0.043670863,0
-1.1268542,0.05439353,-2.6033847,0.14179137,0.040372431,-0.98907298,0
-3.7478411,-4.3433027,1.327867,-0.020226598,-0.99884129,-0.043670863,0
0.29177976,-4.022028,2.5243425,-0.14179137,-0.040372431,0.98907298,0
5.5336423,2.2311254,-1.7801833,0.98968995,-0.026197731,0.14081043,0
-4.8667836,-4.2924275,-0.01978159,-0.020226598,-0.99884129,-0.043670863,0
-1.5036988,-2.7538173,-3.0366807,0.14179137,0.040372431,-0.98907298,0
2.26401,4.1973934,2.1568711,0.020226598,0.99884129,0.043670863,0
-4.9536653,-1.2221382,-2.2452335,-0.98968995,0.026197731,-0.14081043,0
-1.9689946,-4.2920089,-2.2808685,-0.020226598,-0.99884129,-0.043670863,0
1.4100904,4.6077428,-0.73306894,0.020226598,0.99884129,0.043670863,0
5.0936966,3.5889888,0.43943214,0.98968995,-0.026197731,0.14081043,0
1.7078328,-4.638175,0.57787615,-0.020226598,-0.99884129,-0.043670863,0
2.5493491,4.5584946,-1.4829946,0.020226598,0.99884129,0.043670863,0
1.555521,1.4651927,2.7592375,-0.14179137,-0.040372431,0.98907298,0
-5.1003714,-3.1605773,-0.58245325,-0.98968995,0.026197731,-0.14081043,0
0.040559769,3.0702624,-2.3974679,0.14179137,0.040372431,-0.98907298,0
0.82259953,0.61128497,-2.2390263,0.14179137,0.040372431,-0.98907298,0
1.9070315,-2.2278404,2.8669753,-0.14179137,-0.040372431,0.98907298,0
-5.0469398,-0.32522774,1.8827596,-0.14179137,-0.040372431,0.98907298,0
5.0683436,2.1003308,0.62888813,0.98968995,-0.026197731,0.14081043,0
5.0942307,2.9441118,-0.37609959,0.98968995,-0.026197731,0.14081043,0
2.5945685,4.5830035,0.45819664,0.020226598,0.99884129,0.043670863,0
1.0974913,-4.5368252,-1.7442455,-0.020226598,-0.99884129,-0.043670863,0
-2.1248987,1.3306236,-2.8663929,0.14179137,0.040372431,-0.98907298,0
3.0014677,4.452044,-1.1423497,0.020226598,0.99884129,0.043670863,0
2.7905636,4.6165195,0.6830883,0.020226598,0.99884129,0.043670863,0
-1.4283483,-4.2644863,-0.46295404,-0.020226598,-0.99884129,-0.043670863,0
-4.7474246,-0.86412483,-2.2426529,-0.98968995,0.026197731,-0.14081043,0
-4.6872139,-2.0810792,-2.6306329,-0.98968995,0.026197731,-0.14081043,0
-0.40627575,-4.6087866,0.59788036,-0.020226598,-0.99884129,-0.043670863,0
4.8202,3.2833288,1.6295619,0.98968995,-0.026197731,0.14081043,0
-4.7607718,0.93892419,-2.095048,-0.98968995,0.026197731,-0.14081043,0
-4.5995569,4.7684045,0.1743232,0.020226598,0.99884129,0.043670863,0
-3.2962151,4.5444374,-2.7938106,0.14179137,0.040372431,-0.98907298,0
1.3411098,4.4128661,1.0513604,0.020226598,0.99884129,0.043670863,0
-4.6857362,0.74872363,-1.5294764,-0.98968995,0.026197731,-0.14081043,0
-2.58935,-4.6153231,-0.081779003,-0.020226598,-0.99884129,-0.043670863,0
4.7295351,-3.617929,2.6612854,0.98968995,-0.026197731,0.14081043,0
-4.7103834,-0.084677786,-2.8661222,-0.98968995,0.026197731,-0.14081043,0
2.1131024,-4.7833157,2.2158489,-0.020226598,-0.99884129,-0.043670863,0
-2.5332503,-4.3380942,1.3550522,-0.020226598,-0.99884129,-0.043670863,0
-2.8557489,4.3599215,-2.9483788,0.14179137,0.040372431,-0.98907298,0
2.2126555,1.6640775,-2.2157667,0.14179137,0.040372431,-0.98907298,0
-5.3547225,0.63739395,1.1784399,-0.98968995,0.026197731,-0.14081043,0
-5.049427,-0.18679476,0.85235548,-0.98968995,0.026197731,-0.14081043,0
4.5118666,-2.3882599,-2.1048582,0.14179137,0.040372431,-0.98907298,0
3.6541562,-2.0524881,2.8369055,-0.14179137,-0.040372431,0.98907298,0
-2.9746358,4.7198744,-0.9902361,0.020226598,0.99884129,0.043670863,0
-2.4754481,1.9262538,2.0904157,-0.14179137,-0.040372431,0.98907298,0
-3.5945811,4.7578764,-2.2687004,0.020226598,0.99884129,0.043670863,0
-5.3003888,3.2788997,1.0150173,-0.98968995,0.026197731,-0.14081043,0
1.8420274,-1.1427295,2.8072495,-0.14179137,-0.040372431,0.98907298,0
-2.6789048,-3.447463,-2.8956833,0.14179137,0.040372431,-0.98907298,0
4.3983359,-4.4616117,2.8020475,-0.14179137,-0.040372431,0.98907298,0
-4.7602754,4.3574767,-1.685506,-0.98968995,0.026197731,-0.14081043,0
-4.9296751,0.69801354,-0.70510149,-0.98968995,0.026197731,-0.14081043,0
-4.1361542,-4.2394648,0.20319605,-0.020226598,-0.99884129,-0.043670863,0
-5.1194029,-1.9702809,-0.020574093,-0.98968995,0.026197731,-0.14081043,0
-1.341604,-4.529232,1.6537135,-0.020226598,-0.99884129,-0.043670863,0
4.9118586,-0.28754604,1.5001762,0.98968995,-0.026197731,0.14081043,0
4.7982769,2.4917717,2.5920744,0.98968995,-0.026197731,0.14081043,0
4.7186928,-2.3081729,-2.0576205,0.14179137,0.040372431,-0.98907298,0
-4.8293271,1.6260941,-1.8805974,-0.98968995,0.026197731,-0.14081043,0
-0.88539743,-4.3386889,-0.55681682,-0.020226598,-0.99884129,-0.043670863,0
4.5222492,-4.8106742,1.2373158,-0.020226598,-0.99884129,-0.043670863,0
4.8590674,-3.1716952,1.4855936,0.98968995,-0.026197731,0.14081043,0
4.9423599,2.9874039,0.71591616,0.98968995,-0.026197731,0.14081043,0
-4.8157253,-1.2908382,-1.2089305,-0.98968995,0.026197731,-0.14081043,0
-1.5934629,-4.5322366,-2.0255089,-0.020226598,-0.99884129,-0.043670863,0
1.6426297,-0.081605673,2.8007503,-0.14179137,-0.040372431,0.98907298,0
4.8570423,-4.6071706,-2.1060104,-0.020226598,-0.99884129,-0.043670863,0
5.2815189,3.2354224,-0.87909317,0.98968995,-0.026197731,0.14081043,0
-3.2616024,-3.1492693,1.7296984,-0.14179137,-0.040372431,0.98907298,0
-4.6945515,4.4110546,-0.17061877,0.020226598,0.99884129,0.043670863,0
-4.8172851,-1.0391029,-0.78751278,-0.98968995,0.026197731,-0.14081043,0
3.529315,-4.4812131,0.91724598,-0.020226598,-0.99884129,-0.043670863,0
4.9551697,-1.4348989,-0.53895497,0.98968995,-0.026197731,0.14081043,0
5.4364595,-3.8419561,-2.014822,0.98968995,-0.026197731,0.14081043,0
-4.8859797,0.023569822,-0.41356707,-0.98968995,0.026197731,-0.14081043,0
-0.59152269,-2.8672183,-2.9004924,0.14179137,0.040372431,-0.98907298,0
2.7179949,-4.809762,2.1536765,-0.020226598,-0.99884129,-0.043670863,0
1.1742996,3.3884525,-2.3641772,0.14179137,0.040372431,-0.98907298,0
4.9725933,3.3508725,2.5801821,0.98968995,-0.026197731,0.14081043,0
-0.1609323,1.7200038,2.3791008,-0.14179137,-0.040372431,0.98907298,0
3.0534935,-1.8004662,2.7688973,-0.14179137,-0.040372431,0.98907298,0
3.8594284,-4.395,-1.341785,-0.020226598,-0.99884129,-0.043670863,0
4.7422833,2.3472903,1.6966224,0.98968995,-0.026197731,0.14081043,0
-1.68293,-2.6207917,-2.7589135,0.14179137,0.040372431,-0.98907298,0
-3.3974788,4.5782375,-0.71071553,0.020226598,0.99884129,0.043670863,0
3.2719193,-4.4213533,-2.4158573,-0.020226598,-0.99884129,-0.043670863,0
-0.5136137,1.4292656,-2.5638368,0.14179137,0.040372431,-0.98907298,0
4.9126077,-1.7224156,1.463068,0.98968995,-0.026197731,0.14081043,0
0.97081947,-4.767066,0.96731544,-0.020226598,-0.99884129,-0.043670863,0
-0.43959761,0.64952683,-2.3734293,0.14179137,0.040372431,-0.98907298,0
3.5932055,-0.89798069,-2.2395039,0.14179137,0.040372431,-0.98907298,0
-3.2427776,4.2965736,1.7818344,0.020226598,0.99884129,0.043670863,0
-1.1187159,1.1469343,2.2518063,-0.14179137,-0.040372431,0.98907298,0
-4.4436278,-1.1592739,1.7975917,-0.14179137,-0.040372431,0.98907298,0
4.4301624,-4.4544234,0.52595448,-0.020226598,-0.99884129,-0.043670863,0
4.9646759,-1.8289027,0.33018517,0.98968995,-0.026197731,0.14081043,0
5.1950035,2.3930304,0.26635456,0.98968995,-0.026197731,0.14081043,0
-5.3218961,1.4818854,0.91487408,-0.98968995,0.026197731,-0.14081043,0
1.3580575,3.8040409,2.7100465,-0.14179137,-0.040372431,0.98907298,0
2.5653713,-4.398881,-0.38038525,-0.020226598,-0.99884129,-0.043670863,0
4.934865,-0.98264074,-1.7890563,0.14179137,0.040372431,-0.98907298,0
4.9214373,-3.390552,-1.0731637,0.98968995,-0.026197731,0.14081043,0
4.8069706,4.0289974,1.4670501,0.98968995,-0.026197731,0.14081043,0
-3.5201108,-0.21151161,2.1149225,-0.14179137,-0.040372431,0.98907298,0
-4.8274517,0.52730703,-1.7700427,-0.98968995,0.026197731,-0.14081043,0
4.4504628,-2.3127463,3.1192598,-0.14179137,-0.040372431,0.98907298,0
-3.1413403,-4.2889442,-0.89994955,-0.020226598,-0.99884129,-0.043670863,0
3.2160454,4.4913182,-1.9614997,0.020226598,0.99884129,0.043670863,0
-5.2510533,-0.88590932,1.0238943,-0.98968995,0.026197731,-0.14081043,0
3.3781652,-3.5541952,2.9030948,-0.14179137,-0.040372431,0.98907298,0
-5.0959802,2.5396409,1.0359557,-0.98968995,0.026197731,-0.14081043,0
-5.1596127,0.63344002,0.9790411,-0.98968995,0.026197731,-0.14081043,0
-0.19190311,-3.4373879,2.3713617,-0.14179137,-0.040372431,0.98907298,0
4.3200979,2.4557178,-1.6598635,0.14179137,0.040372431,-0.98907298,0
2.8183243,2.8216913,2.8746345,-0.14179137,-0.040372431,0.98907298,0
-0.66664696,-4.3808432,1.9889715,-0.020226598,-0.99884129,-0.043670863,0
4.5525317,4.3158607,-0.059009075,0.020226598,0.99884129,0.043670863,0
5.077239,-2.3274279,0.63676786,0.98968995,-0.026197731,0.14081043,0
-3.3033085,-1.9664378,-3.1686544,0.14179137,0.040372431,-0.98907298,0
-4.9711528,3.2641492,-0.31094337,-0.98968995,0.026197731,-0.14081043,0
5.0151453,2.1697783,1.1536365,0.98968995,-0.026197731,0.14081043,0
-0.95604038,4.4320765,-1.7376796,0.020226598,0.99884129,0.043670863,0
-1.2229114,-3.682061,2.1219049,-0.14179137,-0.040372431,0.98907298,0
-4.094841,4.8582869,-2.0730488,0.020226598,0.99884129,0.043670863,0
4.128643,4.3321981,-0.51123714,0.020226598,0.99884129,0.043670863,0
1.2967139,-0.26863289,-2.1557753,0.14179137,0.040372431,-0.98907298,0
1.971776,-4.4763422,-2.5972698,0.14179137,0.040372431,-0.98907298,0
-2.9292905,0.77940047,-2.8723412,0.14179137,0.040372431,-0.98907298,0
5.0775909,1.828886,0.048758507,0.98968995,-0.026197731,0.14081043,0
-2.7268727,-4.4989934,-1.4760571,-0.020226598,-0.99884129,-0.043670863,0
4.6604743,-1.3129146,1.8908243,0.98968995,-0.026197731,0.14081043,0
-5.2406373,0.1520052,0.50330305,-0.98968995,0.026197731,-0.14081043,0
0.65873635,-0.050093889,2.7221837,-0.14179137,-0.040372431,0.98907298,0
-2.0612378,1.572448,2.3113527,-0.14179137,-0.040372431,0.98907298,0
-1.6846778,1.1433046,2.4810326,-0.14179137,-0.040372431,0.98907298,0
-0.68813896,4.3335094,1.1064502,0.020226598,0.99884129,0.043670863,0
-3.5172141,-4.3592162,-0.85655594,-0.020226598,-0.99884129,-0.043670863,0
2.4309072,-4.5047131,1.3308036,-0.020226598,-0.99884129,-0.043670863,0
-1.1283755,4.4789572,0.53887939,0.020226598,0.99884129,0.043670863,0
-3.5490532,-4.517055,1.1113267,-0.020226598,-0.99884129,-0.043670863,0
0.73717546,-4.6300707,-0.51665211,-0.020226598,-0.99884129,-0.043670863,0
-4.5636063,-0.57181549,1.6615818,-0.14179137,-0.040372431,0.98907298,0
4.7936773,-0.98005158,2.8529048,0.98968995,-0.026197731,0.14081043,0
5.0636492,4.0149331,1.742887,0.98968995,-0.026197731,0.14081043,0
4.4058566,-3.2201376,2.7459555,0.98968995,-0.026197731,0.14081043,0
1.8655434,4.7022176,-1.3159182,0.020226598,0.99884129,0.043670863,0
5.1933322,2.9515748,-0.077979565,0.98968995,-0.026197731,0.14081043,0
4.4959807,-2.4166598,2.0563748,0.98968995,-0.026197731,0.14081043,0
-4.5874128,-4.5319166,0.38750553,-0.020226598,-0.99884129,-0.043670863,0
5.1643047,0.76184344,0.64942837,0.98968995,-0.026197731,0.14081043,0
2.6026516,3.9923468,3.227366,-0.14179137,-0.040372431,0.98907298,0
1.345269,4.6186213,-0.56718564,0.020226598,0.99884129,0.043670863,0
-3.1447847,-4.1611099,-2.2157545,-0.020226598,-0.99884129,-0.043670863,0
3.6251152,-2.4591446,2.9370489,-0.14179137,-0.040372431,0.98907298,0
2.4921246,3.1913157,-2.1841743,0.14179137,0.040372431,-0.98907298,0
-1.5982797,-0.8533383,-2.6200368,0.14179137,0.040372431,-0.98907298,0
-5.2418804,-0.90646529,1.0740814,-0.98968995,0.026197731,-0.14081043,0
-1.6269324,-1.4885609,-2.9088407,0.14179137,0.040372431,-0.98907298,0
-1.2146502,-2.3482518,2.1088266,-0.14179137,-0.040372431,0.98907298,0
4.8271794,-1.4197605,2.5647309,0.98968995,-0.026197731,0.14081043,0
0.60850525,4.2518282,1.9438061,0.020226598,0.99884129,0.043670863,0
-2.8064804,-2.1579015,1.8895323,-0.14179137,-0.040372431,0.98907298,0
3.1108577,1.0196974,-1.8802848,0.14179137,0.040372431,-0.98907298,0
-5.2448697,0.60750198,0.40605164,-0.98968995,0.026197731,-0.14081043,0
2.4338956,1.658332,2.8975091,-0.14179137,-0.040372431,0.98907298,0
4.1464357,2.6579361,-1.6565142,0.14179137,0.040372431,-0.98907298,0
5.3398976,0.9727006,-1.1756678,0.98968995,-0.026197731,0.14081043,0
-5.3158703,-1.2824512,0.88638973,-0.98968995,0.026197731,-0.14081043,0
1.9477844,-4.4246974,-0.58469707,-0.020226598,-0.99884129,-0.043670863,0
4.9542866,-3.7571678,-0.45164895,0.98968995,-0.026197731,0.14081043,0
0.15275264,1.9098563,2.4353299,-0.14179137,-0.040372431,0.98907298,0
-4.9853916,-4.4975166,-0.23694229,-0.020226598,-0.99884129,-0.043670863,0
-0.54338717,4.4961925,-0.74747002,0.020226598,0.99884129,0.043670863,0
4.0285101,2.5824215,-1.83426,0.14179137,0.040372431,-0.98907298,0
1.214812,-3.2994277,-2.2957022,0.14179137,0.040372431,-0.98907298,0
5.1846056,-3.5772104,-1.9915316,0.14179137,0.040372431,-0.98907298,0
-1.9024708,-0.10184777,-2.7233315,0.14179137,0.040372431,-0.98907298,0
4.469883,4.4604459,-0.62525558,0.020226598,0.99884129,0.043670863,0
-4.8690944,1.8840157,-0.014389515,-0.98968995,0.026197731,-0.14081043,0
2.3087082,4.3927817,-1.3853559,0.020226598,0.99884129,0.043670863,0
1.23738,-1.3698115,-2.3125725,0.14179137,0.040372431,-0.98907298,0
2.8623965,4.3301134,0.48889351,0.020226598,0.99884129,0.043670863,0
3.8245933,-4.7146273,-0.82209641,-0.020226598,-0.99884129,-0.043670863,0
0.65338635,-3.8070407,2.4758484,-0.14179137,-0.040372431,0.98907298,0
4.9790158,-2.1554747,1.3702555,0.98968995,-0.026197731,0.14081043,0
-4.640595,4.3408966,-1.0287833,-0.98968995,0.026197731,-0.14081043,0
-1.6647983,4.5206313,2.3534038,0.020226598,0.99884129,0.043670863,0
3.7625494,-1.931138,-2.1259682,0.14179137,0.040372431,-0.98907298,0
-4.6738915,-1.4967403,-3.0412359,-0.98968995,0.026197731,-0.14081043,0
-5.0942636,1.6094613,1.1175284,-0.98968995,0.026197731,-0.14081043,0
-4.9688611,-3.5149906,-1.8698421,-0.98968995,0.026197731,-0.14081043,0
4.6024928,-1.5482465,1.5243196,0.98968995,-0.026197731,0.14081043,0
2.4135954,4.2779207,1.4383543,0.020226598,0.99884129,0.043670863,0
-4.2022305,4.39112,1.3405347,0.020226598,0.99884129,0.043670863,0
0.33524036,-4.609931,2.4228246,-0.020226598,-0.99884129,-0.043670863,0
5.3652654,4.042757,-0.33932877,0.98968995,-0.026197731,0.14081043,0
-0.10971284,-4.5708451,1.985932,-0.020226598,-0.99884129,-0.043670863,0
2.7406492,-4.3992753,-1.2214664,-0.020226598,-0.99884129,-0.043670863,0
0.33294392,4.3769131,0.66753745,0.020226598,0.99884129,0.043670863,0
4.25916,4.3924456,0.47863197,0.020226598,0.99884129,0.043670863,0
4.4535894,-4.5174017,1.9215873,-0.020226598,-0.99884129,-0.043670863,0
0.86630511,-4.5659924,0.83518434,-0.020226598,-0.99884129,-0.043670863,0
-2.013814,2.4662211,-2.700736,0.14179137,0.040372431,-0.98907298,0
4.8653798,3.4514222,2.0176787,0.98968995,-0.026197731,0.14081043,0
-5.4012737,-2.3262048,1.1503038,-0.98968995,0.026197731,-0.14081043,0
-0.62351704,-4.3732176,-1.0430841,-0.020226598,-0.99884129,-0.043670863,0
3.264066,-2.1473086,3.0158122,-0.14179137,-0.040372431,0.98907298,0
-4.6887803,2.9404035,-2.5261736,-0.98968995,0.026197731,-0.14081043,0
-1.4091818,-4.4581451,1.7786741,-0.020226598,-0.99884129,-0.043670863,0
5.2778311,2.8487124,-1.6720243,0.98968995,-0.026197731,0.14081043,0
4.3648844,-4.5427418,-1.3961012,-0.020226598,-0.99884129,-0.043670863,0
-0.8665849,3.6341641,-2.5396581,0.14179137,0.040372431,-0.98907298,0
3.2937632,4.454062,0.2784481,0.020226598,0.99884129,0.043670863,0
-4.7944355,-2.1882782,-2.2230406,-0.98968995,0.026197731,-0.14081043,0
1.6238704,-4.4195948,-1.6596185,-0.020226598,-0.99884129,-0.043670863,0
-3.7780924,4.6287823,-1.8723445,0.020226598,0.99884129,0.043670863,0
-4.8319345,0.70448256,-0.056874275,-0.98968995,0.026197731,-0.14081043,0
0.50261354,-3.8560705,-2.569298,0.14179137,0.040372431,-0.98907298,0
-4.5578041,4.4971313,1.4333414,0.020226598,0.99884129,0.043670863,0
4.3579874,-4.6813064,-0.30838668,-0.020226598,-0.99884129,-0.043670863,0
-0.13437605,-4.2678704,-1.3113137,-0.020226598,-0.99884129,-0.043670863,0
4.7754536,-0.80879605,2.1316404,0.98968995,-0.026197731,0.14081043,0
0.96401548,4.5355201,1.100805,0.020226598,0.99884129,0.043670863,0
-5.1815104,3.2925141,1.260303,-0.98968995,0.026197731,-0.14081043,0
-3.8796453,4.6055341,-2.0226829,0.020226598,0.99884129,0.043670863,0
3.8788223,4.2892232,0.51166058,0.020226598,0.99884129,0.043670863,0
3.27352,4.3819089,-1.700007,0.020226598,0.99884129,0.043670863,0
-5.0113587,1.0208828,0.33084989,-0.98968995,0.026197731,-0.14081043,0
2.5460227,2.4902825,2.8556695,-0.14179137,-0.040372431,0.98907298,0
-1.337822,4.5015774,-0.28882736,0.020226598,0.99884129,0.043670863,0
-0.59464931,4.4619741,-0.16022336,0.020226598,0.99884129,0.043670863,0
-4.5971079,-3.8123989,-3.3907766,-0.98968995,0.026197731,-0.14081043,0
4.8058357,2.1686149,2.906755,0.98968995,-0.026197731,0.14081043,0
5.409204,2.3429246,-1.5983086,0.14179137,0.040372431,-0.98907298,0
-5.0158429,-3.1172214,-0.39514303,-0.98968995,0.026197731,-0.14081043,0
4.8438983,2.0879672,2.0443001,0.98968995,-0.026197731,0.14081043,0
4.8159819,-2.5849528,0.56235027,0.98968995,-0.026197731,0.14081043,0
0.56829262,4.6726918,-2.3069477,0.020226598,0.99884129,0.043670863,0
5.2762852,1.5144362,-1.7256894,0.98968995,-0.026197731,0.14081043,0
4.8500667,0.36415482,2.0741036,0.98968995,-0.026197731,0.14081043,0
4.9457917,-1.1648371,-1.7195601,0.14179137,0.040372431,-0.98907298,0
1.116631,-4.4017167,-0.77534258,-0.020226598,-0.99884129,-0.043670863,0
-4.5166006,4.7772512,-0.048863769,0.020226598,0.99884129,0.043670863,0
-2.3823087,-2.503804,-3.1150873,0.14179137,0.040372431,-0.98907298,0
-5.0071578,-2.2172976,0.37460756,-0.98968995,0.026197731,-0.14081043,0
-0.070923805,-4.4087877,2.1753714,-0.020226598,-0.99884129,-0.043670863,0
-1.1391389,4.6162496,-2.4099357,0.14179137,0.040372431,-0.98907298,0
-4.614892,-2.7191782,-3.1545267,-0.98968995,0.026197731,-0.14081043,0
-1.1200758,-1.7632535,2.3057139,-0.14179137,-0.040372431,0.98907298,0
-4.2256484,-0.93116742,-3.365612,0.14179137,0.040372431,-0.98907298,0
-3.451791,4.1172318,2.3720126,-0.14179137,-0.040372431,0.98907298,0
-0.21219921,4.710568,-2.1477811,0.020226598,0.99884129,0.043670863,0
-0.070126057,4.0798802,2.6418607,-0.14179137,-0.040372431,0.98907298,0
-4.3353477,4.3982568,1.7546139,0.020226598,0.99884129,0.043670863,0
-5.2921114,2.7537715,1.2084942,-0.98968995,0.026197731,-0.14081043,0
-2.6906142,-1.8111805,-3.1697621,0.14179137,0.040372431,-0.98907298,0
-2.2348452,-2.8545737,-2.7932115,0.14179137,0.040372431,-0.98907298,0
1.8460596,-3.2848327,2.6351013,-0.14179137,-0.040372431,0.98907298,0
-0.86355972,4.8101606,-2.1222634,0.020226598,0.99884129,0.043670863,0
-2.3192279,-2.8068726,1.9053721,-0.14179137,-0.040372431,0.98907298,0
-4.8137541,2.8721137,1.8930812,-0.14179137,-0.040372431,0.98907298,0
3.6581008,-4.6260653,0.041205049,-0.020226598,-0.99884129,-0.043670863,0
2.2866416,-3.0979812,2.7795124,-0.14179137,-0.040372431,0.98907298,0
-2.3046961,4.3987999,0.89704585,0.020226598,0.99884129,0.043670863,0
2.9751425,-3.3539152,-2.2909529,0.14179137,0.040372431,-0.98907298,0
3.8819811,-4.6288271,0.20616555,-0.020226598,-0.99884129,-0.043670863,0
-3.7185607,-4.2729826,-3.2292066,-0.020226598,-0.99884129,-0.043670863,0
2.0688403,-3.8476055,2.4723709,-0.14179137,-0.040372431,0.98907298,0
5.0169468,0.84293079,1.1625333,0.98968995,-0.026197731,0.14081043,0
5.0447068,4.0268574,0.20004845,0.98968995,-0.026197731,0.14081043,0
3.3185811,4.6280336,-0.58201933,0.020226598,0.99884129,0.043670863,0
-0.7735343,-4.4664173,-2.542068,-0.020226598,-0.99884129,-0.043670863,0
4.740222,-4.5076766,-1.2510432,-0.020226598,-0.99884129,-0.043670863,0
-1.5991484,0.014372706,-2.6589177,0.14179137,0.040372431,-0.98907298,0
-0.26411843,-4.4905663,2.3116672,-0.14179137,-0.040372431,0.98907298,0
0.45820785,-1.5114838,-2.6320128,0.14179137,0.040372431,-0.98907298,0
-4.8539662,1.08241,-2.0111594,-0.98968995,0.026197731,-0.14081043,0
-4.9896336,-2.3027618,1.8523741,-0.14179137,-0.040372431,0.98907298,0
-0.35126758,-2.0161376,2.314512,-0.14179137,-0.040372431,0.98907298,0
2.6905582,0.4422338,-2.2723527,0.14179137,0.040372431,-0.98907298,0
5.271071,-0.78201914,-1.1791244,0.98968995,-0.026197731,0.14081043,0
-4.4785266,4.5400634,2.0133874,0.020226598,0.99884129,0.043670863,0
5.0741582,-2.4326174,-1.6150727,0.98968995,-0.026197731,0.14081043,0
3.5488117,4.518126,1.339272,0.020226598,0.99884129,0.043670863,0
-5.2282825,-3.8680058,1.5881996,-0.98968995,0.026197731,-0.14081043,0
-0.2758317,4.4457426,-1.0692505,0.020226598,0.99884129,0.043670863,0
-4.6770496,3.4163008,-0.78889346,-0.98968995,0.026197731,-0.14081043,0
1.8350334,4.292779,1.9013269,0.020226598,0.99884129,0.043670863,0
-3.6650507,0.27624324,-3.092066,0.14179137,0.040372431,-0.98907298,0
4.2164221,-4.5290976,0.46342862,-0.020226598,-0.99884129,-0.043670863,0
-3.7417064,4.2080622,2.039438,-0.14179137,-0.040372431,0.98907298,0
5.147563,1.9914269,-0.75502062,0.98968995,-0.026197731,0.14081043,0
4.8879185,-0.56909776,0.64219236,0.98968995,-0.026197731,0.14081043,0
3.7857823,3.1691084,-2.0152838,0.14179137,0.040372431,-0.98907298,0
5.047708,2.9849765,-1.6729856,0.14179137,0.040372431,-0.98907298,0
-5.0406361,-1.3634911,1.0049291,-0.98968995,0.026197731,-0.14081043,0
-2.9893599,-4.2946792,0.013407707,-0.020226598,-0.99884129,-0.043670863,0
1.1375608,-4.6831975,-0.92518467,-0.020226598,-0.99884129,-0.043670863,0
-4.5067387,4.6490126,1.6882944,0.020226598,0.99884129,0.043670863,0
4.7317119,-0.081975996,2.5254571,0.98968995,-0.026197731,0.14081043,0
-2.7685244,-4.6669517,0.98348951,-0.020226598,-0.99884129,-0.043670863,0
4.4548492,2.9943855,-1.6881871,0.14179137,0.040372431,-0.98907298,0
5.1884661,-2.615423,-0.69988775,0.98968995,-0.026197731,0.14081043,0
3.080061,3.2945194,3.189719,-0.14179137,-0.040372431,0.98907298,0
1.451961,4.4455099,-1.8389127,0.020226598,0.99884129,0.043670863,0
-1.4491673,1.3380218,2.4660804,-0.14179137,-0.040372431,0.98907298,0
-0.95697093,2.9471288,2.5821862,-0.14179137,-0.040372431,0.98907298,0
-5.0602102,-0.043343544,-0.63918686,-0.98968995,0.026197731,-0.14081043,0
-5.0606298,-3.8576403,-0.23846388,-0.98968995,0.026197731,-0.14081043,0
0.43170881,-4.4469304,1.043637,-0.020226598,-0.99884129,-0.043670863,0
-0.17669392,-4.6502156,0.16340876,-0.020226598,-0.99884129,-0.043670863,0
5.2056465,2.3281512,-1.3142581,0.98968995,-0.026197731,0.14081043,0
-4.9363918,0.84915191,-1.9350727,-0.98968995,0.026197731,-0.14081043,0
5.2694244,4.489253,-0.88011742,0.020226598,0.99884129,0.043670863,0
4.4329548,-4.563448,-1.6388721,-0.020226598,-0.99884129,-0.043670863,0
-0.13374043,-4.3636527,-0.76079392,-0.020226598,-0.99884129,-0.043670863,0
4.9769683,-0.8161006,-0.70655131,0.98968995,-0.026197731,0.14081043,0
0.10150647,1.1716202,2.7571049,-0.14179137,-0.040372431,0.98907298,0
1.9112948,3.8886609,-2.0809004,0.14179137,0.040372431,-0.98907298,0
4.3329926,4.3304777,1.0552669,0.020226598,0.99884129,0.043670863,0
1.6291273,-2.9958861,2.8133116,-0.14179137,-0.040372431,0.98907298,0
2.3792324,4.3323278,2.9173837,0.020226598,0.99884129,0.043670863,0
-3.664784,2.7691832,2.2458582,-0.14179137,-0.040372431,0.98907298,0
-0.92602444,2.8020294,-2.4288652,0.14179137,0.040372431,-0.98907298,0
-1.8400702,-4.3953218,-2.2797322,-0.020226598,-0.99884129,-0.043670863,0
-5.1761498,3.7410574,0.95904207,-0.98968995,0.026197731,-0.14081043,0
-5.1890764,-3.3835778,-0.082081318,-0.98968995,0.026197731,-0.14081043,0
4.9745407,-4.5553341,0.36974835,0.98968995,-0.026197731,0.14081043,0
3.9665871,4.1227045,2.7409625,0.020226598,0.99884129,0.043670863,0
-5.0441856,-4.2276249,-0.13586617,-0.020226598,-0.99884129,-0.043670863,0
0.51499999,-0.73475444,2.3867891,-0.14179137,-0.040372431,0.98907298,0
4.9198756,-0.37662745,-0.36996078,0.98968995,-0.026197731,0.14081043,0
4.6056604,3.9500358,3.0548782,0.98968995,-0.026197731,0.14081043,0
-4.9603834,-4.499145,-0.063818455,-0.98968995,0.026197731,-0.14081043,0
-1.8315802,-4.2162209,-1.6842608,-0.020226598,-0.99884129,-0.043670863,0
-4.6011906,2.4923816,-2.0756342,-0.98968995,0.026197731,-0.14081043,0
-2.2290573,-3.4921196,-2.8756256,0.14179137,0.040372431,-0.98907298,0
