1.62406,-0.31123757,-4.7061362,0.19593918,0.047183782,-0.97948021,0
1.7471168,0.60504568,3.186291,0.97908121,0.04644835,0.19809692,0
-3.0000343,-0.18736529,4.4743195,-0.19593918,-0.047183782,0.97948021,0
-2.127852,3.9372971,-2.2278709,-0.054842234,0.99780566,0.037095688,0
0.029490948,-2.7502522,-5.1148777,0.19593918,0.047183782,-0.97948021,0
0.62935615,-0.19661808,5.1803608,-0.19593918,-0.047183782,0.97948021,0
-2.5032868,-4.4530702,4.0554709,0.054842234,-0.99780566,-0.037095688,0
-0.0050648451,-1.6022192,4.8670778,-0.19593918,-0.047183782,0.97948021,0
-1.5864315,-1.6262207,-4.7963142,-0.97908121,-0.04644835,-0.19809692,0
0.51602077,-3.9993525,4.676743,0.054842234,-0.99780566,-0.037095688,0
1.5630844,2.9333391,4.2451315,0.97908121,0.04644835,0.19809692,0
-0.40830314,2.6563065,-5.0528054,0.19593918,0.047183782,-0.97948021,0
-0.67465913,1.7690519,-5.1155391,0.19593918,0.047183782,-0.97948021,0
-1.061507,0.0069282055,-5.2827926,0.19593918,0.047183782,-0.97948021,0
1.8515069,-3.752126,3.4760151,0.97908121,0.04644835,0.19809692,0
-2.1313808,0.80719566,-2.2502589,-0.97908121,-0.04644835,-0.19809692,0
0.51461554,2.2299316,-4.8757796,0.19593918,0.047183782,-0.97948021,0
-1.716763,-3.7522044,-2.962894,-0.97908121,-0.04644835,-0.19809692,0
-0.31368351,-3.68853,-4.3884206,0.054842234,-0.99780566,-0.037095688,0
3.1010523,1.0222114,-3.7344453,0.97908121,0.04644835,0.19809692,0
-0.42697048,3.7947149,0.7975291,-0.054842234,0.99780566,0.037095688,0
-0.75096798,3.828536,3.6992948,-0.054842234,0.99780566,0.037095688,0
0.47509241,3.8000522,4.1377735,-0.054842234,0.99780566,0.037095688,0
-0.29911041,3.9842975,-4.7350507,-0.054842234,0.99780566,0.037095688,0
1.7987618,-3.023288,4.4517403,0.97908121,0.04644835,0.19809692,0
-0.077908516,-1.840449,4.965188,-0.19593918,-0.047183782,0.97948021,0
-0.84600043,-1.6588949,-5.3770165,0.19593918,0.047183782,-0.97948021,0
-1.826601,3.794775,1.1518893,-0.054842234,0.99780566,0.037095688,0
-3.0042927,-4.0291123,4.358881,-0.19593918,-0.047183782,0.97948021,0
-2.6890903,-3.1570084,1.9917986,-0.97908121,-0.04644835,-0.19809692,0
-1.358584,-1.7813095,4.9252062,-0.19593918,-0.047183782,0.97948021,0
-0.47753692,3.9761755,-2.7128708,-0.054842234,0.99780566,0.037095688,0
-2.2786739,1.201406,4.864759,-0.19593918,-0.047183782,0.97948021,0
-3.2269895,0.4170773,3.8665071,-0.97908121,-0.04644835,-0.19809692,0
0.9428041,-3.2315221,5.0662746,-0.19593918,-0.047183782,0.97948021,0
-0.42452431,4.0580535,1.287457,-0.054842234,0.99780566,0.037095688,0
2.2672627,2.9127822,-4.5081034,0.19593918,0.047183782,-0.97948021,0
3.1360874,2.0491018,-2.4076343,0.97908121,0.04644835,0.19809692,0
-3.0478389,0.78600717,2.8194115,-0.97908121,-0.04644835,-0.19809692,0
3.2769532,-0.18058276,-3.3666055,0.97908121,0.04644835,0.19809692,0
2.3849058,1.4617553,0.55744731,0.97908121,0.04644835,0.19809692,0
2.2411194,-2.4209571,2.8268893,0.97908121,0.04644835,0.19809692,0
1.1596105,-3.4487867,-5.0339465,0.19593918,0.047183782,-0.97948021,0
3.102083,-1.1716757,-3.124563,0.97908121,0.04644835,0.19809692,0
-0.56653404,-1.2604834,-5.3940291,0.19593918,0.047183782,-0.97948021,0
-3.3317792,2.8171828,3.328758,-0.97908121,-0.04644835,-0.19809692,0
0.53420663,0.44883803,-4.8948765,0.19593918,0.047183782,-0.97948021,0
1.7007282,2.0368626,3.0951233,0.97908121,0.04644835,0.19809692,0
1.5548627,-4.1731491,3.797214,0.054842234,-0.99780566,-0.037095688,0
3.4172029,-1.2446184,-3.9671974,0.97908121,0.04644835,0.19809692,0
-0.7702083,1.4900475,-5.2729568,0.19593918,0.047183782,-0.97948021,0
-3.1770291,2.9389658,2.9484878,-0.97908121,-0.04644835,-0.19809692,0
1.0458629,-1.1034805,-5.033742,0.19593918,0.047183782,-0.97948021,0
2.5537193,3.8237319,-0.29337889,0.97908121,0.04644835,0.19809692,0
-1.9279194,-4.067091,3.6271443,0.054842234,-0.99780566,-0.037095688,0
-0.37565279,-3.7403748,-4.6094065,0.054842234,-0.99780566,-0.037095688,0
0.084569693,-2.7949526,4.999999,-0.19593918,-0.047183782,0.97948021,0
-3.2110496,0.81820941,3.0197754,-0.97908121,-0.04644835,-0.19809692,0
-2.4486005,3.9210219,1.9435902,-0.054842234,0.99780566,0.037095688,0
1.7565799,3.9312458,2.7472823,-0.054842234,0.99780566,0.037095688,0
1.8053231,3.6548524,2.3706696,0.97908121,0.04644835,0.19809692,0
-2.0213661,2.5649519,-3.6903358,-0.97908121,-0.04644835,-0.19809692,0
1.645699,-0.70232403,-4.6499543,0.19593918,0.047183782,-0.97948021,0
-3.2604029,2.578856,2.5635478,-0.97908121,-0.04644835,-0.19809692,0
1.7296644,-3.3991637,5.0972314,0.97908121,0.04644835,0.19809692,0
-1.0248444,-2.9091392,-5.3927803,0.19593918,0.047183782,-0.97948021,0
1.3178501,-2.5863359,-5.0950737,0.19593918,0.047183782,-0.97948021,0
-2.6224372,1.5622838,-0.20921305,-0.97908121,-0.04644835,-0.19809692,0
-0.74545074,-2.1387491,-5.3424511,0.19593918,0.047183782,-0.97948021,0
-1.4562917,-4.1871595,0.74289435,0.054842234,-0.99780566,-0.037095688,0
1.1468616,0.049581766,5.1457415,-0.19593918,-0.047183782,0.97948021,0
2.6294661,0.96752095,-4.4018192,0.19593918,0.047183782,-0.97948021,0
-0.63744402,-4.2241716,-0.31355727,0.054842234,-0.99780566,-0.037095688,0
-1.9973781,-2.9588311,-2.1812234,-0.97908121,-0.04644835,-0.19809692,0
-2.802062,3.0212772,1.0306077,-0.97908121,-0.04644835,-0.19809692,0
-0.86886263,-4.3454847,3.8423665,0.054842234,-0.99780566,-0.037095688,0
-0.86497784,3.870873,0.66783088,-0.054842234,0.99780566,0.037095688,0
0.50501394,4.0836539,0.59786463,-0.054842234,0.99780566,0.037095688,0
1.6039302,-3.9251325,-4.1262894,0.054842234,-0.99780566,-0.037095688,0
-1.2479062,-4.0405722,0.33502948,0.054842234,-0.99780566,-0.037095688,0
-1.1903067,-3.8444474,-2.1178341,0.054842234,-0.99780566,-0.037095688,0
2.3054562,-3.0372798,2.0246382,0.97908121,0.04644835,0.19809692,0
-2.8288906,0.67142296,4.4725847,-0.19593918,-0.047183782,0.97948021,0
2.1118598,-3.8619459,2.0596313,0.054842234,-0.99780566,-0.037095688,0
1.4084237,-3.8261108,2.255615,0.054842234,-0.99780566,-0.037095688,0
-0.68001938,-4.1069131,-2.3177938,0.054842234,-0.99780566,-0.037095688,0
-0.58667505,-0.34988081,5.1112223,-0.19593918,-0.047183782,0.97948021,0
-2.3039286,-3.6346536,-0.97587985,-0.97908121,-0.04644835,-0.19809692,0
1.912914,-0.2597971,3.7254391,0.97908121,0.04644835,0.19809692,0
-0.37625742,4.2813363,-3.471617,-0.054842234,0.99780566,0.037095688,0
2.172961,-0.53809094,1.9071528,0.97908121,0.04644835,0.19809692,0
1.7718399,2.1118474,3.045191,0.97908121,0.04644835,0.19809692,0
-2.5558171,-3.4273465,1.0183103,-0.97908121,-0.04644835,-0.19809692,0
-3.2605336,3.5743358,3.9646375,-0.054842234,0.99780566,0.037095688,0
-0.37015438,3.7850611,3.7924206,-0.054842234,0.99780566,0.037095688,0
-1.6408052,-4.072979,3.6386521,0.054842234,-0.99780566,-0.037095688,0
-2.0509648,-0.36582041,-3.0239143,-0.97908121,-0.04644835,-0.19809692,0
1.6543076,-3.9608784,4.9454598,0.97908121,0.04644835,0.19809692,0
2.3619359,-3.7867615,-1.2502751,0.054842234,-0.99780566,-0.037095688,0
-1.1980886,-4.1564493,4.0922546,0.054842234,-0.99780566,-0.037095688,0
0.63645744,3.6807318,5.221446,-0.054842234,0.99780566,0.037095688,0
0.36029816,3.9868999,4.0047674,-0.054842234,0.99780566,0.037095688,0
-1.4794745,-4.0939136,1.5352921,0.054842234,-0.99780566,-0.037095688,0
-2.5028672,0.62598181,0.17409956,-0.97908121,-0.04644835,-0.19809692,0
2.4531934,-3.7354314,0.15238294,0.054842234,-0.99780566,-0.037095688,0
1.9476128,2.9161048,1.3917108,0.97908121,0.04644835,0.19809692,0
1.780248,-0.1679337,4.3461308,0.97908121,0.04644835,0.19809692,0
-2.5230498,-4.1450152,2.8206511,0.054842234,-0.99780566,-0.037095688,0
2.4947679,0.71885478,-0.71273243,0.97908121,0.04644835,0.19809692,0
2.0172212,2.458719,1.7118967,0.97908121,0.04644835,0.19809692,0
-2.1333597,2.2920911,-3.4472961,-0.97908121,-0.04644835,-0.19809692,0
-1.8826952,-0.62363547,4.8670034,-0.19593918,-0.047183782,0.97948021,0
-2.5001388,-4.200079,2.6224573,0.054842234,-0.99780566,-0.037095688,0
-3.5310791,2.6398416,4.0363503,-0.97908121,-0.04644835,-0.19809692,0
0.32399249,-1.7956601,-5.1878362,0.19593918,0.047183782,-0.97948021,0
3.1834781,3.4115515,-2.9143353,0.97908121,0.04644835,0.19809692,0
0.82378757,2.3154504,-4.8854666,0.19593918,0.047183782,-0.97948021,0
2.8688743,-2.2324269,-1.6910678,0.97908121,0.04644835,0.19809692,0
1.8043965,-2.4418793,3.3488824,0.97908121,0.04644835,0.19809692,0
0.51024449,-1.1989913,-4.8663058,0.19593918,0.047183782,-0.97948021,0
-0.70215261,0.69505739,-5.0605621,0.19593918,0.047183782,-0.97948021,0
-1.5804828,1.9160926,4.7097235,-0.19593918,-0.047183782,0.97948021,0
1.6489682,-3.7917724,-2.0839691,0.054842234,-0.99780566,-0.037095688,0
-2.1093152,2.4659338,-2.1724749,-0.97908121,-0.04644835,-0.19809692,0
0.38446522,-4.0633254,0.92757964,0.054842234,-0.99780566,-0.037095688,0
2.7305763,0.85093331,-0.084419042,0.97908121,0.04644835,0.19809692,0
-1.9529445,-0.02065134,-2.9143093,-0.97908121,-0.04644835,-0.19809692,0
0.24576569,2.6772814,-5.1284599,0.19593918,0.047183782,-0.97948021,0
-0.31958103,-3.6304131,-5.5370288,0.19593918,0.047183782,-0.97948021,0
-0.71380472,-2.8557682,4.9504747,-0.19593918,-0.047183782,0.97948021,0
-0.60300422,3.4354126,5.1162214,-0.19593918,-0.047183782,0.97948021,0
1.9399807,-1.7326963,4.3712521,0.97908121,0.04644835,0.19809692,0
2.6584282,3.1565707,-2.2513676,0.97908121,0.04644835,0.19809692,0
-2.7602766,-2.3694031,0.95319688,-0.97908121,-0.04644835,-0.19809692,0
0.023236752,-3.7926164,-2.6047549,0.054842234,-0.99780566,-0.037095688,0
-2.1305995,-1.1816652,4.8045278,-0.19593918,-0.047183782,0.97948021,0
2.1621795,-0.54105258,-4.7897205,0.19593918,0.047183782,-0.97948021,0
-1.7333759,2.266753,-4.0378609,-0.97908121,-0.04644835,-0.19809692,0
-0.22100163,1.380657,4.9967089,-0.19593918,-0.047183782,0.97948021,0
-0.5408237,-1.0674478,-5.0785594,0.19593918,0.047183782,-0.97948021,0
1.4224982,2.0504653,-4.7126751,0.19593918,0.047183782,-0.97948021,0
-0.9930191,-2.4560838,-5.2828484,0.19593918,0.047183782,-0.97948021,0
-2.4088597,-2.2116377,0.51359445,-0.97908121,-0.04644835,-0.19809692,0
-1.5610707,3.8225474,0.23452634,-0.054842234,0.99780566,0.037095688,0
1.6673492,-1.7584281,4.0393558,0.97908121,0.04644835,0.19809692,0
0.41115713,3.967622,3.029247,-0.054842234,0.99780566,0.037095688,0
-0.4940424,-4.2715635,1.6840463,0.054842234,-0.99780566,-0.037095688,0
0.34384084,-3.9675772,-0.56331116,0.054842234,-0.99780566,-0.037095688,0
2.96292,-2.2423463,-1.3905151,0.97908121,0.04644835,0.19809692,0
-1.7939672,-4.2031507,0.40132672,0.054842234,-0.99780566,-0.037095688,0
-0.23345995,3.7441421,2.4104502,-0.054842234,0.99780566,0.037095688,0
-1.7752302,-2.6282387,4.6601748,-0.19593918,-0.047183782,0.97948021,0
3.2875032,-1.9585404,-3.5629859,0.97908121,0.04644835,0.19809692,0
0.73555183,-3.4319963,-4.9192777,0.19593918,0.047183782,-0.97948021,0
0.44636822,-3.9975626,3.7880652,0.054842234,-0.99780566,-0.037095688,0
-2.5241652,3.0088549,0.1344192,-0.97908121,-0.04644835,-0.19809692,0
-0.84962499,1.3534216,-5.3673944,0.19593918,0.047183782,-0.97948021,0
0.63848925,-3.8558774,-2.2520039,0.054842234,-0.99780566,-0.037095688,0
3.2660093,-3.6667154,-4.2262297,0.054842234,-0.99780566,-0.037095688,0
3.2962737,-1.7904663,-2.3748074,0.97908121,0.04644835,0.19809692,0
-2.7474535,-1.5780981,1.5823028,-0.97908121,-0.04644835,-0.19809692,0
0.23683262,-3.9333322,-1.7538419,0.054842234,-0.99780566,-0.037095688,0
-3.2396898,3.426199,2.5364425,-0.97908121,-0.04644835,-0.19809692,0
2.8350022,0.24540067,-0.44164056,0.97908121,0.04644835,0.19809692,0
-2.0193505,-0.36606276,4.7816792,-0.19593918,-0.047183782,0.97948021,0
3.2886124,-0.25997758,-3.520844,0.97908121,0.04644835,0.19809692,0
3.3826344,-2.5090492,-4.5540981,0.19593918,0.047183782,-0.97948021,0
1.3067322,4.1707253,-0.086479098,-0.054842234,0.99780566,0.037095688,0
-0.68702865,-3.7705083,4.7620916,-0.19593918,-0.047183782,0.97948021,0
1.2283616,2.5911379,5.1756401,0.97908121,0.04644835,0.19809692,0
-0.040081739,1.4408531,5.2802763,-0.19593918,-0.047183782,0.97948021,0
-0.51226878,-4.0407643,3.9770401,0.054842234,-0.99780566,-0.037095688,0
1.3706169,4.0624189,3.5468428,-0.054842234,0.99780566,0.037095688,0
-1.9779725,-4.4217372,4.6239333,0.054842234,-0.99780566,-0.037095688,0
-2.9300776,-3.8958912,2.6355448,-0.97908121,-0.04644835,-0.19809692,0
-1.1641707,-3.9271731,-1.2068026,0.054842234,-0.99780566,-0.037095688,0
3.1526995,-3.544245,-2.9078648,0.97908121,0.04644835,0.19809692,0
2.1411672,-1.7401913,-4.9310136,0.19593918,0.047183782,-0.97948021,0
-3.3670878,1.6757457,2.8111749,-0.97908121,-0.04644835,-0.19809692,0
3.3993082,0.45874357,-3.4497089,0.97908121,0.04644835,0.19809692,0
1.0692958,0.53980458,-4.7873344,0.19593918,0.047183782,-0.97948021,0
-2.0866406,3.8137949,2.0047562,-0.054842234,0.99780566,0.037095688,0
-0.37127781,-1.9464891,-5.1348548,0.19593918,0.047183782,-0.97948021,0
-1.4117196,1.5272554,4.8867211,-0.19593918,-0.047183782,0.97948021,0
1.6126785,-3.0939908,5.0501647,0.97908121,0.04644835,0.19809692,0
-1.723066,2.7300751,5.0516901,-0.19593918,-0.047183782,0.97948021,0
-2.0986168,2.4509377,4.9930773,-0.19593918,-0.047183782,0.97948021,0
-1.5877922,-3.2920864,-3.4288309,-0.97908121,-0.04644835,-0.19809692,0
-3.3730488,-1.0030773,4.3611264,-0.19593918,-0.047183782,0.97948021,0
2.1784511,0.34759307,1.2923357,0.97908121,0.04644835,0.19809692,0
2.5470281,0.99545336,-4.481359,0.19593918,0.047183782,-0.97948021,0
-2.3558946,3.8216159,-0.23275656,-0.054842234,0.99780566,0.037095688,0
1.5896239,3.8652229,4.549418,0.97908121,0.04644835,0.19809692,0
-1.0984151,-2.8383932,4.5465522,-0.19593918,-0.047183782,0.97948021,0
-1.4527435,-3.9645884,0.080253214,0.054842234,-0.99780566,-0.037095688,0
-3.4815469,3.3070433,3.399549,-0.97908121,-0.04644835,-0.19809692,0
2.0764687,-1.3616948,2.3369548,0.97908121,0.04644835,0.19809692,0
1.5292428,3.8413973,-4.6114769,0.19593918,0.047183782,-0.97948021,0
0.79329729,4.0788612,2.0155718,-0.054842234,0.99780566,0.037095688,0
2.179553,-3.8467083,-3.0573401,0.054842234,-0.99780566,-0.037095688,0
2.5101171,4.3055515,-4.3048892,-0.054842234,0.99780566,0.037095688,0
1.9642072,4.4566402,-4.0194898,-0.054842234,0.99780566,0.037095688,0
-2.060775,1.8653302,4.6449385,-0.19593918,-0.047183782,0.97948021,0
1.9889622,4.2652645,-0.15271507,-0.054842234,0.99780566,0.037095688,0
-0.72076464,-4.1471291,2.1288853,0.054842234,-0.99780566,-0.037095688,0
-3.0309825,-0.26596689,4.4114308,-0.19593918,-0.047183782,0.97948021,0
-0.97102034,-2.0959823,4.6593747,-0.19593918,-0.047183782,0.97948021,0
-0.9076252,-4.1523333,3.7116923,0.054842234,-0.99780566,-0.037095688,0
-0.045930862,-4.2330613,2.7446241,0.054842234,-0.99780566,-0.037095688,0
3.3215003,0.76924467,-2.9984405,0.97908121,0.04644835,0.19809692,0
-0.51034689,3.8245394,0.62655479,-0.054842234,0.99780566,0.037095688,0
-2.4091725,-3.0703001,4.3085141,-0.19593918,-0.047183782,0.97948021,0
-0.03629899,-1.2627566,-4.9895349,0.19593918,0.047183782,-0.97948021,0
-2.5444531,1.7556705,-1.3200793,-0.97908121,-0.04644835,-0.19809692,0
0.017730236,-3.9839115,-2.559761,0.054842234,-0.99780566,-0.037095688,0
2.0266507,-2.2488844,3.3952646,0.97908121,0.04644835,0.19809692,0
-2.5521317,-4.3695416,3.8749895,0.054842234,-0.99780566,-0.037095688,0
2.169996,-4.1453533,2.376956,0.054842234,-0.99780566,-0.037095688,0
-1.4562907,-4.0494118,-1.7620529,0.054842234,-0.99780566,-0.037095688,0
-1.277241,1.1819233,-5.1403761,0.19593918,0.047183782,-0.97948021,0
1.1629237,-1.5477701,5.249999,-0.19593918,-0.047183782,0.97948021,0
-1.980064,1.5610931,-2.2311127,-0.97908121,-0.04644835,-0.19809692,0
-1.9356046,-0.69979894,-2.8984859,-0.97908121,-0.04644835,-0.19809692,0
0.30857515,-3.9630127,-2.4454246,0.054842234,-0.99780566,-0.037095688,0
1.7813429,-2.7626333,-4.9516025,0.19593918,0.047183782,-0.97948021,0
0.55385828,3.988831,2.0068061,-0.054842234,0.99780566,0.037095688,0
-1.1967218,-3.9396544,4.7249999,-0.19593918,-0.047183782,0.97948021,0
-1.1251605,4.2516804,-4.6637826,-0.054842234,0.99780566,0.037095688,0
2.7402675,-3.7229574,-4.0666151,0.054842234,-0.99780566,-0.037095688,0
3.1367757,-2.4285178,-2.7608955,0.97908121,0.04644835,0.19809692,0
-3.3332071,-2.8637607,4.0357208,-0.97908121,-0.04644835,-0.19809692,0
-0.27874815,2.169652,-5.2360954,0.19593918,0.047183782,-0.97948021,0
-1.5737095,-4.1616659,3.9226897,0.054842234,-0.99780566,-0.037095688,0
1.9525089,1.9220389,-4.4958272,0.19593918,0.047183782,-0.97948021,0
-0.23576522,-4.1710124,4.602242,0.054842234,-0.99780566,-0.037095688,0
-3.2678421,2.185231,3.287323,-0.97908121,-0.04644835,-0.19809692,0
-1.6002119,4.0603476,-1.2914896,-0.054842234,0.99780566,0.037095688,0
2.5523422,0.31314385,-4.490118,0.19593918,0.047183782,-0.97948021,0
-2.3890984,-0.75022829,-1.1662804,-0.97908121,-0.04644835,-0.19809692,0
1.553701,-2.7619801,5.1840887,0.97908121,0.04644835,0.19809692,0
-2.79916,3.7963235,1.8012691,-0.054842234,0.99780566,0.037095688,0
1.655504,-2.8472283,4.3364134,0.97908121,0.04644835,0.19809692,0
-1.9209439,1.2537732,-3.2263966,-0.97908121,-0.04644835,-0.19809692,0
-3.0131392,-2.038363,2.8092122,-0.97908121,-0.04644835,-0.19809692,0
-0.066668272,-3.9138446,2.3100374,0.054842234,-0.99780566,-0.037095688,0
1.538352,-3.1080642,-4.9015923,0.19593918,0.047183782,-0.97948021,0
-0.3245585,2.0452907,-5.0123234,0.19593918,0.047183782,-0.97948021,0
1.9745201,-1.4689317,-4.6921964,0.19593918,0.047183782,-0.97948021,0
1.2647967,-3.6384559,-5.0206971,0.054842234,-0.99780566,-0.037095688,0
-2.3148403,-4.420681,3.7223029,0.054842234,-0.99780566,-0.037095688,0
-0.60356748,1.1920915,4.8496585,-0.19593918,-0.047183782,0.97948021,0
-3.1185555,3.2149916,1.9857674,-0.97908121,-0.04644835,-0.19809692,0
-0.073221445,2.4992974,5.3325977,-0.19593918,-0.047183782,0.97948021,0
0.47780049,-1.7100581,4.9525652,-0.19593918,-0.047183782,0.97948021,0
-3.1002281,-0.35028768,4.5507975,-0.19593918,-0.047183782,0.97948021,0
1.9863539,-3.9532905,-1.243686,0.054842234,-0.99780566,-0.037095688,0
-1.1454773,2.1865399,4.803062,-0.19593918,-0.047183782,0.97948021,0
0.38671255,3.8036854,4.3625875,-0.054842234,0.99780566,0.037095688,0
2.1019979,0.6839118,1.8079364,0.97908121,0.04644835,0.19809692,0
2.3488369,-2.5557926,-4.6052179,0.19593918,0.047183782,-0.97948021,0
3.2288918,-0.35739279,-3.5960009,0.97908121,0.04644835,0.19809692,0
-1.4550366,-3.8884668,-4.2523708,0.054842234,-0.99780566,-0.037095688,0
-2.2624714,-3.7506897,-0.32054102,-0.97908121,-0.04644835,-0.19809692,0
-0.36861467,-4.0825334,1.4062731,0.054842234,-0.99780566,-0.037095688,0
-2.3992605,-0.8370595,-1.2075155,-0.97908121,-0.04644835,-0.19809692,0
-2.2066441,3.8891668,-0.69133806,-0.054842234,0.99780566,0.037095688,0
3.456326,0.21098208,-3.647016,0.97908121,0.04644835,0.19809692,0
3.1413152,2.3306003,-3.0908966,0.97908121,0.04644835,0.19809692,0
2.5277076,-3.6977205,-4.3137236,0.054842234,-0.99780566,-0.037095688,0
-1.9454331,3.8831112,-1.8438599,-0.054842234,0.99780566,0.037095688,0
-0.080313206,-3.7316718,-4.261816,0.054842234,-0.99780566,-0.037095688,0
-3.3477688,3.4881773,4.077076,-0.054842234,0.99780566,0.037095688,0
2.0115051,-3.7373784,2.9167712,0.97908121,0.04644835,0.19809692,0
-2.0516379,1.4700727,-2.223999,-0.97908121,-0.04644835,-0.19809692,0
1.9369516,-3.9598656,4.3460827,0.97908121,0.04644835,0.19809692,0
3.2894671,1.4828483,-3.9027095,0.97908121,0.04644835,0.19809692,0
0.92483616,4.301868,-3.1109724,-0.054842234,0.99780566,0.037095688,0
0.63250852,-3.7518215,-4.5302992,0.054842234,-0.99780566,-0.037095688,0
2.4032052,0.40802288,0.96654999,0.97908121,0.04644835,0.19809692,0
1.9753586,-3.8318329,2.8278811,0.054842234,-0.99780566,-0.037095688,0
1.9597986,-0.96887994,2.6840005,0.97908121,0.04644835,0.19809692,0
2.2706208,0.84305143,1.4002049,0.97908121,0.04644835,0.19809692,0
2.1727006,-1.792819,1.5158927,0.97908121,0.04644835,0.19809692,0
-1.8297923,3.5981517,4.7442636,-0.054842234,0.99780566,0.037095688,0
1.356823,1.7206259,-4.7345362,0.19593918,0.047183782,-0.97948021,0
-3.3164568,2.5014932,3.8834121,-0.97908121,-0.04644835,-0.19809692,0
-0.22591448,-3.9933934,-2.7454617,0.054842234,-0.99780566,-0.037095688,0
1.0131352,-3.917697,4.2625875,0.054842234,-0.99780566,-0.037095688,0
2.5496373,0.39595628,-0.48020327,0.97908121,0.04644835,0.19809692,0
-2.137249,0.4137305,4.6381207,-0.19593918,-0.047183782,0.97948021,0
2.5355849,4.2735558,-2.3262689,-0.054842234,0.99780566,0.037095688,0
3.3840659,-1.5288837,-3.9131668,0.97908121,0.04644835,0.19809692,0
-2.7961326,3.6512463,0.7648856,-0.054842234,0.99780566,0.037095688,0
1.7526658,-3.8423545,-4.3195724,0.054842234,-0.99780566,-0.037095688,0
1.6385463,-0.059505343,-4.7218285,0.19593918,0.047183782,-0.97948021,0
0.34297276,4.0122643,2.1337836,-0.054842234,0.99780566,0.037095688,0
1.4950333,3.9028668,0.53023911,-0.054842234,0.99780566,0.037095688,0
3.0189104,2.6133173,-3.6551914,0.97908121,0.04644835,0.19809692,0
-0.7031374,-3.8697197,-2.2625589,0.054842234,-0.99780566,-0.037095688,0
-2.4422932,-1.2278725,-0.14411832,-0.97908121,-0.04644835,-0.19809692,0
-2.5115755,2.926343,-1.0002761,-0.97908121,-0.04644835,-0.19809692,0
-2.4428699,0.68172669,-1.0180752,-0.97908121,-0.04644835,-0.19809692,0
0.86852503,-4.2791491,4.2939439,0.054842234,-0.99780566,-0.037095688,0
2.5216606,-3.4434416,0.37335771,0.97908121,0.04644835,0.19809692,0
-0.44599104,-1.7893666,-5.3663931,0.19593918,0.047183782,-0.97948021,0
-2.0054059,0.9315567,-3.5015724,-0.97908121,-0.04644835,-0.19809692,0
2.1293828,-2.0193501,-4.5863166,0.19593918,0.047183782,-0.97948021,0
3.2746265,-1.978833,-2.7473309,0.97908121,0.04644835,0.19809692,0
0.30264974,-3.9325294,0.94939113,0.054842234,-0.99780566,-0.037095688,0
0.35810328,3.7796736,2.2153447,-0.054842234,0.99780566,0.037095688,0
1.5385245,0.81827903,-4.8833842,0.19593918,0.047183782,-0.97948021,0
-2.1860919,-2.516804,-1.4727312,-0.97908121,-0.04644835,-0.19809692,0
0.82955933,4.0314455,3.2120824,-0.054842234,0.99780566,0.037095688,0
2.1972482,3.0588667,0.86692864,0.97908121,0.04644835,0.19809692,0
1.8168232,2.8204646,2.1514213,0.97908121,0.04644835,0.19809692,0
-1.5578007,-2.1235504,4.8226976,-0.19593918,-0.047183782,0.97948021,0
-1.43841,-2.7176425,-5.3452249,-0.97908121,-0.04644835,-0.19809692,0
-0.19783998,-1.554482,-5.2538848,0.19593918,0.047183782,-0.97948021,0
0.31222963,-1.4013529,5.243773,-0.19593918,-0.047183782,0.97948021,0
-2.833427,0.21915174,1.2964391,-0.97908121,-0.04644835,-0.19809692,0
0.44763637,-4.1238976,3.7703757,0.054842234,-0.99780566,-0.037095688,0
-0.9316659,3.0892482,-5.1110859,0.19593918,0.047183782,-0.97948021,0
-0.57598448,-3.4850326,-5.2174039,0.19593918,0.047183782,-0.97948021,0
0.50660753,4.1007481,-2.2695365,-0.054842234,0.99780566,0.037095688,0
1.4430342,-3.5583727,-4.8044443,0.054842234,-0.99780566,-0.037095688,0
1.8523157,-2.4231446,3.6172731,0.97908121,0.04644835,0.19809692,0
3.2432089,-3.3031864,-2.3647401,0.97908121,0.04644835,0.19809692,0
0.41298509,-4.1502161,3.841572,0.054842234,-0.99780566,-0.037095688,0
0.63006794,-1.4233145,-4.9055271,0.19593918,0.047183782,-0.97948021,0
2.331768,-3.5273466,-4.7619333,0.19593918,0.047183782,-0.97948021,0
-2.9276786,0.45083952,2.6944742,-0.97908121,-0.04644835,-0.19809692,0
-1.000144,-2.9955018,4.9321437,-0.19593918,-0.047183782,0.97948021,0
2.9405801,2.3065252,-1.8309032,0.97908121,0.04644835,0.19809692,0
0.3444981,0.63280076,-5.0492983,0.19593918,0.047183782,-0.97948021,0
-0.50188267,-2.0614855,4.8868227,-0.19593918,-0.047183782,0.97948021,0
-1.303978,-3.9013996,-5.2671971,-0.97908121,-0.04644835,-0.19809692,0
1.2477708,4.0002589,-2.0916948,-0.054842234,0.99780566,0.037095688,0
2.430007,-3.8437197,-3.0918527,0.054842234,-0.99780566,-0.037095688,0
-1.1595337,3.2881126,-5.3462677,0.19593918,0.047183782,-0.97948021,0
-0.2424531,0.90355444,5.1927953,-0.19593918,-0.047183782,0.97948021,0
-0.58380532,3.937463,2.5132599,-0.054842234,0.99780566,0.037095688,0
-1.0383487,-3.4877117,4.8919439,-0.19593918,-0.047183782,0.97948021,0
-1.5576322,-2.1430578,-4.4420466,-0.97908121,-0.04644835,-0.19809692,0
2.3287373,4.4290948,-4.0858541,-0.054842234,0.99780566,0.037095688,0
3.4159563,-2.3206542,-4.6104903,0.19593918,0.047183782,-0.97948021,0
-2.5695076,3.0084369,4.6540599,-0.19593918,-0.047183782,0.97948021,0
-0.13325286,-2.1963253,4.9955697,-0.19593918,-0.047183782,0.97948021,0
2.00471,0.8600831,3.1786211,0.97908121,0.04644835,0.19809692,0
1.1619864,-2.8563457,-4.8343682,0.19593918,0.047183782,-0.97948021,0
2.8758523,3.3265049,-4.4031391,0.19593918,0.047183782,-0.97948021,0
1.8408623,-3.9220214,-1.5349867,0.054842234,-0.99780566,-0.037095688,0
2.6987965,4.4239221,-4.4294105,0.19593918,0.047183782,-0.97948021,0
-2.8379128,-3.8913136,4.1788015,-0.19593918,-0.047183782,0.97948021,0
1.4440975,-3.9789772,-3.3082113,0.054842234,-0.99780566,-0.037095688,0
1.8373885,-3.885751,-4.8481755,0.054842234,-0.99780566,-0.037095688,0
2.8394985,-2.7422671,-0.65020031,0.97908121,0.04644835,0.19809692,0
2.7817888,-3.7033467,-0.9308095,0.054842234,-0.99780566,-0.037095688,0
-1.8771188,3.5302725,4.8867955,-0.054842234,0.99780566,0.037095688,0
0.35972404,4.0966902,-4.2058535,-0.054842234,0.99780566,0.037095688,0
-0.65829945,-4.1025066,0.79508466,0.054842234,-0.99780566,-0.037095688,0
1.9604633,-4.0349188,-1.4802755,0.054842234,-0.99780566,-0.037095688,0
1.6189561,2.2877152,3.9322538,0.97908121,0.04644835,0.19809692,0
-1.1459281,4.0213795,-0.17334583,-0.054842234,0.99780566,0.037095688,0
-3.2567639,1.9682739,4.5848875,-0.19593918,-0.047183782,0.97948021,0
2.8354812,0.02918148,-2.2383218,0.97908121,0.04644835,0.19809692,0
3.0454063,0.75449085,-2.7565341,0.97908121,0.04644835,0.19809692,0
-1.7084317,4.0567899,-4.775907,-0.054842234,0.99780566,0.037095688,0
0.19474649,-0.88576955,5.3009624,-0.19593918,-0.047183782,0.97948021,0
-0.50788009,-0.73244685,-5.095788,0.19593918,0.047183782,-0.97948021,0
1.6726338,0.25858569,-4.8572106,0.19593918,0.047183782,-0.97948021,0
2.1519113,-2.13855,3.3473406,0.97908121,0.04644835,0.19809692,0
1.886788,1.4977982,-4.8343554,0.19593918,0.047183782,-0.97948021,0
-2.167788,-1.2711719,-0.89301121,-0.97908121,-0.04644835,-0.19809692,0
-3.0685136,-1.6875499,4.5095472,-0.19593918,-0.047183782,0.97948021,0
1.7998281,-3.9091394,-2.4996772,0.054842234,-0.99780566,-0.037095688,0
1.9492645,4.128119,-2.1916616,-0.054842234,0.99780566,0.037095688,0
1.7257885,0.6519084,4.9411287,0.97908121,0.04644835,0.19809692,0
1.7761834,-3.6468596,-4.9079309,0.19593918,0.047183782,-0.97948021,0
-1.0590534,-4.3880639,3.5792515,0.054842234,-0.99780566,-0.037095688,0
-1.2337837,4.06247,2.0684357,-0.054842234,0.99780566,0.037095688,0
3.0281715,-0.7408638,-2.609596,0.97908121,0.04644835,0.19809692,0
1.5046654,-3.7686644,-4.3958321,0.054842234,-0.99780566,-0.037095688,0
3.3760998,1.0193443,-3.5613291,0.97908121,0.04644835,0.19809692,0
-3.1883619,-2.5776191,4.2303572,-0.97908121,-0.04644835,-0.19809692,0
2.7850184,4.2405653,-2.0507019,-0.054842234,0.99780566,0.037095688,0
1.3637714,-3.6273446,-5.125566,0.19593918,0.047183782,-0.97948021,0
-1.0278387,-4.1979823,0.71510071,0.054842234,-0.99780566,-0.037095688,0
-1.7695417,3.8137176,1.5268456,-0.054842234,0.99780566,0.037095688,0
2.6673236,4.4241066,-4.3100533,-0.054842234,0.99780566,0.037095688,0
1.33988,4.204484,-1.5729998,-0.054842234,0.99780566,0.037095688,0
2.6886163,-1.8452282,-1.1635034,0.97908121,0.04644835,0.19809692,0
2.24264,-2.9078574,-4.7926331,0.19593918,0.047183782,-0.97948021,0
-0.41742253,4.2046633,-2.2999206,-0.054842234,0.99780566,0.037095688,0
3.2018073,3.2207012,-4.2105436,0.97908121,0.04644835,0.19809692,0
0.062424183,-3.5855074,-5.280715,0.19593918,0.047183782,-0.97948021,0
-2.9695764,-0.37025738,1.705229,-0.97908121,-0.04644835,-0.19809692,0
-0.2345767,-2.2819705,-5.4024477,0.19593918,0.047183782,-0.97948021,0
-0.10377312,-4.1403618,3.2429588,0.054842234,-0.99780566,-0.037095688,0
-2.3459828,2.8566406,4.7189426,-0.19593918,-0.047183782,0.97948021,0
0.23544312,4.0869832,-0.83597481,-0.054842234,0.99780566,0.037095688,0
-2.2837791,-2.46334,0.088423729,-0.97908121,-0.04644835,-0.19809692,0
-0.7652508,-0.13950996,5.0433793,-0.19593918,-0.047183782,0.97948021,0
2.3248513,0.14733839,-4.6451135,0.19593918,0.047183782,-0.97948021,0
-0.42277312,-1.1240697,5.1297116,-0.19593918,-0.047183782,0.97948021,0
-0.06877327,-3.8970864,-1.6569256,0.054842234,-0.99780566,-0.037095688,0
-1.5194092,-1.865972,-3.7359083,-0.97908121,-0.04644835,-0.19809692,0
1.8468648,-0.32888031,3.1105604,0.97908121,0.04644835,0.19809692,0
1.0245125,-2.9385324,-5.0334167,0.19593918,0.047183782,-0.97948021,0
1.7520967,-0.20243859,4.3658547,0.97908121,0.04644835,0.19809692,0
2.1093428,0.50304532,-4.6525116,0.19593918,0.047183782,-0.97948021,0
-2.4784226,3.0068045,4.8845415,-0.19593918,-0.047183782,0.97948021,0
2.5513451,2.9631803,-1.5617766,0.97908121,0.04644835,0.19809692,0
2.435298,2.5050786,-4.4934735,0.19593918,0.047183782,-0.97948021,0
-3.008069,-2.4543259,4.3017612,-0.19593918,-0.047183782,0.97948021,0
-2.2501764,-4.3342576,2.6606264,0.054842234,-0.99780566,-0.037095688,0
1.4532108,3.9205551,4.9792695,-0.054842234,0.99780566,0.037095688,0
-0.13555002,-3.7801452,-4.5773768,0.054842234,-0.99780566,-0.037095688,0
-2.834368,-0.60217071,1.8835769,-0.97908121,-0.04644835,-0.19809692,0
2.0110431,1.7959874,3.2081165,0.97908121,0.04644835,0.19809692,0
-2.0036297,3.5569789,4.9219356,-0.19593918,-0.047183782,0.97948021,0
1.9714208,3.8914068,1.9125051,0.97908121,0.04644835,0.19809692,0
-2.4530091,3.9067664,1.3064996,-0.054842234,0.99780566,0.037095688,0
1.834444,4.1875439,-2.8224826,-0.054842234,0.99780566,0.037095688,0
0.44087887,4.2071762,-2.6020355,-0.054842234,0.99780566,0.037095688,0
0.55871868,4.0176544,-2.3832839,-0.054842234,0.99780566,0.037095688,0
0.69779444,-3.9736187,-0.40881431,0.054842234,-0.99780566,-0.037095688,0
-0.76694655,4.0201378,3.6774578,-0.054842234,0.99780566,0.037095688,0
0.079311132,3.417623,-4.8203249,0.19593918,0.047183782,-0.97948021,0
2.2921171,-1.610029,-4.5210595,0.19593918,0.047183782,-0.97948021,0
0.38441849,-4.1117883,-1.0908251,0.054842234,-0.99780566,-0.037095688,0
-0.23271823,-3.8864474,1.7396586,0.054842234,-0.99780566,-0.037095688,0
2.060287,-3.5875788,-4.7268085,0.054842234,-0.99780566,-0.037095688,0
3.2187319,-3.5374093,-3.6021042,0.054842234,-0.99780566,-0.037095688,0
-1.905418,-2.0773885,4.6765423,-0.19593918,-0.047183782,0.97948021,0
0.66124344,1.3709042,5.4388313,-0.19593918,-0.047183782,0.97948021,0
2.8170052,-1.1583214,-0.71404159,0.97908121,0.04644835,0.19809692,0
0.8656528,-3.9076364,2.0770299,0.054842234,-0.99780566,-0.037095688,0
-1.448048,-0.96219325,-4.8048267,-0.97908121,-0.04644835,-0.19809692,0
2.21754,3.7282205,-4.6679277,0.19593918,0.047183782,-0.97948021,0
1.7060651,1.5102613,2.9476159,0.97908121,0.04644835,0.19809692,0
-1.1280828,3.6932516,3.7539051,-0.054842234,0.99780566,0.037095688,0
0.77419221,0.83512652,-4.8352084,0.19593918,0.047183782,-0.97948021,0
1.1287454,-0.51681125,5.2456632,-0.19593918,-0.047183782,0.97948021,0
3.0527804,-2.3417697,-1.7714444,0.97908121,0.04644835,0.19809692,0
0.27471924,3.8404379,3.0184658,-0.054842234,0.99780566,0.037095688,0
-1.6439362,-2.7786057,-3.5441177,-0.97908121,-0.04644835,-0.19809692,0
-1.5606904,3.4023108,5.1596718,-0.19593918,-0.047183782,0.97948021,0
1.3501375,1.3656294,-4.9482031,0.19593918,0.047183782,-0.97948021,0
-2.0788805,-0.66613519,-3.0549021,-0.97908121,-0.04644835,-0.19809692,0
1.405525,0.034683347,5.0054955,0.97908121,0.04644835,0.19809692,0
1.3266227,1.8278995,-4.6433558,0.19593918,0.047183782,-0.97948021,0
0.13923264,-4.1607623,1.9030156,0.054842234,-0.99780566,-0.037095688,0
-1.5683131,-3.3344536,4.7194891,-0.19593918,-0.047183782,0.97948021,0
-1.4690952,-4.1068058,-4.6102543,0.054842234,-0.99780566,-0.037095688,0
-1.4417994,2.9279447,4.9062319,-0.19593918,-0.047183782,0.97948021,0
3.344389,-2.6871948,-3.9279158,0.97908121,0.04644835,0.19809692,0
1.5164239,0.15817022,4.4997768,0.97908121,0.04644835,0.19809692,0
-3.1728611,-3.7609301,3.3420634,-0.97908121,-0.04644835,-0.19809692,0
-0.19804287,4.0286336,-2.4550838,-0.054842234,0.99780566,0.037095688,0
-1.661818,-1.2258227,-5.0859528,-0.97908121,-0.04644835,-0.19809692,0
1.7105331,3.2791381,3.8487217,0.97908121,0.04644835,0.19809692,0
2.7682414,-0.41218853,-4.3878937,0.19593918,0.047183782,-0.97948021,0
1.5051869,-3.3889911,5.3704796,-0.19593918,-0.047183782,0.97948021,0
1.4766953,2.8189316,-4.8692389,0.19593918,0.047183782,-0.97948021,0
1.7686793,0.82987589,-4.7875443,0.19593918,0.047183782,-0.97948021,0
-0.81605625,-3.8490324,-3.063633,0.054842234,-0.99780566,-0.037095688,0
1.3153415,-4.0769958,4.0632019,0.054842234,-0.99780566,-0.037095688,0
0.14012437,-0.65038902,5.2417808,-0.19593918,-0.047183782,0.97948021,0
-1.3500998,-4.0596628,1.5836954,0.054842234,-0.99780566,-0.037095688,0
1.0923076,3.5493512,-4.5174627,0.19593918,0.047183782,-0.97948021,0
-2.9620073,-3.7907693,2.3441474,-0.97908121,-0.04644835,-0.19809692,0
0.8796556,-3.1545131,5.3300982,-0.19593918,-0.047183782,0.97948021,0
2.6844542,-2.6885705,-0.29891753,0.97908121,0.04644835,0.19809692,0
-1.2468076,-3.7405202,-4.4216833,0.054842234,-0.99780566,-0.037095688,0
-0.16473293,3.7850916,3.2606337,-0.054842234,0.99780566,0.037095688,0
-2.6479387,3.5165038,4.7459693,-0.054842234,0.99780566,0.037095688,0
-1.1881211,3.6848128,4.2450104,-0.054842234,0.99780566,0.037095688,0
-1.1431537,-4.075366,2.0111134,0.054842234,-0.99780566,-0.037095688,0
-0.0075443387,-1.4728285,5.2252302,-0.19593918,-0.047183782,0.97948021,0
2.9535923,-2.9321873,-1.0115998,0.97908121,0.04644835,0.19809692,0
-1.0546472,3.9973664,1.0366808,-0.054842234,0.99780566,0.037095688,0
-1.5417974,3.8867536,-0.08624205,-0.054842234,0.99780566,0.037095688,0
0.45166159,-3.9984977,2.932451,0.054842234,-0.99780566,-0.037095688,0
3.1527867,-3.7818112,-2.0527411,0.054842234,-0.99780566,-0.037095688,0
0.22981524,-2.3222682,-4.9670315,0.19593918,0.047183782,-0.97948021,0
-0.82536221,-4.2306013,0.69117463,0.054842234,-0.99780566,-0.037095688,0
3.1688569,3.3637791,-3.3745356,0.97908121,0.04644835,0.19809692,0
1.6545024,-3.9087591,-0.36484829,0.054842234,-0.99780566,-0.037095688,0
2.6732104,-2.8359308,-0.057196975,0.97908121,0.04644835,0.19809692,0
-2.8354845,-4.1260757,2.3659232,0.054842234,-0.99780566,-0.037095688,0
-0.56715953,-1.9907798,5.0309439,-0.19593918,-0.047183782,0.97948021,0
0.041363131,0.51532912,-4.8750763,0.19593918,0.047183782,-0.97948021,0
0.16698742,2.7700467,5.1696072,-0.19593918,-0.047183782,0.97948021,0
-0.70658112,-4.0653887,-1.4753815,0.054842234,-0.99780566,-0.037095688,0
-1.0522027,0.71655738,-5.2161202,0.19593918,0.047183782,-0.97948021,0
-3.0447299,-2.6373544,4.3062901,-0.19593918,-0.047183782,0.97948021,0
0.42564917,-4.1267047,3.4966636,0.054842234,-0.99780566,-0.037095688,0
1.0390828,-4.0225725,4.0750833,0.054842234,-0.99780566,-0.037095688,0
3.3132544,0.077092648,-4.3680067,0.97908121,0.04644835,0.19809692,0
-3.2718587,1.4255378,4.4491143,-0.19593918,-0.047183782,0.97948021,0
-2.7010212,3.9808767,-0.29962793,-0.054842234,0.99780566,0.037095688,0
1.1304359,1.7887573,-4.7303119,0.19593918,0.047183782,-0.97948021,0
-0.53164637,1.0898273,-5.1900024,0.19593918,0.047183782,-0.97948021,0
0.64506507,-4.2395411,4.0734949,0.054842234,-0.99780566,-0.037095688,0
-1.5190651,3.9736168,-0.65896618,-0.054842234,0.99780566,0.037095688,0
-1.078747,2.7592449,-5.0723448,0.19593918,0.047183782,-0.97948021,0
2.3623207,1.7448299,0.094693683,0.97908121,0.04644835,0.19809692,0
2.8863759,2.2259748,-2.5351725,0.97908121,0.04644835,0.19809692,0
-1.9405999,-4.0516791,1.6446979,0.054842234,-0.99780566,-0.037095688,0
-1.6837955,1.8814404,-4.2628527,-0.97908121,-0.04644835,-0.19809692,0
-1.1277981,-2.5573103,-5.428895,0.19593918,0.047183782,-0.97948021,0
3.2159197,-2.7467258,-1.8746574,0.97908121,0.04644835,0.19809692,0
1.9071205,2.4863124,3.0363619,0.97908121,0.04644835,0.19809692,0
1.7817268,4.331316,-1.330983,-0.054842234,0.99780566,0.037095688,0
-1.6823108,0.15722466,-4.2486076,-0.97908121,-0.04644835,-0.19809692,0
-2.2080662,-1.7799542,-0.30982387,-0.97908121,-0.04644835,-0.19809692,0
0.75158501,-3.9395921,-3.1531286,0.054842234,-0.99780566,-0.037095688,0
0.97896767,-4.2142477,5.0635777,-0.19593918,-0.047183782,0.97948021,0
-2.4119015,-4.0499134,0.59412533,0.054842234,-0.99780566,-0.037095688,0
2.747632,-3.8131375,-3.1428359,0.054842234,-0.99780566,-0.037095688,0
-2.7656045,-4.3942294,3.4976635,0.054842234,-0.99780566,-0.037095688,0
-2.3523755,-1.0777339,-1.0476773,-0.97908121,-0.04644835,-0.19809692,0
-3.6605837,3.3339517,3.7494302,-0.97908121,-0.04644835,-0.19809692,0
-2.5245814,-0.89859521,0.64408785,-0.97908121,-0.04644835,-0.19809692,0
0.31373477,-3.9035125,1.0630614,0.054842234,-0.99780566,-0.037095688,0
3.2693532,-0.24000621,-3.846993,0.97908121,0.04644835,0.19809692,0
-0.40713882,-3.5967648,-5.370553,0.19593918,0.047183782,-0.97948021,0
1.5062349,-0.28409541,-4.8692679,0.19593918,0.047183782,-0.97948021,0
-0.77331257,3.0085814,-5.3110776,0.19593918,0.047183782,-0.97948021,0
1.3632972,0.75407141,-4.9318709,0.19593918,0.047183782,-0.97948021,0
-2.5987051,1.941443,0.55962169,-0.97908121,-0.04644835,-0.19809692,0
1.500612,-3.9230838,-1.7144152,0.054842234,-0.99780566,-0.037095688,0
2.06019,0.95139247,-4.5529151,0.19593918,0.047183782,-0.97948021,0
2.6161585,-2.0013378,1.1435852,0.97908121,0.04644835,0.19809692,0
0.40737319,-4.0228558,4.8164754,0.054842234,-0.99780566,-0.037095688,0
1.9650497,4.2892947,-3.2653861,-0.054842234,0.99780566,0.037095688,0
-2.6440327,2.3737149,0.53790683,-0.97908121,-0.04644835,-0.19809692,0
3.3557863,-3.7727494,-2.5781868,0.054842234,-0.99780566,-0.037095688,0
2.3214519,2.8156121,1.0217384,0.97908121,0.04644835,0.19809692,0
-2.6865587,0.80486012,4.4196057,-0.19593918,-0.047183782,0.97948021,0
3.0187907,0.56280017,-1.7524244,0.97908121,0.04644835,0.19809692,0
1.7441375,-3.1420867,-4.8758001,0.19593918,0.047183782,-0.97948021,0
-1.4403031,-1.2808233,4.8809018,-0.19593918,-0.047183782,0.97948021,0
1.9486818,3.0247617,2.1061988,0.97908121,0.04644835,0.19809692,0
-1.4860532,3.9202821,0.028490931,-0.054842234,0.99780566,0.037095688,0
0.45968425,-1.0375323,-4.962873,0.19593918,0.047183782,-0.97948021,0
-3.0703902,2.1337025,2.6126852,-0.97908121,-0.04644835,-0.19809692,0
0.89132738,4.2111149,0.31700337,-0.054842234,0.99780566,0.037095688,0
2.8850288,-3.1000991,-4.5719118,0.19593918,0.047183782,-0.97948021,0
1.0135972,2.8594651,-4.8313322,0.19593918,0.047183782,-0.97948021,0
-2.9694238,2.3811414,1.2525768,-0.97908121,-0.04644835,-0.19809692,0
-2.5549638,3.9487579,-1.3969578,-0.97908121,-0.04644835,-0.19809692,0
0.94494438,3.932663,4.2773614,-0.054842234,0.99780566,0.037095688,0
2.5438316,1.5531387,0.56785154,0.97908121,0.04644835,0.19809692,0
1.3388767,-1.4870375,-4.7956123,0.19593918,0.047183782,-0.97948021,0
2.2001352,2.9302402,1.5431342,0.97908121,0.04644835,0.19809692,0
3.0950027,-0.67833924,-2.2204864,0.97908121,0.04644835,0.19809692,0
3.5363505,-0.12773442,-4.2004991,0.19593918,0.047183782,-0.97948021,0
-2.2893705,2.636888,4.8806014,-0.19593918,-0.047183782,0.97948021,0
2.9316444,1.7985048,-4.5885592,0.19593918,0.047183782,-0.97948021,0
-1.5005491,0.27016211,-5.4959497,0.19593918,0.047183782,-0.97948021,0
-1.1042747,-4.0673008,1.2255014,0.054842234,-0.99780566,-0.037095688,0
-2.4485357,2.3883631,-1.2086513,-0.97908121,-0.04644835,-0.19809692,0
-0.44669485,-4.0263748,-2.6143408,0.054842234,-0.99780566,-0.037095688,0
-0.79602271,1.8008181,-5.0667315,0.19593918,0.047183782,-0.97948021,0
2.2235703,-2.9384618,-4.9625335,0.19593918,0.047183782,-0.97948021,0
-2.3641753,1.1888477,4.7739387,-0.19593918,-0.047183782,0.97948021,0
2.296664,3.2316813,0.57483476,0.97908121,0.04644835,0.19809692,0
1.9374642,-4.1419926,3.2762103,0.054842234,-0.99780566,-0.037095688,0
1.6757872,-1.3608592,4.7616014,0.97908121,0.04644835,0.19809692,0
2.0558319,1.2299503,1.4635376,0.97908121,0.04644835,0.19809692,0
2.3986852,-1.7439337,1.4378635,0.97908121,0.04644835,0.19809692,0
1.7285988,-0.52851963,3.3157034,0.97908121,0.04644835,0.19809692,0
-1.0118713,-4.0683737,-2.2342591,0.054842234,-0.99780566,-0.037095688,0
-1.4410295,-0.37654841,-5.4369569,0.19593918,0.047183782,-0.97948021,0
-1.9129883,1.1539009,-4.2960358,-0.97908121,-0.04644835,-0.19809692,0
0.39196181,-1.4294412,5.156003,-0.19593918,-0.047183782,0.97948021,0
1.605659,-3.6922908,-4.303061,0.054842234,-0.99780566,-0.037095688,0
-0.61063433,-2.1040637,-5.161736,0.19593918,0.047183782,-0.97948021,0
2.5269947,4.3379154,-1.0348779,-0.054842234,0.99780566,0.037095688,0
-1.7426475,-1.445888,4.7134209,-0.19593918,-0.047183782,0.97948021,0
-0.65261388,-2.0475161,-5.3841505,0.19593918,0.047183782,-0.97948021,0
1.4561052,3.8703179,2.9976628,-0.054842234,0.99780566,0.037095688,0
-2.3421736,0.76534653,4.5711732,-0.19593918,-0.047183782,0.97948021,0
1.9377551,2.6112542,-4.5060897,0.19593918,0.047183782,-0.97948021,0
-1.8207147,4.213634,-4.4145684,-0.97908121,-0.04644835,-0.19809692,0
0.76584768,1.8642864,5.2709179,-0.19593918,-0.047183782,0.97948021,0
1.6071713,0.52288944,-4.9343438,0.19593918,0.047183782,-0.97948021,0
-2.8362689,3.8918459,1.9524703,-0.054842234,0.99780566,0.037095688,0
2.8984292,-3.8831427,-0.43032604,0.97908121,0.04644835,0.19809692,0
-1.7698567,0.98734283,-4.2953315,-0.97908121,-0.04644835,-0.19809692,0
-1.8378949,-3.2102785,-2.8396518,-0.97908121,-0.04644835,-0.19809692,0
-1.8350458,-1.3289226,-3.94049,-0.97908121,-0.04644835,-0.19809692,0
-3.4653654,2.8213322,3.5098796,-0.97908121,-0.04644835,-0.19809692,0
-1.3525673,1.7477505,-5.395997,0.19593918,0.047183782,-0.97948021,0
-3.2329557,3.7077045,3.4047577,-0.97908121,-0.04644835,-0.19809692,0
-2.2578435,-3.8557277,0.15868105,-0.97908121,-0.04644835,-0.19809692,0
-2.2796452,0.48229766,-1.1832719,-0.97908121,-0.04644835,-0.19809692,0
1.699162,4.0753126,-2.6873541,-0.054842234,0.99780566,0.037095688,0
-1.4028428,3.5464897,5.001596,-0.19593918,-0.047183782,0.97948021,0
-0.8343842,-1.1487534,4.9008121,-0.19593918,-0.047183782,0.97948021,0
0.62528944,1.3083422,-4.8274498,0.19593918,0.047183782,-0.97948021,0
-0.19299394,0.37780064,5.1470737,-0.19593918,-0.047183782,0.97948021,0
0.69153786,-4.2188859,3.7392709,0.054842234,-0.99780566,-0.037095688,0
2.1102891,0.4592098,1.9337201,0.97908121,0.04644835,0.19809692,0
-3.2236876,2.5585873,1.7156175,-0.97908121,-0.04644835,-0.19809692,0
1.9874685,1.0873564,1.8605213,0.97908121,0.04644835,0.19809692,0
1.6646652,-3.8173003,-0.088185698,0.054842234,-0.99780566,-0.037095688,0
1.9367418,3.9286461,2.4452405,-0.054842234,0.99780566,0.037095688,0
0.68421459,-4.008656,1.7674297,0.054842234,-0.99780566,-0.037095688,0
1.1477933,-4.0087671,4.9776011,-0.19593918,-0.047183782,0.97948021,0
-2.9989753,1.877893,1.7436569,-0.97908121,-0.04644835,-0.19809692,0
-0.45409775,3.8432851,-4.9351959,0.19593918,0.047183782,-0.97948021,0
1.8547089,-3.9151177,2.3254418,0.054842234,-0.99780566,-0.037095688,0
-1.9238577,-1.8105166,-3.3754694,-0.97908121,-0.04644835,-0.19809692,0
2.7047129,2.1435506,-4.352572,0.19593918,0.047183782,-0.97948021,0
0.46925926,2.8361354,-5.056818,0.19593918,0.047183782,-0.97948021,0
1.5415751,-3.4554632,5.3313537,-0.19593918,-0.047183782,0.97948021,0
-1.2732918,3.7828836,2.8500202,-0.054842234,0.99780566,0.037095688,0
-0.50588965,-3.0155041,4.7625446,-0.19593918,-0.047183782,0.97948021,0
-3.2133574,-0.54942632,4.3342171,-0.19593918,-0.047183782,0.97948021,0
3.5828395,-1.0877378,-3.9248128,0.97908121,0.04644835,0.19809692,0
1.1021633,-1.7453436,5.3320961,-0.19593918,-0.047183782,0.97948021,0
2.5794864,4.2290106,-0.86199594,0.97908121,0.04644835,0.19809692,0
-2.3961267,1.013957,4.6621304,-0.19593918,-0.047183782,0.97948021,0
-3.5052941,2.6778538,3.7138503,-0.97908121,-0.04644835,-0.19809692,0
0.81227684,4.1211743,1.6516937,-0.054842234,0.99780566,0.037095688,0
-3.4844897,0.054323673,4.1821561,-0.97908121,-0.04644835,-0.19809692,0
-1.9970399,0.46480703,-2.3871474,-0.97908121,-0.04644835,-0.19809692,0
0.0032088757,-3.3744032,4.9657865,-0.19593918,-0.047183782,0.97948021,0
-0.75104952,3.0628822,4.9432249,-0.19593918,-0.047183782,0.97948021,0
2.0216005,-3.7439377,-1.1211251,0.054842234,-0.99780566,-0.037095688,0
-0.041912317,2.464376,5.3981643,-0.19593918,-0.047183782,0.97948021,0
-2.5392027,-0.3051517,-0.071607724,-0.97908121,-0.04644835,-0.19809692,0
-0.91479039,-2.2716796,-5.4927831,0.19593918,0.047183782,-0.97948021,0
2.5833125,1.3653903,-4.5020456,0.19593918,0.047183782,-0.97948021,0
1.9756424,1.5892196,2.5317678,0.97908121,0.04644835,0.19809692,0
2.3330894,3.505722,0.54869276,0.97908121,0.04644835,0.19809692,0
1.7423849,-3.8537073,3.2597296,0.054842234,-0.99780566,-0.037095688,0
-2.0758042,3.9419649,0.35240763,-0.054842234,0.99780566,0.037095688,0
-0.45924997,-4.3539782,4.0056858,0.054842234,-0.99780566,-0.037095688,0
0.30661345,-3.931639,-3.5848053,0.054842234,-0.99780566,-0.037095688,0
-2.6699917,-1.1864865,0.16423532,-0.97908121,-0.04644835,-0.19809692,0
1.6489198,-1.9890056,5.1916447,-0.19593918,-0.047183782,0.97948021,0
-1.5720828,3.7870288,-5.0993266,0.19593918,0.047183782,-0.97948021,0
-0.11918032,0.089175373,5.2124071,-0.19593918,-0.047183782,0.97948021,0
2.6316264,-2.1575422,0.038161069,0.97908121,0.04644835,0.19809692,0
-1.2061211,0.3012656,-5.2004023,0.19593918,0.047183782,-0.97948021,0
3.204179,2.6048152,-3.597796,0.97908121,0.04644835,0.19809692,0
2.8511279,-1.126785,-1.8887883,0.97908121,0.04644835,0.19809692,0
1.5190933,1.2444896,-4.5427442,0.19593918,0.047183782,-0.97948021,0
2.8883297,0.22652745,-2.2967076,0.97908121,0.04644835,0.19809692,0
0.1621654,1.7570627,5.1283207,-0.19593918,-0.047183782,0.97948021,0
3.3949795,1.6562811,-3.7504525,0.97908121,0.04644835,0.19809692,0
-1.1200502,-3.96663,2.4482009,0.054842234,-0.99780566,-0.037095688,0
-1.8740245,0.72314787,-3.1010537,-0.97908121,-0.04644835,-0.19809692,0
3.0973234,2.5989933,-4.2337723,0.19593918,0.047183782,-0.97948021,0
0.91057324,-4.0050197,0.60590816,0.054842234,-0.99780566,-0.037095688,0
-0.74431705,-2.4095774,4.8674574,-0.19593918,-0.047183782,0.97948021,0
1.2684324,-3.6478817,-2.49494,0.054842234,-0.99780566,-0.037095688,0
1.2438765,-2.1927071,5.1921754,-0.19593918,-0.047183782,0.97948021,0
2.7438614,1.656864,-4.3151689,0.19593918,0.047183782,-0.97948021,0
1.4470601,4.2921538,-2.7415385,-0.054842234,0.99780566,0.037095688,0
1.1651416,-4.0591359,-2.1987638,0.054842234,-0.99780566,-0.037095688,0
1.9310997,-0.29090428,-4.6523938,0.19593918,0.047183782,-0.97948021,0
1.7088945,-4.0002842,4.4004655,0.97908121,0.04644835,0.19809692,0
-1.4806702,-1.8895376,-5.117178,-0.97908121,-0.04644835,-0.19809692,0
-2.4458306,2.7833843,-1.3613098,-0.97908121,-0.04644835,-0.19809692,0
-0.9260478,-3.2328417,4.8619561,-0.19593918,-0.047183782,0.97948021,0
0.59423113,1.6539195,5.3280039,-0.19593918,-0.047183782,0.97948021,0
2.2628512,2.7646723,1.3381038,0.97908121,0.04644835,0.19809692,0
-2.9363806,3.837863,1.1464747,-0.054842234,0.99780566,0.037095688,0
0.23587847,-3.9915855,-3.9235435,0.054842234,-0.99780566,-0.037095688,0
-3.4137425,1.0605814,3.0907025,-0.97908121,-0.04644835,-0.19809692,0
-0.0052156448,-2.3445551,-5.3129449,0.19593918,0.047183782,-0.97948021,0
0.83895922,3.5264478,5.3810406,-0.19593918,-0.047183782,0.97948021,0
-0.00084888935,1.0091627,5.018178,-0.19593918,-0.047183782,0.97948021,0
-2.80229,3.6932847,2.7125533,-0.054842234,0.99780566,0.037095688,0
3.2497606,-0.61424232,-4.6752419,0.19593918,0.047183782,-0.97948021,0
2.3049078,2.248553,-4.3664699,0.19593918,0.047183782,-0.97948021,0
1.5992422,1.5385779,4.2031021,0.97908121,0.04644835,0.19809692,0
-2.2466738,3.9281406,0.65071565,-0.054842234,0.99780566,0.037095688,0
-2.6595039,-3.9978499,1.7258698,-0.97908121,-0.04644835,-0.19809692,0
1.3019547,-3.9542911,-3.3239386,0.054842234,-0.99780566,-0.037095688,0
-1.6578779,-2.1765769,-4.5926638,-0.97908121,-0.04644835,-0.19809692,0
-0.92485929,3.9021544,-2.2219529,-0.054842234,0.99780566,0.037095688,0
0.10378313,-3.1752076,-5.2405677,0.19593918,0.047183782,-0.97948021,0
0.97857976,0.697923,-4.7198658,0.19593918,0.047183782,-0.97948021,0
-1.9551947,-1.8671316,-2.3863707,-0.97908121,-0.04644835,-0.19809692,0
-0.88065982,-4.1319427,3.4021733,0.054842234,-0.99780566,-0.037095688,0
0.96986198,4.0624437,-0.65166873,-0.054842234,0.99780566,0.037095688,0
2.4744349,0.98632193,-4.3836141,0.19593918,0.047183782,-0.97948021,0
0.64154744,2.1313691,-4.7809482,0.19593918,0.047183782,-0.97948021,0
