-3.1296172,-0.24289227,-0.2444663,-0.91283631,-0.17291641,0.36990541,0
1.7555206,3.661943,1.132501,-0.24915338,0.95358992,-0.16908315,0
3.1049623,2.3866587,1.758009,0.32350087,0.24650848,0.91355407,0
-2.3463385,1.4716265,2.5830932,-0.91283631,-0.17291641,0.36990541,0
-1.9911532,0.57965267,3.4779804,-0.91283631,-0.17291641,0.36990541,0
2.2744846,3.7994142,1.070333,-0.24915338,0.95358992,-0.16908315,0
2.4997885,0.8809514,2.099556,0.32350087,0.24650848,0.91355407,0
-2.33672,-3.6319952,0.041479468,0.24915338,-0.95358992,0.16908315,0
-1.8219304,-2.7584617,-1.753647,-0.32350087,-0.24650848,-0.91355407,0
0.43447065,3.1941714,0.57723439,-0.24915338,0.95358992,-0.16908315,0
-1.2745986,-0.7395854,-2.7136693,-0.32350087,-0.24650848,-0.91355407,0
1.7018785,3.127105,1.9195548,0.32350087,0.24650848,0.91355407,0
-2.3514893,-3.3640702,0.76843274,-0.91283631,-0.17291641,0.36990541,0
-0.31494582,0.95474195,3.1578104,0.32350087,0.24650848,0.91355407,0
3.5756636,0.76008224,0.7541368,0.91283631,0.17291641,-0.36990541,0
-1.2326212,2.958663,1.5403649,-0.24915338,0.95358992,-0.16908315,0
-0.25447631,1.4368076,-3.3763037,-0.32350087,-0.24650848,-0.91355407,0
-2.9458439,-1.1622151,0.27707219,-0.91283631,-0.17291641,0.36990541,0
0.79923368,2.6860437,-4.5004721,-0.32350087,-0.24650848,-0.91355407,0
-3.9749353,0.52065754,-2.2212172,-0.32350087,-0.24650848,-0.91355407,0
-3.4138832,-0.11867213,-0.23072243,-0.91283631,-0.17291641,0.36990541,0
2.4011855,1.6976495,-1.3738676,0.91283631,0.17291641,-0.36990541,0
-2.5878999,-3.8882585,-0.98974842,0.24915338,-0.95358992,0.16908315,0
-3.6287959,1.0734482,-0.19068384,-0.91283631,-0.17291641,0.36990541,0
1.3855972,1.0447862,2.5306463,0.32350087,0.24650848,0.91355407,0
-2.2892575,-3.3680952,1.1115851,0.24915338,-0.95358992,0.16908315,0
-2.8265386,0.3818115,1.1647546,-0.91283631,-0.17291641,0.36990541,0
0.29411983,-1.6420466,-2.7549231,-0.32350087,-0.24650848,-0.91355407,0
2.4466453,-0.8674134,-2.4551187,0.91283631,0.17291641,-0.36990541,0
3.7519937,0.38502502,2.0619774,0.32350087,0.24650848,0.91355407,0
3.9603059,-0.43048239,1.5039332,0.91283631,0.17291641,-0.36990541,0
1.8749919,-2.903533,-1.4523979,0.24915338,-0.95358992,0.16908315,0
2.4870849,-1.0088139,-2.1424131,0.91283631,0.17291641,-0.36990541,0
1.9671566,-3.0117304,-3.0722485,0.24915338,-0.95358992,0.16908315,0
-2.6894541,2.7763844,1.9737799,-0.24915338,0.95358992,-0.16908315,0
0.87304139,3.0682425,-0.6795755,-0.24915338,0.95358992,-0.16908315,0
0.55547577,1.0977783,-3.6708963,-0.32350087,-0.24650848,-0.91355407,0
1.3011954,-2.2569814,-3.0635362,-0.32350087,-0.24650848,-0.91355407,0
-3.7207415,-1.37308,-1.41854,-0.91283631,-0.17291641,0.36990541,0
3.4233041,2.7600412,1.2694163,0.91283631,0.17291641,-0.36990541,0
3.1385574,-1.2986047,-1.2143085,0.91283631,0.17291641,-0.36990541,0
-2.2039893,2.0500965,3.3788815,-0.91283631,-0.17291641,0.36990541,0
0.77755284,2.8500891,2.1057162,0.32350087,0.24650848,0.91355407,0
0.64164436,-0.37881804,-3.3289826,-0.32350087,-0.24650848,-0.91355407,0
-0.33842343,0.93426847,-3.296083,-0.32350087,-0.24650848,-0.91355407,0
-0.72896004,1.6340538,3.1593835,0.32350087,0.24650848,0.91355407,0
-2.6007571,-1.3831489,-2.077718,-0.32350087,-0.24650848,-0.91355407,0
2.7109089,2.8281593,-0.48768926,0.91283631,0.17291641,-0.36990541,0
-1.8928435,2.7240176,-0.32476616,-0.24915338,0.95358992,-0.16908315,0
-1.2571359,3.1898561,3.0446503,0.32350087,0.24650848,0.91355407,0
0.24135137,-2.6509111,1.3653641,0.24915338,-0.95358992,0.16908315,0
-0.78764725,-0.8662734,-2.8307505,-0.32350087,-0.24650848,-0.91355407,0
4.2539921,-1.7514205,1.5273921,0.24915338,-0.95358992,0.16908315,0
2.3061781,0.424602,-2.1665342,0.91283631,0.17291641,-0.36990541,0
0.27817774,-3.3631554,-0.58703774,0.24915338,-0.95358992,0.16908315,0
3.5404942,2.0529811,1.3734077,0.91283631,0.17291641,-0.36990541,0
-3.1517258,-0.9662745,-0.22936726,-0.91283631,-0.17291641,0.36990541,0
-2.6156845,-0.95333695,1.120343,-0.91283631,-0.17291641,0.36990541,0
-3.664578,-0.58756781,-2.0274844,-0.32350087,-0.24650848,-0.91355407,0
3.9368439,-0.19128084,2.0220656,0.32350087,0.24650848,0.91355407,0
3.5287421,0.57056761,2.078495,0.32350087,0.24650848,0.91355407,0
2.5260842,2.3992734,1.5358474,0.32350087,0.24650848,0.91355407,0
-3.3368347,-1.6197481,-0.58266425,-0.91283631,-0.17291641,0.36990541,0
0.035703897,3.0409479,-0.16750211,-0.24915338,0.95358992,-0.16908315,0
2.2339768,0.50300074,-1.8900789,0.91283631,0.17291641,-0.36990541,0
-0.23783398,2.3986716,-3.0420735,-0.24915338,0.95358992,-0.16908315,0
4.248487,-0.87732124,1.5013089,0.91283631,0.17291641,-0.36990541,0
2.8432078,1.0261573,-0.90721488,0.91283631,0.17291641,-0.36990541,0
-1.9889539,1.1240048,-2.728545,-0.32350087,-0.24650848,-0.91355407,0
-3.1089439,2.0539596,-1.135273,-0.24915338,0.95358992,-0.16908315,0
0.58166146,0.66504478,2.8321195,0.32350087,0.24650848,0.91355407,0
0.65246677,-2.6231928,0.85372031,0.24915338,-0.95358992,0.16908315,0
-0.056462526,2.7072623,-2.3748486,-0.24915338,0.95358992,-0.16908315,0
-2.0690002,2.2387378,-1.683495,-0.24915338,0.95358992,-0.16908315,0
-1.6936668,2.3359618,-1.9913117,-0.24915338,0.95358992,-0.16908315,0
1.3176367,-2.5540457,0.78951883,0.24915338,-0.95358992,0.16908315,0
-1.9114943,0.95163345,-2.9872124,-0.32350087,-0.24650848,-0.91355407,0
-2.4305022,1.0442443,-2.628911,-0.32350087,-0.24650848,-0.91355407,0
2.509028,-2.2073562,2.7236004,0.24915338,-0.95358992,0.16908315,0
1.2909162,3.7136455,1.6850072,-0.24915338,0.95358992,-0.16908315,0
-3.7319736,0.058365345,-0.80096936,-0.91283631,-0.17291641,0.36990541,0
0.38037896,-3.0597954,0.19953597,0.24915338,-0.95358992,0.16908315,0
2.6891069,1.613976,2.0108035,0.32350087,0.24650848,0.91355407,0
0.033694506,-2.9936037,-0.15044552,0.24915338,-0.95358992,0.16908315,0
-3.5838547,-1.3866308,-1.4482547,-0.91283631,-0.17291641,0.36990541,0
1.6939132,-2.5991001,-3.3200431,-0.32350087,-0.24650848,-0.91355407,0
2.905982,1.9410868,1.9353662,0.32350087,0.24650848,0.91355407,0
2.2298295,3.6927865,-0.83211213,-0.24915338,0.95358992,-0.16908315,0
-3.7996826,1.9101841,-2.0911403,-0.24915338,0.95358992,-0.16908315,0
-1.5328493,-1.3992759,3.9955051,-0.91283631,-0.17291641,0.36990541,0
-0.53647721,-2.7370026,3.7275686,0.24915338,-0.95358992,0.16908315,0
2.6829176,2.0529947,-0.66547632,0.91283631,0.17291641,-0.36990541,0
2.3604164,0.52280009,-2.4669647,0.91283631,0.17291641,-0.36990541,0
3.0308986,-2.53969,-0.96371436,0.24915338,-0.95358992,0.16908315,0
3.6250458,-2.1238976,1.5640061,0.24915338,-0.95358992,0.16908315,0
2.7025421,-2.8789711,-2.9328799,0.24915338,-0.95358992,0.16908315,0
1.4895651,2.7703695,-2.9257202,0.91283631,0.17291641,-0.36990541,0
0.79038405,-2.4121277,-2.8951809,-0.32350087,-0.24650848,-0.91355407,0
1.3345957,-2.9141102,-2.9694881,-0.32350087,-0.24650848,-0.91355407,0
-2.2694752,-0.75656414,-2.2888246,-0.32350087,-0.24650848,-0.91355407,0
-0.67404783,-1.4182491,-2.4600227,-0.32350087,-0.24650848,-0.91355407,0
2.7062094,0.024083614,-1.4780496,0.91283631,0.17291641,-0.36990541,0
-0.88076067,-2.1518481,-2.2105856,-0.32350087,-0.24650848,-0.91355407,0
2.0575984,-2.978272,-2.9919674,-0.32350087,-0.24650848,-0.91355407,0
0.73309934,2.8405755,-3.3341203,-0.24915338,0.95358992,-0.16908315,0
-1.6235318,1.1077857,3.5436125,0.32350087,0.24650848,0.91355407,0
-2.478683,-0.7487877,1.7245129,-0.91283631,-0.17291641,0.36990541,0
-2.5453277,2.3820801,0.52924109,-0.24915338,0.95358992,-0.16908315,0
-1.3526541,-0.89914882,3.9022992,0.32350087,0.24650848,0.91355407,0
1.7979299,1.5914552,-2.9048696,0.91283631,0.17291641,-0.36990541,0
2.4909348,2.3650622,1.7753667,0.32350087,0.24650848,0.91355407,0
-2.6374211,2.2565191,2.4222584,-0.91283631,-0.17291641,0.36990541,0
-3.1021721,-1.9906402,-0.070510864,-0.91283631,-0.17291641,0.36990541,0
-2.2352104,-0.48954833,2.8363786,-0.91283631,-0.17291641,0.36990541,0
-1.3408797,3.0326118,0.5118885,-0.24915338,0.95358992,-0.16908315,0
1.8388269,1.2054623,-3.1883721,0.91283631,0.17291641,-0.36990541,0
3.3546495,1.3837376,0.37044787,0.91283631,0.17291641,-0.36990541,0
2.2646074,2.8369775,-0.88248038,0.91283631,0.17291641,-0.36990541,0
0.82144666,3.3476591,-0.049156085,-0.24915338,0.95358992,-0.16908315,0
2.0322125,-2.7836485,0.00015568733,0.24915338,-0.95358992,0.16908315,0
-2.3950853,1.127784,2.5628815,-0.91283631,-0.17291641,0.36990541,0
-1.5316837,-3.2205553,1.5138303,0.24915338,-0.95358992,0.16908315,0
-2.2168252,-0.48816106,2.317909,-0.91283631,-0.17291641,0.36990541,0
0.16606164,-2.7522237,2.724844,0.24915338,-0.95358992,0.16908315,0
3.1636486,-2.1124072,-1.7587419,0.91283631,0.17291641,-0.36990541,0
-3.0024843,-1.5438695,-0.50181758,-0.91283631,-0.17291641,0.36990541,0
-1.6675091,1.7148228,-3.1909776,-0.32350087,-0.24650848,-0.91355407,0
2.3008595,-0.89952898,-2.631053,0.91283631,0.17291641,-0.36990541,0
-2.6062934,2.4814622,0.9963026,-0.24915338,0.95358992,-0.16908315,0
-0.15270424,1.0942435,2.8368001,0.32350087,0.24650848,0.91355407,0
-2.9237921,1.7188418,1.9959228,-0.91283631,-0.17291641,0.36990541,0
-1.7476678,-2.3254228,-2.0779023,-0.32350087,-0.24650848,-0.91355407,0
-1.0402622,-1.9301333,-2.2874346,-0.32350087,-0.24650848,-0.91355407,0
-0.62483788,-0.028404951,-3.1637111,-0.32350087,-0.24650848,-0.91355407,0
-2.3062289,-3.2532873,1.0097175,-0.91283631,-0.17291641,0.36990541,0
0.53186989,3.5232151,1.3613181,-0.24915338,0.95358992,-0.16908315,0
-1.8236291,2.1069927,-3.1723735,-0.32350087,-0.24650848,-0.91355407,0
-2.3350058,-1.9175559,1.6524713,-0.91283631,-0.17291641,0.36990541,0
-1.6757956,-2.2255599,2.4634979,-0.91283631,-0.17291641,0.36990541,0
-1.2636139,-2.3471682,3.5615025,-0.91283631,-0.17291641,0.36990541,0
-0.23043871,2.5168157,-2.0844407,-0.24915338,0.95358992,-0.16908315,0
-0.2380259,-0.43515015,-3.0777717,-0.32350087,-0.24650848,-0.91355407,0
-4.0531754,1.8860466,-0.94156528,-0.24915338,0.95358992,-0.16908315,0
-3.7949929,-0.71975374,-1.7741747,-0.91283631,-0.17291641,0.36990541,0
1.2070394,-2.5455725,1.3543978,0.24915338,-0.95358992,0.16908315,0
-0.97849894,2.9375162,2.6266665,0.32350087,0.24650848,0.91355407,0
-0.45694137,-1.7490699,-2.491658,-0.32350087,-0.24650848,-0.91355407,0
2.9404609,-1.8729382,-1.8788931,0.91283631,0.17291641,-0.36990541,0
-3.6503606,2.1334739,-0.080263376,-0.24915338,0.95358992,-0.16908315,0
0.4104867,2.9094553,-1.153074,-0.24915338,0.95358992,-0.16908315,0
-2.0895848,2.2494669,-2.7301533,-0.24915338,0.95358992,-0.16908315,0
-3.0399098,2.1719265,-0.28029847,-0.24915338,0.95358992,-0.16908315,0
1.629729,-2.5625942,-3.2564104,-0.32350087,-0.24650848,-0.91355407,0
3.7544725,-1.5076792,0.3210783,0.91283631,0.17291641,-0.36990541,0
-0.96383178,-2.9482453,2.8990154,0.24915338,-0.95358992,0.16908315,0
1.7322364,3.3322287,-1.6209803,-0.24915338,0.95358992,-0.16908315,0
0.078117013,-1.6474855,3.7940481,0.32350087,0.24650848,0.91355407,0
-2.0759797,-0.9607681,2.0569687,-0.91283631,-0.17291641,0.36990541,0
0.9274348,-1.1442378,-3.3233426,-0.32350087,-0.24650848,-0.91355407,0
-3.2899432,2.1555672,-0.38938928,-0.24915338,0.95358992,-0.16908315,0
-3.441443,1.8765986,-2.1253123,-0.24915338,0.95358992,-0.16908315,0
2.9456439,1.3396411,-0.1202395,0.91283631,0.17291641,-0.36990541,0
-3.3261456,2.1895199,0.48772907,-0.24915338,0.95358992,-0.16908315,0
-0.85518265,2.9996748,0.87256825,-0.24915338,0.95358992,-0.16908315,0
-1.0327077,2.0721965,3.2636535,0.32350087,0.24650848,0.91355407,0
2.5219579,0.50219244,-2.0170376,0.91283631,0.17291641,-0.36990541,0
-1.0732939,-3.4202123,-0.25311634,0.24915338,-0.95358992,0.16908315,0
-1.7982545,-3.9304013,-1.0672711,0.24915338,-0.95358992,0.16908315,0
-1.3914275,-2.9396315,-1.9947351,-0.32350087,-0.24650848,-0.91355407,0
-3.4808698,-0.81242609,-0.43114567,-0.91283631,-0.17291641,0.36990541,0
2.5149927,1.5698421,-1.1410587,0.91283631,0.17291641,-0.36990541,0
3.7091568,-1.4080045,0.3904953,0.91283631,0.17291641,-0.36990541,0
0.57741117,3.4047017,2.3117709,0.32350087,0.24650848,0.91355407,0
-0.23248792,-3.1015644,0.40053555,0.24915338,-0.95358992,0.16908315,0
-2.1863089,0.83450723,-2.863445,-0.32350087,-0.24650848,-0.91355407,0
-2.5731249,-0.83010817,-2.3377793,-0.32350087,-0.24650848,-0.91355407,0
2.3382802,0.25119281,-2.2927594,0.91283631,0.17291641,-0.36990541,0
1.3206966,-2.7483425,0.21621227,0.24915338,-0.95358992,0.16908315,0
2.9011869,3.0461566,0.71514857,0.91283631,0.17291641,-0.36990541,0
-2.0383739,-3.212965,1.3912964,-0.91283631,-0.17291641,0.36990541,0
-3.8947678,0.3582685,-1.0283208,-0.91283631,-0.17291641,0.36990541,0
-2.6409051,1.6553261,1.9526343,-0.91283631,-0.17291641,0.36990541,0
2.5392311,0.067578793,-1.7601191,0.91283631,0.17291641,-0.36990541,0
2.2486405,-2.2129381,2.8578229,0.24915338,-0.95358992,0.16908315,0
-0.77894354,0.89225078,3.4903774,0.32350087,0.24650848,0.91355407,0
-2.1098514,1.4758986,3.6421189,-0.91283631,-0.17291641,0.36990541,0
0.84089613,3.7158508,1.6945361,-0.24915338,0.95358992,-0.16908315,0
2.1508386,-2.8995917,-1.3795385,0.24915338,-0.95358992,0.16908315,0
2.8631277,-2.1990287,1.694921,0.24915338,-0.95358992,0.16908315,0
-2.3071342,-2.4242396,1.4095637,-0.91283631,-0.17291641,0.36990541,0
2.3320386,-0.83957982,2.5661278,0.32350087,0.24650848,0.91355407,0
-1.9090208,-2.8810143,1.6437577,-0.91283631,-0.17291641,0.36990541,0
2.1899405,-0.058422208,-3.2237432,0.91283631,0.17291641,-0.36990541,0
0.15865007,0.40304971,-3.6351571,-0.32350087,-0.24650848,-0.91355407,0
-0.746418,3.3568387,2.4915056,0.32350087,0.24650848,0.91355407,0
-1.176893,2.2682774,-3.3270643,-0.32350087,-0.24650848,-0.91355407,0
-2.7980058,1.9016569,1.5814583,-0.91283631,-0.17291641,0.36990541,0
-1.1819475,0.63472629,-3.1342013,-0.32350087,-0.24650848,-0.91355407,0
-2.5833077,-3.7581787,-0.59932846,0.24915338,-0.95358992,0.16908315,0
-2.9718776,-0.74697471,-1.9850641,-0.32350087,-0.24650848,-0.91355407,0
-3.7120013,1.1738327,-0.15330482,-0.91283631,-0.17291641,0.36990541,0
-0.46887231,2.0284915,2.9396393,0.32350087,0.24650848,0.91355407,0
0.43902516,-2.3089504,-2.946872,-0.32350087,-0.24650848,-0.91355407,0
-1.4867343,0.26721501,3.7964571,0.32350087,0.24650848,0.91355407,0
-3.8373842,0.83389926,-1.2596354,-0.91283631,-0.17291641,0.36990541,0
3.7386651,-0.10631132,2.1767702,0.32350087,0.24650848,0.91355407,0
0.036707878,-3.2487864,-2.341701,-0.32350087,-0.24650848,-0.91355407,0
3.3898427,1.9374933,1.4998513,0.91283631,0.17291641,-0.36990541,0
0.47989488,3.1588268,-0.79126549,-0.24915338,0.95358992,-0.16908315,0
3.1537519,-0.28871942,-0.56092358,0.91283631,0.17291641,-0.36990541,0
-0.35789108,-2.8008416,1.4316939,0.24915338,-0.95358992,0.16908315,0
-0.58664799,-3.1757877,1.8576441,0.24915338,-0.95358992,0.16908315,0
-1.7392974,-3.1754534,-1.8650925,-0.32350087,-0.24650848,-0.91355407,0
2.9490654,-1.1168214,-1.7824233,0.91283631,0.17291641,-0.36990541,0
-0.66886193,-0.23018479,-2.8763103,-0.32350087,-0.24650848,-0.91355407,0
2.6821563,-2.2169578,-2.6821451,0.91283631,0.17291641,-0.36990541,0
-0.50905037,1.5276973,2.9767635,0.32350087,0.24650848,0.91355407,0
-1.9313178,2.6930213,-0.10350418,-0.24915338,0.95358992,-0.16908315,0
-0.10736418,3.5067296,2.2444873,-0.24915338,0.95358992,-0.16908315,0
-1.7884741,-3.6596451,0.88386047,0.24915338,-0.95358992,0.16908315,0
3.6929588,-1.4349301,0.23742628,0.91283631,0.17291641,-0.36990541,0
1.9496231,3.6015573,-0.13799429,-0.24915338,0.95358992,-0.16908315,0
1.172693,-3.1226931,-2.2458427,0.24915338,-0.95358992,0.16908315,0
-0.10140043,0.028799772,3.1429286,0.32350087,0.24650848,0.91355407,0
0.18500257,3.2668517,-0.73453671,-0.24915338,0.95358992,-0.16908315,0
2.2130413,-3.078022,-2.9362819,0.24915338,-0.95358992,0.16908315,0
-2.2566581,-3.4333065,1.0477844,-0.91283631,-0.17291641,0.36990541,0
-2.5741389,-0.45947886,1.0831147,-0.91283631,-0.17291641,0.36990541,0
-2.484504,-0.91331255,1.4103866,-0.91283631,-0.17291641,0.36990541,0
-1.772167,3.0378277,2.3309968,-0.24915338,0.95358992,-0.16908315,0
3.3561363,-0.32654834,0.14639187,0.91283631,0.17291641,-0.36990541,0
-0.25762057,2.0752149,2.690434,0.32350087,0.24650848,0.91355407,0
-2.030237,2.5581412,-0.28052855,-0.24915338,0.95358992,-0.16908315,0
1.8258352,-0.92217708,2.8481696,0.32350087,0.24650848,0.91355407,0
-3.3100176,-0.0098631382,0.25811625,-0.91283631,-0.17291641,0.36990541,0
1.2102761,-1.2483273,-3.4739265,-0.32350087,-0.24650848,-0.91355407,0
2.3140626,-0.013773218,-2.4037361,0.91283631,0.17291641,-0.36990541,0
3.0445018,3.34495,1.0847872,0.91283631,0.17291641,-0.36990541,0
-3.4042008,1.0133028,-2.5357995,-0.32350087,-0.24650848,-0.91355407,0
2.0778193,3.6202929,-0.617302,-0.24915338,0.95358992,-0.16908315,0
0.17626452,-2.7079825,-2.8335187,-0.32350087,-0.24650848,-0.91355407,0
2.5742841,0.037805855,-1.7550273,0.91283631,0.17291641,-0.36990541,0
-3.1369886,2.0804343,1.5072348,-0.91283631,-0.17291641,0.36990541,0
-0.039813519,-3.5190456,-1.2352033,0.24915338,-0.95358992,0.16908315,0
-1.6531773,3.0968647,1.8003039,-0.24915338,0.95358992,-0.16908315,0
1.4999962,-1.3536997,3.0463467,0.32350087,0.24650848,0.91355407,0
-2.5886383,3.1120749,2.7375331,-0.24915338,0.95358992,-0.16908315,0
-1.533608,1.8579526,-3.3080122,-0.32350087,-0.24650848,-0.91355407,0
-2.8692007,2.7748575,2.2862301,-0.91283631,-0.17291641,0.36990541,0
2.260453,1.3980663,-1.9867842,0.91283631,0.17291641,-0.36990541,0
-0.60146761,-2.9277363,-2.1574733,-0.32350087,-0.24650848,-0.91355407,0
0.19607329,3.0541925,-0.65037644,-0.24915338,0.95358992,-0.16908315,0
2.4580569,1.6669812,-1.5910397,0.91283631,0.17291641,-0.36990541,0
-2.353353,1.1826208,2.6364002,-0.91283631,-0.17291641,0.36990541,0
3.1364133,3.7390649,1.3563383,0.32350087,0.24650848,0.91355407,0
2.742707,0.61522257,-0.86358392,0.91283631,0.17291641,-0.36990541,0
0.24305356,2.3898244,-3.9720671,-0.32350087,-0.24650848,-0.91355407,0
2.4002047,-2.3441434,0.14752793,0.24915338,-0.95358992,0.16908315,0
0.88899636,-3.2839284,-1.4299179,0.24915338,-0.95358992,0.16908315,0
-2.9642475,2.548497,0.93501902,-0.24915338,0.95358992,-0.16908315,0
3.472748,-1.4201701,-0.74477386,0.91283631,0.17291641,-0.36990541,0
1.6848902,0.65043533,-3.7877851,0.91283631,0.17291641,-0.36990541,0
-1.2635014,-3.2740433,0.23746073,0.24915338,-0.95358992,0.16908315,0
-2.8296609,0.022806644,0.97208476,-0.91283631,-0.17291641,0.36990541,0
-1.7782645,2.92171,0.91851759,-0.24915338,0.95358992,-0.16908315,0
-1.2182677,2.3991346,-1.5846415,-0.24915338,0.95358992,-0.16908315,0
0.16323423,3.317107,1.6310341,-0.24915338,0.95358992,-0.16908315,0
2.2167425,3.1824789,-1.6899862,0.91283631,0.17291641,-0.36990541,0
0.74231386,-2.6746814,1.6521498,0.24915338,-0.95358992,0.16908315,0
-2.6397047,2.0235794,-2.5901971,-0.24915338,0.95358992,-0.16908315,0
3.6125712,-0.40344477,0.45132017,0.91283631,0.17291641,-0.36990541,0
-2.9273965,-0.012631059,1.1690631,-0.91283631,-0.17291641,0.36990541,0
2.6663749,-1.496588,-2.1203377,0.91283631,0.17291641,-0.36990541,0
-2.9527605,2.4997904,0.62436819,-0.24915338,0.95358992,-0.16908315,0
3.2547474,2.4113262,1.2445005,0.91283631,0.17291641,-0.36990541,0
-1.017113,-1.6671435,4.0625601,0.32350087,0.24650848,0.91355407,0
1.4182253,1.2441278,-3.8581104,0.91283631,0.17291641,-0.36990541,0
-3.9825447,1.3168113,-1.324367,-0.91283631,-0.17291641,0.36990541,0
1.8190535,1.8953614,-2.5975797,0.91283631,0.17291641,-0.36990541,0
0.23036885,-2.0524321,-2.9607363,-0.32350087,-0.24650848,-0.91355407,0
-3.0313468,1.3891647,-2.5038376,-0.32350087,-0.24650848,-0.91355407,0
1.8657846,-3.0647731,-2.9897103,-0.32350087,-0.24650848,-0.91355407,0
-2.1200039,-2.2757461,1.5964785,-0.91283631,-0.17291641,0.36990541,0
1.6658847,-2.2308352,-3.2167902,-0.32350087,-0.24650848,-0.91355407,0
-2.3838158,2.4886217,-1.0684438,-0.24915338,0.95358992,-0.16908315,0
-2.3359218,-2.4519594,1.5496399,-0.91283631,-0.17291641,0.36990541,0
-1.2381251,-3.2659457,0.63437313,0.24915338,-0.95358992,0.16908315,0
1.7345946,3.857842,0.98291504,-0.24915338,0.95358992,-0.16908315,0
3.2289028,-1.1767011,2.6606703,0.32350087,0.24650848,0.91355407,0
1.8168414,-2.8133004,-0.33036089,0.24915338,-0.95358992,0.16908315,0
-0.1318965,2.9997048,2.6670117,0.32350087,0.24650848,0.91355407,0
2.5433817,1.9825904,-0.95909023,0.91283631,0.17291641,-0.36990541,0
-3.1056235,0.78282011,0.78154564,-0.91283631,-0.17291641,0.36990541,0
2.559767,0.06316942,-1.6140826,0.91283631,0.17291641,-0.36990541,0
1.1152418,-2.5343299,-2.9682057,-0.32350087,-0.24650848,-0.91355407,0
0.6649878,-2.6974363,1.7195414,0.24915338,-0.95358992,0.16908315,0
-1.7150074,2.2948148,-2.6263952,-0.24915338,0.95358992,-0.16908315,0
-1.3776348,-3.6169047,-1.7520233,-0.32350087,-0.24650848,-0.91355407,0
-1.6977682,2.5196667,-1.4895271,-0.24915338,0.95358992,-0.16908315,0
1.6860468,-2.6663079,0.11995888,0.24915338,-0.95358992,0.16908315,0
3.1306319,2.859297,1.1959442,0.91283631,0.17291641,-0.36990541,0
-2.8071003,-0.87443841,0.78852856,-0.91283631,-0.17291641,0.36990541,0
0.98267472,-2.3909674,2.3191106,0.24915338,-0.95358992,0.16908315,0
-0.36673498,2.7976365,2.6237273,0.32350087,0.24650848,0.91355407,0
2.3548255,3.2380586,-0.98395801,0.91283631,0.17291641,-0.36990541,0
1.2696896,3.196039,-2.2537847,-0.24915338,0.95358992,-0.16908315,0
-2.8209152,1.8285854,-2.3325992,-0.24915338,0.95358992,-0.16908315,0
-2.1747329,2.2849927,3.3986835,0.32350087,0.24650848,0.91355407,0
0.29339707,0.44247913,2.8577147,0.32350087,0.24650848,0.91355407,0
0.76541197,0.55562425,-3.75365,-0.32350087,-0.24650848,-0.91355407,0
2.5166507,-2.3759928,0.95948458,0.24915338,-0.95358992,0.16908315,0
-3.0288787,0.072691321,0.61752391,-0.91283631,-0.17291641,0.36990541,0
3.1773877,-0.28764176,0.051736832,0.91283631,0.17291641,-0.36990541,0
-0.10999537,2.9679065,-0.84111118,-0.24915338,0.95358992,-0.16908315,0
1.3439279,1.2839568,-4.0898528,0.91283631,0.17291641,-0.36990541,0
-3.8994226,1.6056991,-2.2628455,-0.32350087,-0.24650848,-0.91355407,0
-1.2121394,-3.6152701,-1.7233748,0.24915338,-0.95358992,0.16908315,0
-3.2080412,-0.81430936,-0.440979,-0.91283631,-0.17291641,0.36990541,0
1.9090267,0.04974699,-2.8617115,0.91283631,0.17291641,-0.36990541,0
-2.2623081,2.2719874,-1.1141018,-0.24915338,0.95358992,-0.16908315,0
0.33729792,-3.3469477,-2.4090033,0.24915338,-0.95358992,0.16908315,0
-3.7002945,1.8374584,-0.64445305,-0.91283631,-0.17291641,0.36990541,0
1.2320534,-1.2885954,3.0685608,0.32350087,0.24650848,0.91355407,0
0.10825729,-2.6826825,1.6851987,0.24915338,-0.95358992,0.16908315,0
1.5158887,1.6069479,2.1261141,0.32350087,0.24650848,0.91355407,0
-3.8925295,0.71101141,-1.1700401,-0.91283631,-0.17291641,0.36990541,0
-0.65733123,-0.33553457,-2.7913344,-0.32350087,-0.24650848,-0.91355407,0
-1.9149591,-2.7125688,1.7983139,-0.91283631,-0.17291641,0.36990541,0
1.8844142,2.5084069,-1.871038,0.91283631,0.17291641,-0.36990541,0
-0.97375208,-0.73124099,-2.5386288,-0.32350087,-0.24650848,-0.91355407,0
2.3427072,3.6570373,-0.17184067,0.91283631,0.17291641,-0.36990541,0
-2.3407598,-1.4235792,1.7385217,-0.91283631,-0.17291641,0.36990541,0
-3.5053041,1.0188005,-0.018074274,-0.91283631,-0.17291641,0.36990541,0
-0.7714861,0.18183613,-3.2088501,-0.32350087,-0.24650848,-0.91355407,0
-0.6400311,-3.2415075,0.0034901798,0.24915338,-0.95358992,0.16908315,0
-0.61685848,2.1467342,2.8562369,0.32350087,0.24650848,0.91355407,0
-1.5083867,-2.9145682,2.7911472,-0.91283631,-0.17291641,0.36990541,0
0.74569339,2.125556,-4.0716882,-0.32350087,-0.24650848,-0.91355407,0
2.4446094,-2.2633002,-2.8674827,0.91283631,0.17291641,-0.36990541,0
1.6536508,1.0711386,2.5495734,0.32350087,0.24650848,0.91355407,0
-1.3626354,-1.0814116,3.9829841,0.32350087,0.24650848,0.91355407,0
-3.6847942,1.8840578,-0.1654768,-0.91283631,-0.17291641,0.36990541,0
0.94569111,3.7899678,1.5991894,-0.24915338,0.95358992,-0.16908315,0
2.1936052,0.38113827,-2.8831069,0.91283631,0.17291641,-0.36990541,0
-3.2998099,-0.36881852,0.17598963,-0.91283631,-0.17291641,0.36990541,0
-2.6933906,2.2376809,2.8533034,-0.91283631,-0.17291641,0.36990541,0
-1.7810295,2.9457078,1.5443637,-0.24915338,0.95358992,-0.16908315,0
-2.3818023,-1.6960462,1.4450164,-0.91283631,-0.17291641,0.36990541,0
-1.1707536,-2.036361,4.282299,-0.91283631,-0.17291641,0.36990541,0
3.1867349,2.0781369,0.7390238,0.91283631,0.17291641,-0.36990541,0
0.29818821,-3.4063544,-2.1674445,0.24915338,-0.95358992,0.16908315,0
0.4106642,-2.2512734,3.7379515,0.32350087,0.24650848,0.91355407,0
-1.9151362,-1.4177418,-2.3065212,-0.32350087,-0.24650848,-0.91355407,0
-3.765281,-0.028407097,-0.82868028,-0.91283631,-0.17291641,0.36990541,0
2.9590461,-0.30546737,-1.2320533,0.91283631,0.17291641,-0.36990541,0
-1.9932015,-0.42628652,2.8915834,-0.91283631,-0.17291641,0.36990541,0
2.6666212,0.47724342,-0.80437481,0.91283631,0.17291641,-0.36990541,0
-2.2650092,-0.93149823,1.6457778,-0.91283631,-0.17291641,0.36990541,0
-1.8667294,-2.1457467,-1.8463432,-0.32350087,-0.24650848,-0.91355407,0
0.90561056,-0.47909641,3.0200338,0.32350087,0.24650848,0.91355407,0
-1.7033551,0.66069078,3.5596588,0.32350087,0.24650848,0.91355407,0
-1.097997,2.7841876,-1.198961,-0.24915338,0.95358992,-0.16908315,0
-2.2844095,-3.0244365,0.75452274,-0.91283631,-0.17291641,0.36990541,0
0.037011623,3.3553154,2.2089972,-0.24915338,0.95358992,-0.16908315,0
2.3342867,-1.5067863,-3.0078354,0.91283631,0.17291641,-0.36990541,0
-2.0884247,0.058248639,3.4455504,-0.91283631,-0.17291641,0.36990541,0
1.8794445,2.6271234,-1.9510357,0.91283631,0.17291641,-0.36990541,0
-1.196903,0.34405422,3.5341952,0.32350087,0.24650848,0.91355407,0
-0.94956923,-3.6764879,-1.5699661,0.24915338,-0.95358992,0.16908315,0
3.5697618,-0.086278915,2.2472386,0.32350087,0.24650848,0.91355407,0
-2.3698273,-1.0619713,2.1147182,-0.91283631,-0.17291641,0.36990541,0
-2.4170661,-3.5509028,0.36308682,-0.91283631,-0.17291641,0.36990541,0
-0.53976578,-2.0150657,3.8783045,0.32350087,0.24650848,0.91355407,0
-3.2585835,1.2394077,0.70105171,-0.91283631,-0.17291641,0.36990541,0
-2.1780133,2.9317045,1.1176395,-0.24915338,0.95358992,-0.16908315,0
2.1705124,2.4416306,1.9223912,0.32350087,0.24650848,0.91355407,0
-2.5064464,-3.879106,-0.5596481,0.24915338,-0.95358992,0.16908315,0
-4.055572,0.45384312,-1.9733317,-0.32350087,-0.24650848,-0.91355407,0
-3.5564017,1.3555626,0.33478093,-0.91283631,-0.17291641,0.36990541,0
-2.1851897,0.28760654,2.8165677,-0.91283631,-0.17291641,0.36990541,0
3.7986536,-1.1840971,0.8090055,0.91283631,0.17291641,-0.36990541,0
0.1062727,-3.4569583,-2.4293108,-0.32350087,-0.24650848,-0.91355407,0
-2.1725821,0.34371835,3.0744443,-0.91283631,-0.17291641,0.36990541,0
0.86049652,1.9040961,2.4134941,0.32350087,0.24650848,0.91355407,0
-0.10483396,-2.6136069,3.629941,0.24915338,-0.95358992,0.16908315,0
-2.4458673,-1.2148252,1.6223325,-0.91283631,-0.17291641,0.36990541,0
-2.0813046,2.0509465,-2.0267129,-0.24915338,0.95358992,-0.16908315,0
-1.3357501,-3.649035,-1.0060784,0.24915338,-0.95358992,0.16908315,0
-0.85563385,0.4393847,3.3464899,0.32350087,0.24650848,0.91355407,0
0.16409349,3.1074824,2.519588,0.32350087,0.24650848,0.91355407,0
-3.1213131,2.4525757,1.9838073,-0.91283631,-0.17291641,0.36990541,0
-0.60994887,-3.1154861,0.51792693,0.24915338,-0.95358992,0.16908315,0
3.5894873,-2.002285,-0.4697547,0.91283631,0.17291641,-0.36990541,0
-3.669513,0.90750742,-0.50349545,-0.91283631,-0.17291641,0.36990541,0
1.5220523,0.53106236,2.7286108,0.32350087,0.24650848,0.91355407,0
-2.6051877,-1.9295341,0.8341769,-0.91283631,-0.17291641,0.36990541,0
2.0935886,-3.0373738,-2.0736945,0.24915338,-0.95358992,0.16908315,0
-3.2241821,-0.73927903,-0.34468794,-0.91283631,-0.17291641,0.36990541,0
3.2346702,-2.0744841,1.6034706,0.24915338,-0.95358992,0.16908315,0
2.9353876,3.7517388,0.65917778,0.91283631,0.17291641,-0.36990541,0
1.294717,-1.5396936,3.091207,0.32350087,0.24650848,0.91355407,0
2.853415,-2.5828886,-0.21572208,0.24915338,-0.95358992,0.16908315,0
3.0061805,2.3525784,0.39623904,0.91283631,0.17291641,-0.36990541,0
2.2240984,1.5858709,-1.9154148,0.91283631,0.17291641,-0.36990541,0
-1.1749809,2.4332399,-3.2556198,-0.24915338,0.95358992,-0.16908315,0
1.7960386,3.7976975,0.43830776,-0.24915338,0.95358992,-0.16908315,0
-2.9081545,0.39801288,0.88214564,-0.91283631,-0.17291641,0.36990541,0
-1.9371824,1.4223727,3.5813286,-0.91283631,-0.17291641,0.36990541,0
-1.2001269,-3.3013783,1.6983836,0.24915338,-0.95358992,0.16908315,0
-3.0390959,-1.604207,-1.7123886,-0.32350087,-0.24650848,-0.91355407,0
0.13209748,2.9009433,-1.1063038,-0.24915338,0.95358992,-0.16908315,0
-1.8423363,-1.7079954,-2.1718473,-0.32350087,-0.24650848,-0.91355407,0
0.84050298,3.1932478,-0.0029831529,-0.24915338,0.95358992,-0.16908315,0
0.65164733,2.5438433,-3.3169909,-0.24915338,0.95358992,-0.16908315,0
2.087914,-2.6527696,-1.3201697,0.24915338,-0.95358992,0.16908315,0
2.3708668,-2.9460526,-2.3289223,0.24915338,-0.95358992,0.16908315,0
-2.1106858,-1.1230047,-2.1428962,-0.32350087,-0.24650848,-0.91355407,0
0.37482667,-2.5957878,1.3928465,0.24915338,-0.95358992,0.16908315,0
-3.1425676,2.3037033,-0.76197577,-0.24915338,0.95358992,-0.16908315,0
2.2536416,1.8749045,-1.8680098,0.91283631,0.17291641,-0.36990541,0
2.9896712,2.6623178,0.36035478,0.91283631,0.17291641,-0.36990541,0
1.7133144,1.5685453,-3.5348017,0.91283631,0.17291641,-0.36990541,0
0.088982105,-3.3176725,-0.48541719,0.24915338,-0.95358992,0.16908315,0
2.7889009,-0.73730451,-1.6833789,0.91283631,0.17291641,-0.36990541,0
0.8937645,3.0541086,-1.8100801,-0.24915338,0.95358992,-0.16908315,0
-0.16213298,-2.8504257,0.72989082,0.24915338,-0.95358992,0.16908315,0
-0.35155869,-3.1889906,0.96953332,0.24915338,-0.95358992,0.16908315,0
1.7308887,1.4113917,2.1554329,0.32350087,0.24650848,0.91355407,0
-1.0351492,2.2429564,-3.3097744,-0.32350087,-0.24650848,-0.91355407,0
2.4848328,3.4342196,1.5128613,0.32350087,0.24650848,0.91355407,0
-0.9883405,-2.8640835,3.0356824,0.24915338,-0.95358992,0.16908315,0
2.5450401,-2.7877648,-0.80705118,0.24915338,-0.95358992,0.16908315,0
-2.3481355,-2.8859651,0.90934396,-0.91283631,-0.17291641,0.36990541,0
-1.1516502,1.4422045,-3.2131374,-0.32350087,-0.24650848,-0.91355407,0
-2.2660825,-1.6325798,2.0803308,-0.91283631,-0.17291641,0.36990541,0
-1.367926,-1.3396822,3.8404267,-0.91283631,-0.17291641,0.36990541,0
-0.34177577,-1.6099944,3.9421964,0.32350087,0.24650848,0.91355407,0
-1.2876568,3.1294212,2.7666125,-0.24915338,0.95358992,-0.16908315,0
2.7832797,-0.33053228,-1.9262785,0.91283631,0.17291641,-0.36990541,0
0.80357885,-3.2484891,-2.5046017,0.24915338,-0.95358992,0.16908315,0
-2.0260417,-3.6396124,-0.1364792,0.24915338,-0.95358992,0.16908315,0
2.2421336,0.25101811,-2.9407117,0.91283631,0.17291641,-0.36990541,0
1.5951827,-1.3137331,-3.4688153,-0.32350087,-0.24650848,-0.91355407,0
-2.4579663,1.967886,-3.0287356,-0.24915338,0.95358992,-0.16908315,0
0.66047812,-2.6086352,1.3033371,0.24915338,-0.95358992,0.16908315,0
-1.5775677,2.299103,-2.1568859,-0.24915338,0.95358992,-0.16908315,0
2.1830089,0.27701521,2.6163816,0.32350087,0.24650848,0.91355407,0
0.73041552,0.49921107,2.8702731,0.32350087,0.24650848,0.91355407,0
3.3413639,-2.1707811,-0.25814867,0.24915338,-0.95358992,0.16908315,0
-0.14799249,-0.77741909,-2.9140339,-0.32350087,-0.24650848,-0.91355407,0
2.5580239,1.915218,-0.52056205,0.91283631,0.17291641,-0.36990541,0
1.2054827,-2.7032225,-3.1652956,-0.32350087,-0.24650848,-0.91355407,0
-3.5326521,0.57250476,-0.57228351,-0.91283631,-0.17291641,0.36990541,0
-0.88846588,2.9687848,2.6632102,0.32350087,0.24650848,0.91355407,0
3.8170009,-1.9162292,1.2454028,0.24915338,-0.95358992,0.16908315,0
3.0194271,2.9694328,1.1944839,0.32350087,0.24650848,0.91355407,0
4.0199041,-1.9030819,0.59611845,0.91283631,0.17291641,-0.36990541,0
-4.2750282,1.3631043,-1.9672966,-0.32350087,-0.24650848,-0.91355407,0
-2.7453997,-1.8514134,0.43166912,-0.91283631,-0.17291641,0.36990541,0
-0.27510571,1.4443364,3.1246943,0.32350087,0.24650848,0.91355407,0
-1.4828298,-2.055578,-2.324472,-0.32350087,-0.24650848,-0.91355407,0
-2.2336023,-3.0937493,0.61470586,-0.91283631,-0.17291641,0.36990541,0
-3.3854458,-1.1362956,-1.2541964,-0.91283631,-0.17291641,0.36990541,0
-1.0622466,2.1398585,-3.5090873,-0.32350087,-0.24650848,-0.91355407,0
-1.5684004,0.86000347,-2.7563164,-0.32350087,-0.24650848,-0.91355407,0
3.3928452,1.8330936,1.6918755,0.32350087,0.24650848,0.91355407,0
-0.5836786,-2.6072564,3.9377937,0.24915338,-0.95358992,0.16908315,0
1.8283238,3.3930483,-1.1431606,-0.24915338,0.95358992,-0.16908315,0
0.64865953,0.57961059,-3.5657802,-0.32350087,-0.24650848,-0.91355407,0
-0.19857407,3.0605893,0.42643672,-0.24915338,0.95358992,-0.16908315,0
3.1468015,2.243495,0.58116138,0.91283631,0.17291641,-0.36990541,0
-2.9897411,0.93359691,1.2686069,-0.91283631,-0.17291641,0.36990541,0
3.3219063,2.3091128,1.6471553,0.32350087,0.24650848,0.91355407,0
-2.6523635,0.44877464,1.8845656,-0.91283631,-0.17291641,0.36990541,0
2.4898386,-1.8160477,-3.3004637,0.91283631,0.17291641,-0.36990541,0
-0.12545395,-0.17570758,3.4347825,0.32350087,0.24650848,0.91355407,0
2.302597,-2.2752774,2.0506072,0.24915338,-0.95358992,0.16908315,0
3.064254,-1.7552571,2.4206123,0.24915338,-0.95358992,0.16908315,0
1.2409908,1.9546957,-4.1783695,0.91283631,0.17291641,-0.36990541,0
-0.14513326,2.5101705,2.5933931,0.32350087,0.24650848,0.91355407,0
-1.4109354,2.1279325,-3.0708017,-0.24915338,0.95358992,-0.16908315,0
-3.0642819,-2.8909035,-1.4197761,-0.32350087,-0.24650848,-0.91355407,0
-0.5521245,-2.7471564,1.9012492,0.24915338,-0.95358992,0.16908315,0
3.1256065,3.0763166,1.2353671,0.32350087,0.24650848,0.91355407,0
0.067361832,-1.9190257,-2.8984399,-0.32350087,-0.24650848,-0.91355407,0
-3.051188,-2.3392,-1.5806181,-0.32350087,-0.24650848,-0.91355407,0
-0.80199456,3.0571587,0.19485021,-0.24915338,0.95358992,-0.16908315,0
-0.45243144,-1.7263062,-2.5807929,-0.32350087,-0.24650848,-0.91355407,0
0.34586906,-3.1336787,-0.29456055,0.24915338,-0.95358992,0.16908315,0
-1.7337363,1.1285026,-2.8856969,-0.32350087,-0.24650848,-0.91355407,0
-3.214669,0.99504948,0.21210575,-0.91283631,-0.17291641,0.36990541,0
-0.68141866,-0.70853567,-2.7302587,-0.32350087,-0.24650848,-0.91355407,0
-2.9767535,0.67378533,1.3231444,-0.91283631,-0.17291641,0.36990541,0
1.5856301,0.22565317,2.5247591,0.32350087,0.24650848,0.91355407,0
-0.11573505,2.8285723,-2.1636024,-0.24915338,0.95358992,-0.16908315,0
-2.0977051,-1.5598178,1.8335309,-0.91283631,-0.17291641,0.36990541,0
-1.2881761,-3.7464418,-1.6608443,-0.32350087,-0.24650848,-0.91355407,0
-0.97935915,3.0320415,0.36666596,-0.24915338,0.95358992,-0.16908315,0
-2.6886747,2.8381453,1.4680879,-0.24915338,0.95358992,-0.16908315,0
-0.53732252,-1.4144912,-2.534368,-0.32350087,-0.24650848,-0.91355407,0
-1.8577962,-3.0774271,-1.9114339,-0.32350087,-0.24650848,-0.91355407,0
0.30014098,-0.59881568,-3.3189487,-0.32350087,-0.24650848,-0.91355407,0
-4.112958,2.003093,-0.84435773,-0.91283631,-0.17291641,0.36990541,0
2.0972841,-2.7859373,-3.4502337,-0.32350087,-0.24650848,-0.91355407,0
0.57060003,-2.5497289,2.5535994,0.24915338,-0.95358992,0.16908315,0
-2.062721,-3.7280762,-0.83007622,0.24915338,-0.95358992,0.16908315,0
-1.6070266,-1.9714093,3.575151,-0.91283631,-0.17291641,0.36990541,0
-1.6639962,-3.7431874,-0.77910918,0.24915338,-0.95358992,0.16908315,0
-0.32250452,3.2680614,1.76511,-0.24915338,0.95358992,-0.16908315,0
-2.8906755,-1.2148665,0.26925635,-0.91283631,-0.17291641,0.36990541,0
2.4631262,3.2556024,-0.27486336,0.91283631,0.17291641,-0.36990541,0
-1.3998064,1.1638104,3.2808442,0.32350087,0.24650848,0.91355407,0
-2.2185662,0.33339247,2.2616351,-0.91283631,-0.17291641,0.36990541,0
3.8763876,-0.60293031,1.231662,0.91283631,0.17291641,-0.36990541,0
-4.5150328,1.4510674,-1.8919322,-0.91283631,-0.17291641,0.36990541,0
-3.6004305,1.8482354,-2.6016798,-0.32350087,-0.24650848,-0.91355407,0
-1.2433336,-2.4475291,3.4275322,-0.91283631,-0.17291641,0.36990541,0
-2.5245395,0.82550144,-2.8065147,-0.32350087,-0.24650848,-0.91355407,0
1.8134862,0.0075803995,-3.7072828,0.91283631,0.17291641,-0.36990541,0
3.0856822,-0.18930924,-0.53677487,0.91283631,0.17291641,-0.36990541,0
-2.2757878,-1.9984382,1.2877346,-0.91283631,-0.17291641,0.36990541,0
1.2106211,-3.0976579,-1.0958557,0.24915338,-0.95358992,0.16908315,0
2.8445876,-1.6629879,-1.731813,0.91283631,0.17291641,-0.36990541,0
0.4948166,0.76497436,-3.4736662,-0.32350087,-0.24650848,-0.91355407,0
-0.19269836,2.3759201,-4.0418644,-0.32350087,-0.24650848,-0.91355407,0
3.3395038,2.9272392,1.3250626,0.32350087,0.24650848,0.91355407,0
-1.5632746,-3.6110806,0.33491367,0.24915338,-0.95358992,0.16908315,0
3.1570413,0.077288151,0.0035245419,0.91283631,0.17291641,-0.36990541,0
0.032456875,3.3165846,0.80312574,-0.24915338,0.95358992,-0.16908315,0
-0.029311657,3.4530368,1.5289308,-0.24915338,0.95358992,-0.16908315,0
-2.7044878,1.7285177,2.4326177,-0.91283631,-0.17291641,0.36990541,0
2.1546021,0.29807281,2.3885169,0.32350087,0.24650848,0.91355407,0
2.2520182,1.5648961,-2.2660708,0.91283631,0.17291641,-0.36990541,0
-0.21635723,1.2514393,-3.4920552,-0.32350087,-0.24650848,-0.91355407,0
1.1677115,-3.2464261,-1.3990687,0.24915338,-0.95358992,0.16908315,0
-3.4217851,0.62508631,-2.1033463,-0.32350087,-0.24650848,-0.91355407,0
1.9468195,1.5825201,-2.6942058,0.91283631,0.17291641,-0.36990541,0
-2.2958746,1.472742,3.1586061,-0.91283631,-0.17291641,0.36990541,0
2.0480375,-0.49847651,2.7389629,0.32350087,0.24650848,0.91355407,0
1.4189028,-2.0854676,3.3968329,0.24915338,-0.95358992,0.16908315,0
-2.3859429,2.3995457,-1.0420141,-0.24915338,0.95358992,-0.16908315,0
-2.2849901,2.2481771,-2.3533406,-0.24915338,0.95358992,-0.16908315,0
-0.96914005,2.5081921,-1.5383213,-0.24915338,0.95358992,-0.16908315,0
3.288039,-1.1515272,-0.20103788,0.91283631,0.17291641,-0.36990541,0
-3.7557607,-0.12037921,-0.71175814,-0.91283631,-0.17291641,0.36990541,0
-1.2335091,-2.7774243,-2.2230182,-0.32350087,-0.24650848,-0.91355407,0
-4.187254,0.4714756,-1.8710911,-0.91283631,-0.17291641,0.36990541,0
2.5796938,2.2089729,-0.47610855,0.91283631,0.17291641,-0.36990541,0
-1.9834473,-3.7247744,0.057338655,0.24915338,-0.95358992,0.16908315,0
-3.415154,0.15478325,-1.9252188,-0.32350087,-0.24650848,-0.91355407,0
1.7158993,0.070134163,2.720804,0.32350087,0.24650848,0.91355407,0
3.8408837,-1.9355183,0.74686193,0.24915338,-0.95358992,0.16908315,0
2.6131783,-1.9691343,2.5253818,0.24915338,-0.95358992,0.16908315,0
1.3098284,2.9149909,-2.6598639,-0.24915338,0.95358992,-0.16908315,0
0.98251152,-2.509151,2.3473754,0.24915338,-0.95358992,0.16908315,0
-1.0482599,-2.9293573,3.659162,0.24915338,-0.95358992,0.16908315,0
-0.81232762,2.9473705,0.44467306,-0.24915338,0.95358992,-0.16908315,0
1.8621061,-2.6250525,0.75495851,0.24915338,-0.95358992,0.16908315,0
-0.90511453,-0.78690028,3.7916052,0.32350087,0.24650848,0.91355407,0
4.0365839,-1.7486103,0.91915846,0.91283631,0.17291641,-0.36990541,0
1.5023959,-2.2903068,2.3210242,0.24915338,-0.95358992,0.16908315,0
-3.1981094,0.061694384,0.39784527,-0.91283631,-0.17291641,0.36990541,0
2.5877993,-3.0526199,-2.6293902,0.24915338,-0.95358992,0.16908315,0
-0.032135963,2.6831217,-2.1703403,-0.24915338,0.95358992,-0.16908315,0
-3.9154716,0.53206444,-1.4501877,-0.91283631,-0.17291641,0.36990541,0
0.58362436,-2.8221195,1.0927986,0.24915338,-0.95358992,0.16908315,0
1.9233952,-2.0298245,3.1222415,0.32350087,0.24650848,0.91355407,0
-2.3873494,-0.58631057,1.96131,-0.91283631,-0.17291641,0.36990541,0
3.0118964,-2.0889289,2.4643624,0.24915338,-0.95358992,0.16908315,0
1.2088015,-2.8785505,-1.0327952,0.24915338,-0.95358992,0.16908315,0
0.6795131,-0.90450096,3.2132058,0.32350087,0.24650848,0.91355407,0
0.24919206,-0.7354207,3.3820491,0.32350087,0.24650848,0.91355407,0
-1.5516763,2.9752147,0.61384034,-0.24915338,0.95358992,-0.16908315,0
0.5401783,3.628037,1.7705802,-0.24915338,0.95358992,-0.16908315,0
1.2979287,-1.5884519,3.06513,0.32350087,0.24650848,0.91355407,0
2.5572519,3.7967782,0.45446229,-0.24915338,0.95358992,-0.16908315,0
-3.5414712,-1.7920392,-1.5086638,-0.32350087,-0.24650848,-0.91355407,0
-2.1142142,-3.7775421,-0.73501563,0.24915338,-0.95358992,0.16908315,0
-0.15023696,2.2727227,-3.8654478,-0.32350087,-0.24650848,-0.91355407,0
2.4869492,1.678403,-1.2553532,0.91283631,0.17291641,-0.36990541,0
-3.256696,1.3915892,0.6052525,-0.91283631,-0.17291641,0.36990541,0
0.19701195,-2.245873,3.7310429,0.32350087,0.24650848,0.91355407,0
3.3199995,1.9334919,1.2444623,0.91283631,0.17291641,-0.36990541,0
0.1908185,-0.91038775,3.4221616,0.32350087,0.24650848,0.91355407,0
-2.1641953,-3.5331411,0.067905366,0.24915338,-0.95358992,0.16908315,0
-2.1608431,2.7995613,3.3335104,0.32350087,0.24650848,0.91355407,0
0.9428525,2.8866849,-1.8158937,-0.24915338,0.95358992,-0.16908315,0
-0.75756168,-0.9443686,-2.5739589,-0.32350087,-0.24650848,-0.91355407,0
-4.1652055,0.81876087,-1.7556121,-0.91283631,-0.17291641,0.36990541,0
1.0274451,3.3627625,0.83601105,-0.24915338,0.95358992,-0.16908315,0
-1.1479018,2.7266397,0.16425121,-0.24915338,0.95358992,-0.16908315,0
-3.1228828,-0.1989367,0.2029705,-0.91283631,-0.17291641,0.36990541,0
1.2481598,2.4680257,-3.4016759,0.91283631,0.17291641,-0.36990541,0
-2.9679883,-1.9675151,-0.035860062,-0.91283631,-0.17291641,0.36990541,0
-2.9045184,-2.9296446,0.0038335323,-0.91283631,-0.17291641,0.36990541,0
0.072789431,-1.3423054,-2.9527695,-0.32350087,-0.24650848,-0.91355407,0
-2.712018,1.1296898,2.4025629,-0.91283631,-0.17291641,0.36990541,0
-2.1038949,2.8096271,1.3114696,-0.24915338,0.95358992,-0.16908315,0
-2.4749541,-1.0453899,1.5538607,-0.91283631,-0.17291641,0.36990541,0
-0.57953072,1.1668751,3.0561006,0.32350087,0.24650848,0.91355407,0
-2.6194959,0.73324585,2.3079259,-0.91283631,-0.17291641,0.36990541,0
-1.4906604,2.5474329,-1.660877,-0.24915338,0.95358992,-0.16908315,0
-3.4847233,-1.3834682,-1.8663665,-0.32350087,-0.24650848,-0.91355407,0
1.6101583,-2.3053565,1.1946441,0.24915338,-0.95358992,0.16908315,0
-0.27934563,-1.1364074,3.5582871,0.32350087,0.24650848,0.91355407,0
3.8111715,-0.43424177,0.93055272,0.91283631,0.17291641,-0.36990541,0
3.4867597,1.1704242,1.5216124,0.91283631,0.17291641,-0.36990541,0
-0.92501593,1.1131845,-3.1611638,-0.32350087,-0.24650848,-0.91355407,0
-0.90723014,-3.4553776,-1.2322736,0.24915338,-0.95358992,0.16908315,0
1.6211649,0.28248596,2.5755143,0.32350087,0.24650848,0.91355407,0
0.34597611,-3.2200596,-1.0972292,0.24915338,-0.95358992,0.16908315,0
1.9122955,-0.036580324,-3.7652321,0.91283631,0.17291641,-0.36990541,0
1.6375728,1.0283589,-3.8470273,0.91283631,0.17291641,-0.36990541,0
3.2227554,1.4475892,1.0245901,0.91283631,0.17291641,-0.36990541,0
-0.015357733,3.2739718,-0.39345616,-0.24915338,0.95358992,-0.16908315,0
-3.2739358,-0.10453892,-0.52889466,-0.91283631,-0.17291641,0.36990541,0
-0.50920367,-3.0546103,-2.1010718,-0.32350087,-0.24650848,-0.91355407,0
0.15910149,3.5116303,2.258038,-0.24915338,0.95358992,-0.16908315,0
1.1455634,-2.9202666,-2.875164,-0.32350087,-0.24650848,-0.91355407,0
2.8355339,3.7546539,0.47112989,0.91283631,0.17291641,-0.36990541,0
-2.9871206,-2.9450669,-1.5878048,-0.32350087,-0.24650848,-0.91355407,0
2.9918478,-1.6913805,2.8083,0.32350087,0.24650848,0.91355407,0
-0.5377503,-0.3500123,-3.1592574,-0.32350087,-0.24650848,-0.91355407,0
2.3957107,-0.1826328,-2.5715446,0.91283631,0.17291641,-0.36990541,0
-2.5758243,1.4848156,2.1351728,-0.91283631,-0.17291641,0.36990541,0
1.1668301,2.6536181,2.1149006,0.32350087,0.24650848,0.91355407,0
-2.2511683,-0.64047867,2.2539935,-0.91283631,-0.17291641,0.36990541,0
2.7900956,3.1745861,1.4610915,0.32350087,0.24650848,0.91355407,0
1.1771407,-3.0983315,-0.8600831,0.24915338,-0.95358992,0.16908315,0
3.4887881,-0.02101016,0.070521832,0.91283631,0.17291641,-0.36990541,0
-2.3473811,2.8901789,2.4575524,-0.24915338,0.95358992,-0.16908315,0
-1.1070384,-0.46031928,3.886538,0.32350087,0.24650848,0.91355407,0
-0.9445641,2.6455152,-1.1911038,-0.24915338,0.95358992,-0.16908315,0
1.9619932,2.1077142,-1.9230214,0.91283631,0.17291641,-0.36990541,0
2.4814534,-2.5468132,-0.19115591,0.24915338,-0.95358992,0.16908315,0
-0.42324716,-1.6353172,3.8919268,0.32350087,0.24650848,0.91355407,0
-2.1029212,-3.6628337,-1.7165538,-0.32350087,-0.24650848,-0.91355407,0
-2.711674,-2.6414132,-0.22066772,-0.91283631,-0.17291641,0.36990541,0
-2.1928518,2.8071136,3.2551513,0.32350087,0.24650848,0.91355407,0
2.31463,2.1587667,-1.1634436,0.91283631,0.17291641,-0.36990541,0
-1.6914971,-3.7963653,-0.36080042,0.24915338,-0.95358992,0.16908315,0
2.0685489,-2.4033716,1.1342205,0.24915338,-0.95358992,0.16908315,0
-0.9900955,2.4050174,-2.5499597,-0.24915338,0.95358992,-0.16908315,0
1.1864249,1.4150683,-4.0269089,-0.32350087,-0.24650848,-0.91355407,0
2.4384334,2.3870754,-0.82137585,0.91283631,0.17291641,-0.36990541,0
2.4502985,1.4091042,-1.1093254,0.91283631,0.17291641,-0.36990541,0
3.5777478,0.75756288,0.92424798,0.91283631,0.17291641,-0.36990541,0
2.7299292,1.9565184,1.9870114,0.32350087,0.24650848,0.91355407,0
2.0916772,0.85703599,-2.8881874,0.91283631,0.17291641,-0.36990541,0
-3.6247203,-0.89384246,-1.4597974,-0.91283631,-0.17291641,0.36990541,0
2.4211133,-2.8217034,-3.1594789,0.91283631,0.17291641,-0.36990541,0
0.7116375,-1.0890872,-3.244957,-0.32350087,-0.24650848,-0.91355407,0
-1.9749694,-3.8147752,-0.82305479,0.24915338,-0.95358992,0.16908315,0
2.6112947,1.0322971,-1.1141721,0.91283631,0.17291641,-0.36990541,0
1.9998968,-2.6950836,-3.0619345,-0.32350087,-0.24650848,-0.91355407,0
-1.4466274,2.6562819,-1.2158269,-0.24915338,0.95358992,-0.16908315,0
2.8226621,0.86135751,-1.2677333,0.91283631,0.17291641,-0.36990541,0
-3.4510999,2.1809442,-1.0921657,-0.24915338,0.95358992,-0.16908315,0
2.9490328,2.4634778,0.54103923,0.91283631,0.17291641,-0.36990541,0
-3.5712872,-0.073700905,-0.39291978,-0.91283631,-0.17291641,0.36990541,0
-1.2623093,1.6961095,-3.3535089,-0.32350087,-0.24650848,-0.91355407,0
-2.5553436,-2.7703104,0.15939462,-0.91283631,-0.17291641,0.36990541,0
-3.9751441,1.0407467,-2.2466271,-0.32350087,-0.24650848,-0.91355407,0
2.0943065,-0.86452305,-3.7777922,0.91283631,0.17291641,-0.36990541,0
2.4711759,-0.74867666,-2.0060301,0.91283631,0.17291641,-0.36990541,0
-0.31058908,-3.2344267,1.0676471,0.24915338,-0.95358992,0.16908315,0
-2.7406499,-0.22182727,1.160406,-0.91283631,-0.17291641,0.36990541,0
-0.045178503,0.60433531,-3.3085818,-0.32350087,-0.24650848,-0.91355407,0
-0.39969468,-1.9227784,-2.6541829,-0.32350087,-0.24650848,-0.91355407,0
0.27941346,2.8482804,-1.0541503,-0.24915338,0.95358992,-0.16908315,0
-4.1778793,0.93515778,-1.8921781,-0.91283631,-0.17291641,0.36990541,0
-2.787554,-3.4691229,-0.9156763,-0.91283631,-0.17291641,0.36990541,0
-1.6861718,-3.6401873,-1.5197864,-0.32350087,-0.24650848,-0.91355407,0
3.3290815,-0.13289928,0.40133023,0.91283631,0.17291641,-0.36990541,0
-3.2395229,2.011111,1.2389748,-0.91283631,-0.17291641,0.36990541,0
-0.077690125,-3.4490552,-1.2627847,0.24915338,-0.95358992,0.16908315,0
-2.7242434,-1.0809754,0.89819241,-0.91283631,-0.17291641,0.36990541,0
2.1166008,1.7952554,-1.8888328,0.91283631,0.17291641,-0.36990541,0
-3.2411151,-2.9797616,-1.2589796,-0.91283631,-0.17291641,0.36990541,0
-0.41035807,-0.64203882,-2.9353104,-0.32350087,-0.24650848,-0.91355407,0
-2.6406279,1.7210313,2.5607812,-0.91283631,-0.17291641,0.36990541,0
0.57887709,2.4010139,-4.172823,-0.32350087,-0.24650848,-0.91355407,0
0.32048947,-1.1458423,3.4235303,0.32350087,0.24650848,0.91355407,0
-4.1990776,1.7631898,-1.2414541,-0.91283631,-0.17291641,0.36990541,0
2.0022695,3.9255502,1.1719283,-0.24915338,0.95358992,-0.16908315,0
3.1483684,-0.46446002,-0.42155766,0.91283631,0.17291641,-0.36990541,0
-0.17950821,-3.2488902,-1.2257975,0.24915338,-0.95358992,0.16908315,0
1.9391431,-2.4074163,1.3134421,0.24915338,-0.95358992,0.16908315,0
-3.2035351,-3.4136832,-1.3041782,-0.91283631,-0.17291641,0.36990541,0
-2.3224239,2.1345389,-3.0023732,-0.24915338,0.95358992,-0.16908315,0
-2.3822978,2.5672319,-0.4834373,-0.24915338,0.95358992,-0.16908315,0
1.7157513,0.14343822,-3.5468271,0.91283631,0.17291641,-0.36990541,0
1.835669,-1.5234568,-3.6451221,-0.32350087,-0.24650848,-0.91355407,0
2.0891399,2.9204657,-1.8091679,0.91283631,0.17291641,-0.36990541,0
2.9135416,1.2768483,0.096387863,0.91283631,0.17291641,-0.36990541,0
0.8151021,2.4136112,2.3172297,0.32350087,0.24650848,0.91355407,0
1.4581791,2.6935601,-3.4921436,0.91283631,0.17291641,-0.36990541,0
-0.78150988,-2.6645827,-2.3734448,-0.32350087,-0.24650848,-0.91355407,0
3.6187692,-0.45072746,0.25501585,0.91283631,0.17291641,-0.36990541,0
