-4.3131242,-1.4979994,-1.8928695,-0.92202508,-0.169891,-0.34786034,0
3.8039994,0.85485268,4.3019104,0.92202508,0.169891,0.34786034,0
0.58884406,3.3584547,-1.3115767,0.19514328,0.57208693,-0.79664028,0
-2.6146526,1.9752899,-2.8336759,0.19514328,0.57208693,-0.79664028,0
-4.2891655,-0.05958581,2.6483407,-0.19514328,-0.57208693,0.79664028,0
-4.7902346,0.84382057,1.2993774,-0.33434829,0.802405,0.4943254,0
-2.3216991,2.6731267,-2.2230647,0.19514328,0.57208693,-0.79664028,0
-0.67377377,-3.6616566,-0.94111979,0.33434829,-0.802405,-0.4943254,0
4.8335042,-3.0461221,2.3280067,0.33434829,-0.802405,-0.4943254,0
-3.8387311,0.17580926,-4.5339413,-0.92202508,-0.169891,-0.34786034,0
-3.7186177,-2.7918556,-3.3325648,-0.92202508,-0.169891,-0.34786034,0
-3.3835797,3.0210085,-2.4404387,0.19514328,0.57208693,-0.79664028,0
4.7560892,0.42351851,1.4999118,0.92202508,0.169891,0.34786034,0
4.7692032,0.17332369,1.1797566,0.92202508,0.169891,0.34786034,0
-3.4826093,-1.7775922,-4.1483302,-0.92202508,-0.169891,-0.34786034,0
-3.9294729,-4.6628809,-0.39342427,-0.19514328,-0.57208693,0.79664028,0
1.7946134,-3.4010921,1.660522,-0.19514328,-0.57208693,0.79664028,0
4.9687729,-1.7627356,0.54461861,0.33434829,-0.802405,-0.4943254,0
-4.2381544,-2.6209638,-1.7812781,-0.92202508,-0.169891,-0.34786034,0
3.2778773,2.1684995,-1.4781053,0.19514328,0.57208693,-0.79664028,0
-4.404933,-3.2009683,-1.6627269,-0.92202508,-0.169891,-0.34786034,0
5.211247,-1.3140042,1.3956933,0.92202508,0.169891,0.34786034,0
-2.4639843,2.9001491,-2.1250582,0.19514328,0.57208693,-0.79664028,0
3.1665316,1.0415788,5.1979537,0.92202508,0.169891,0.34786034,0
2.988848,1.4168808,-2.1581309,0.19514328,0.57208693,-0.79664028,0
-2.2018347,-1.1735387,2.4035637,-0.19514328,-0.57208693,0.79664028,0
-0.68616247,-1.9248407,2.3158412,-0.19514328,-0.57208693,0.79664028,0
-1.8936498,2.7821207,-2.1683443,0.19514328,0.57208693,-0.79664028,0
-0.35056496,-3.386148,1.3919331,-0.19514328,-0.57208693,0.79664028,0
4.2279453,2.2558017,-0.97641158,0.19514328,0.57208693,-0.79664028,0
-2.0345995,-4.346776,0.2793535,-0.19514328,-0.57208693,0.79664028,0
-3.9962978,-0.34155047,-3.918982,-0.92202508,-0.169891,-0.34786034,0
-4.445796,-3.7353537,0.15589714,-0.19514328,-0.57208693,0.79664028,0
3.7625747,1.7142971,4.0329318,0.92202508,0.169891,0.34786034,0
-2.2884171,1.9610891,1.2019893,-0.33434829,0.802405,0.4943254,0
-4.0316095,-3.4106791,-1.781064,-0.92202508,-0.169891,-0.34786034,0
4.9721355,0.54725957,-2.2826023,0.19514328,0.57208693,-0.79664028,0
5.2961793,-2.3906884,1.4502316,0.33434829,-0.802405,-0.4943254,0
-5.4248753,-1.875134,0.4576273,-0.92202508,-0.169891,-0.34786034,0
3.960875,-0.030199528,4.4588432,0.92202508,0.169891,0.34786034,0
-5.7087603,-1.535291,1.234992,-0.92202508,-0.169891,-0.34786034,0
4.4285021,-1.2017094,3.3523502,0.92202508,0.169891,0.34786034,0
-4.3521605,-2.2485538,-1.2449942,-0.92202508,-0.169891,-0.34786034,0
2.6853364,-2.0247459,2.8316765,-0.19514328,-0.57208693,0.79664028,0
-0.52762055,-3.21332,1.5724578,-0.19514328,-0.57208693,0.79664028,0
1.9420154,-3.5364814,0.8665421,0.33434829,-0.802405,-0.4943254,0
1.6713438,2.1985772,-1.8388326,0.19514328,0.57208693,-0.79664028,0
4.8527017,0.95100778,1.2236958,0.92202508,0.169891,0.34786034,0
-5.9898157,0.13726044,1.2068229,-0.92202508,-0.169891,-0.34786034,0
-0.26578093,-2.0183895,2.0032361,-0.19514328,-0.57208693,0.79664028,0
3.4965434,-1.6721225,3.3177009,-0.19514328,-0.57208693,0.79664028,0
4.2614517,0.26985502,-2.488354,0.19514328,0.57208693,-0.79664028,0
2.4579732,-1.3089908,3.6089973,-0.19514328,-0.57208693,0.79664028,0
5.3076897,0.39646792,-2.1843665,0.19514328,0.57208693,-0.79664028,0
-1.4493335,-0.43573582,3.0091038,-0.19514328,-0.57208693,0.79664028,0
-4.0372581,-1.7276709,-3.0141225,-0.92202508,-0.169891,-0.34786034,0
-1.3332385,-1.0469517,2.623168,-0.19514328,-0.57208693,0.79664028,0
-2.1555278,-1.3590078,2.3334274,-0.19514328,-0.57208693,0.79664028,0
-3.6216211,-0.22419071,-4.6898065,-0.92202508,-0.169891,-0.34786034,0
-3.6357527,-1.2800043,-3.5476208,-0.92202508,-0.169891,-0.34786034,0
-5.0714025,-3.0268641,0.091323853,-0.92202508,-0.169891,-0.34786034,0
3.5049214,0.7856369,4.1453748,0.92202508,0.169891,0.34786034,0
3.5971868,-0.064203739,4.4573045,0.92202508,0.169891,0.34786034,0
-3.6263754,-2.2426245,-3.4976268,-0.92202508,-0.169891,-0.34786034,0
3.0829771,0.048458338,4.5317783,-0.19514328,-0.57208693,0.79664028,0
-4.899281,-1.9069002,-0.0969944,-0.92202508,-0.169891,-0.34786034,0
-4.8850479,-0.44132668,-0.8162694,-0.92202508,-0.169891,-0.34786034,0
-5.2798886,0.99948168,-0.89292669,-0.92202508,-0.169891,-0.34786034,0
2.4388785,4.1453314,1.3412488,-0.33434829,0.802405,0.4943254,0
0.2146616,-3.2671883,1.3517728,-0.19514328,-0.57208693,0.79664028,0
-1.9616928,-0.91934252,-4.9771414,0.19514328,0.57208693,-0.79664028,0
3.6201487,0.78987503,4.1762443,0.92202508,0.169891,0.34786034,0
3.7829242,-1.172524,-1.4610667,0.33434829,-0.802405,-0.4943254,0
-4.6990933,1.2057403,-2.3474407,-0.92202508,-0.169891,-0.34786034,0
-4.8515096,1.6607802,-2.4385004,-0.92202508,-0.169891,-0.34786034,0
0.73422933,-1.7200494,-2.6699657,0.33434829,-0.802405,-0.4943254,0
4.9504404,-1.6756999,2.3518548,0.92202508,0.169891,0.34786034,0
-2.944989,-2.3528726,-4.0215659,0.33434829,-0.802405,-0.4943254,0
4.7269082,-2.5644524,1.3268781,0.33434829,-0.802405,-0.4943254,0
-5.1658049,2.6687644,-1.8982902,-0.33434829,0.802405,0.4943254,0
0.83883536,1.7977104,3.6736193,-0.33434829,0.802405,0.4943254,0
-2.910084,-3.4164791,0.6826731,-0.19514328,-0.57208693,0.79664028,0
-4.5296173,-1.7975671,1.3403041,-0.19514328,-0.57208693,0.79664028,0
0.4419961,-1.9756696,2.2526255,-0.19514328,-0.57208693,0.79664028,0
-0.8594811,-3.7973714,-0.86724293,0.33434829,-0.802405,-0.4943254,0
-0.082749128,2.8960137,-1.9019296,0.19514328,0.57208693,-0.79664028,0
5.6011133,-0.10875285,0.076170921,0.92202508,0.169891,0.34786034,0
0.31659532,-1.9460744,2.4777369,-0.19514328,-0.57208693,0.79664028,0
-0.64584851,-1.2048821,-4.8580017,0.33434829,-0.802405,-0.4943254,0
-0.80876946,-0.87262726,-4.5987577,0.19514328,0.57208693,-0.79664028,0
-4.6526308,-3.5680752,0.1083765,-0.19514328,-0.57208693,0.79664028,0
-4.5617361,-3.8084126,-0.80603647,-0.92202508,-0.169891,-0.34786034,0
-4.2338371,1.1509013,-3.8034229,-0.92202508,-0.169891,-0.34786034,0
1.1497263,-0.96591496,-4.0879416,0.33434829,-0.802405,-0.4943254,0
4.714931,2.19453,0.81874084,0.92202508,0.169891,0.34786034,0
2.708324,3.8146,-0.47006321,0.19514328,0.57208693,-0.79664028,0
-4.9798374,0.41981077,2.0578456,-0.33434829,0.802405,0.4943254,0
2.281357,-3.1513605,1.8323638,-0.19514328,-0.57208693,0.79664028,0
0.034573793,-1.8354273,-3.0957441,0.33434829,-0.802405,-0.4943254,0
0.55345774,3.6415133,0.29030919,-0.33434829,0.802405,0.4943254,0
5.3188295,-0.66018462,0.67593861,0.92202508,0.169891,0.34786034,0
4.0264616,-0.8415373,3.5641541,0.92202508,0.169891,0.34786034,0
-4.3082304,-1.2502729,1.6207526,-0.19514328,-0.57208693,0.79664028,0
4.5690002,2.3062823,0.67563868,0.92202508,0.169891,0.34786034,0
-1.4594328,1.7463279,-2.6834369,0.19514328,0.57208693,-0.79664028,0
3.9478741,4.3008509,1.8359432,-0.33434829,0.802405,0.4943254,0
1.0495112,3.929987,0.72774637,-0.33434829,0.802405,0.4943254,0
-4.5946865,0.18306398,-2.4975324,-0.92202508,-0.169891,-0.34786034,0
-1.1817412,0.13756156,3.6220114,-0.19514328,-0.57208693,0.79664028,0
-2.9199154,3.3136458,-1.8534338,0.19514328,0.57208693,-0.79664028,0
-4.2456522,-4.6810465,-0.64547729,-0.92202508,-0.169891,-0.34786034,0
4.2074862,3.3528666,1.8881874,0.92202508,0.169891,0.34786034,0
-3.7964466,-4.4460626,-0.40957856,-0.19514328,-0.57208693,0.79664028,0
-1.1280413,1.8177725,-2.8751426,0.19514328,0.57208693,-0.79664028,0
4.2617154,4.5650153,0.33403778,0.19514328,0.57208693,-0.79664028,0
3.1532111,1.5174968,-1.6642568,0.19514328,0.57208693,-0.79664028,0
0.33187556,-1.4238062,-3.9131269,0.33434829,-0.802405,-0.4943254,0
-4.6286263,-0.72337645,2.0249133,-0.19514328,-0.57208693,0.79664028,0
-2.890481,0.57363915,2.9196343,-0.33434829,0.802405,0.4943254,0
-1.3390608,3.8067305,-1.3552511,-0.33434829,0.802405,0.4943254,0
1.6349003,-3.7496865,1.5013559,0.33434829,-0.802405,-0.4943254,0
4.4087162,0.90225327,2.3957777,0.92202508,0.169891,0.34786034,0
4.8736706,1.2709638,1.0820551,0.92202508,0.169891,0.34786034,0
2.2222223,2.0637126,-1.7495558,0.19514328,0.57208693,-0.79664028,0
2.0736833,2.1016498,4.4524822,-0.33434829,0.802405,0.4943254,0
-5.8222103,-0.073928118,1.5566947,-0.92202508,-0.169891,-0.34786034,0
0.81279373,1.5446672,-2.500381,0.19514328,0.57208693,-0.79664028,0
-5.9896402,0.00507164,1.7138069,-0.92202508,-0.169891,-0.34786034,0
-3.339463,-2.4777167,1.3685038,-0.19514328,-0.57208693,0.79664028,0
3.8594255,0.082188129,4.2688613,0.92202508,0.169891,0.34786034,0
1.9901209,-0.56277561,-3.6912692,0.19514328,0.57208693,-0.79664028,0
-4.5762005,0.82512021,-2.8990512,-0.92202508,-0.169891,-0.34786034,0
-1.8353001,-3.4328122,-2.0333126,0.33434829,-0.802405,-0.4943254,0
5.1233821,1.8147349,-1.2728536,0.19514328,0.57208693,-0.79664028,0
4.075995,-0.24589777,-2.7643399,0.19514328,0.57208693,-0.79664028,0
-3.8375762,3.1355965,-1.5050297,-0.33434829,0.802405,0.4943254,0
2.7366617,-0.29787183,-3.1294696,0.19514328,0.57208693,-0.79664028,0
-5.0757995,1.2448556,-0.98157835,-0.92202508,-0.169891,-0.34786034,0
-1.2344902,-3.916712,0.79629982,-0.19514328,-0.57208693,0.79664028,0
0.0018208027,-0.64404213,3.2756977,-0.19514328,-0.57208693,0.79664028,0
0.26950085,-1.2480419,-4.1846085,0.33434829,-0.802405,-0.4943254,0
-3.1716452,-0.0065765381,-4.3672872,0.19514328,0.57208693,-0.79664028,0
4.9177232,0.78853631,0.73091555,0.92202508,0.169891,0.34786034,0
-0.017287254,1.6988713,-2.6806591,0.19514328,0.57208693,-0.79664028,0
-0.92477798,0.90622282,3.8977137,-0.33434829,0.802405,0.4943254,0
-4.7823553,0.33175111,2.4559093,-0.33434829,0.802405,0.4943254,0
1.5118964,-3.4493046,0.76811361,0.33434829,-0.802405,-0.4943254,0
5.0343885,-2.0348291,2.367022,0.92202508,0.169891,0.34786034,0
-0.8443296,-3.0733116,-1.3222506,0.33434829,-0.802405,-0.4943254,0
-0.61012912,1.5269277,2.9503665,-0.33434829,0.802405,0.4943254,0
2.9102407,1.8952837,5.3391919,-0.33434829,0.802405,0.4943254,0
1.0719459,-3.9438879,1.3412369,-0.19514328,-0.57208693,0.79664028,0
-2.6913824,-3.4827018,0.7078526,-0.19514328,-0.57208693,0.79664028,0
2.3008657,-1.9898717,-1.1952052,0.33434829,-0.802405,-0.4943254,0
4.8683419,-0.69468915,1.8280368,0.92202508,0.169891,0.34786034,0
0.79171813,-1.2436047,-3.8850319,0.33434829,-0.802405,-0.4943254,0
-4.0531731,-0.35198057,-3.347805,-0.92202508,-0.169891,-0.34786034,0
3.8973489,-2.3451369,0.21806169,0.33434829,-0.802405,-0.4943254,0
3.367641,1.9694574,4.5421553,0.92202508,0.169891,0.34786034,0
-0.90156555,-1.4937561,-4.558259,0.33434829,-0.802405,-0.4943254,0
3.1452925,-0.98558211,-2.5940938,0.33434829,-0.802405,-0.4943254,0
2.9680862,1.8800597,4.7576571,-0.33434829,0.802405,0.4943254,0
-0.33066082,-0.037914991,3.6371489,-0.19514328,-0.57208693,0.79664028,0
-5.0772605,0.33148164,-1.2747407,-0.92202508,-0.169891,-0.34786034,0
4.4276085,-0.94625175,3.1395001,0.92202508,0.169891,0.34786034,0
0.58767319,0.44317341,4.442018,-0.19514328,-0.57208693,0.79664028,0
1.6121194,-0.039829969,4.1797967,-0.19514328,-0.57208693,0.79664028,0
3.3578775,-1.4526861,-1.1489114,0.33434829,-0.802405,-0.4943254,0
3.6237659,-2.940191,1.3423679,0.33434829,-0.802405,-0.4943254,0
0.48674846,-3.0018392,1.716782,-0.19514328,-0.57208693,0.79664028,0
2.2850776,-0.10848927,-3.1785688,0.19514328,0.57208693,-0.79664028,0
0.25418568,-3.2187314,-0.84197831,0.33434829,-0.802405,-0.4943254,0
1.0417209,3.5978255,-1.1432002,0.19514328,0.57208693,-0.79664028,0
-3.8811231,-0.14741707,-4.5497618,-0.92202508,-0.169891,-0.34786034,0
4.628437,-1.7813721,2.511837,0.92202508,0.169891,0.34786034,0
-1.6850512,0.22807801,-3.8727815,0.19514328,0.57208693,-0.79664028,0
3.4384825,2.3443291,3.8393612,0.92202508,0.169891,0.34786034,0
-2.7208552,0.17418694,-4.1618509,0.19514328,0.57208693,-0.79664028,0
-2.1050541,-4.2856941,-0.82656956,0.33434829,-0.802405,-0.4943254,0
4.1689892,0.35873938,-2.3230073,0.19514328,0.57208693,-0.79664028,0
-1.3543042,-0.034977198,3.2311988,-0.19514328,-0.57208693,0.79664028,0
-2.8511453,-4.2581801,-0.045015335,-0.19514328,-0.57208693,0.79664028,0
1.6089789,0.32844055,-2.9983029,0.19514328,0.57208693,-0.79664028,0
-4.8305373,1.5485089,-1.8166232,-0.92202508,-0.169891,-0.34786034,0
-4.5270071,-2.7561557,0.87331796,-0.19514328,-0.57208693,0.79664028,0
4.7728434,1.8560157,0.39832449,0.92202508,0.169891,0.34786034,0
-4.4483938,-3.0850096,-1.284955,-0.92202508,-0.169891,-0.34786034,0
4.0917034,-0.072256565,3.6616859,0.92202508,0.169891,0.34786034,0
4.1328025,2.4240563,-0.91229844,0.19514328,0.57208693,-0.79664028,0
-1.8457866,-3.5060263,-1.5766199,0.33434829,-0.802405,-0.4943254,0
0.86460733,2.20699,2.7690544,-0.33434829,0.802405,0.4943254,0
3.4244082,-2.6070495,2.6357803,-0.19514328,-0.57208693,0.79664028,0
-5.8064947,0.013115168,1.0002217,-0.92202508,-0.169891,-0.34786034,0
-4.3529177,1.7615533,-3.4922757,0.19514328,0.57208693,-0.79664028,0
-0.43755007,-0.79538441,-4.389102,0.19514328,0.57208693,-0.79664028,0
-4.0129209,-0.10165358,-3.6083326,-0.92202508,-0.169891,-0.34786034,0
4.4183502,3.2647829,0.68578959,0.92202508,0.169891,0.34786034,0
-2.9041958,-1.4231019,-5.3627172,0.19514328,0.57208693,-0.79664028,0
-5.0592422,-2.4044456,0.67423987,-0.92202508,-0.169891,-0.34786034,0
4.3308225,4.6954055,0.81435537,0.92202508,0.169891,0.34786034,0
1.7851799,2.0994065,3.968044,-0.33434829,0.802405,0.4943254,0
3.8081846,-0.64649391,4.3639288,-0.19514328,-0.57208693,0.79664028,0
5.0395284,1.2116792,0.64885855,0.92202508,0.169891,0.34786034,0
0.95896852,3.4528878,1.1758022,-0.33434829,0.802405,0.4943254,0
-1.7036455,-2.0484378,1.6747872,-0.19514328,-0.57208693,0.79664028,0
3.8994737,1.8203583,3.0717936,0.92202508,0.169891,0.34786034,0
-4.3477397,-4.6683431,-0.66124725,-0.19514328,-0.57208693,0.79664028,0
-5.1508379,-0.69981039,-0.12395144,-0.92202508,-0.169891,-0.34786034,0
5.6562834,-1.0673043,0.031770706,0.92202508,0.169891,0.34786034,0
-5.3699021,0.75716901,1.5346234,-0.33434829,0.802405,0.4943254,0
-4.396172,-2.6323323,-1.6564569,-0.92202508,-0.169891,-0.34786034,0
-4.7509365,-2.6734276,-0.874578,-0.92202508,-0.169891,-0.34786034,0
3.5953579,-2.800096,2.8003812,-0.19514328,-0.57208693,0.79664028,0
4.6056333,2.7700806,-0.60603666,0.19514328,0.57208693,-0.79664028,0
0.15045463,-2.1238739,-2.1946466,0.33434829,-0.802405,-0.4943254,0
5.6074209,-1.1469958,-0.21617317,0.33434829,-0.802405,-0.4943254,0
5.4153438,-1.4323426,0.51414347,0.92202508,0.169891,0.34786034,0
-0.94486803,2.5010889,1.1667744,-0.33434829,0.802405,0.4943254,0
-0.54591483,1.5152006,3.1455631,-0.33434829,0.802405,0.4943254,0
-1.3860922,1.9080794,-2.7896023,0.19514328,0.57208693,-0.79664028,0
0.023988724,-0.074302673,3.8201671,-0.19514328,-0.57208693,0.79664028,0
-5.4406824,1.105557,-0.8911171,-0.92202508,-0.169891,-0.34786034,0
1.6833297,1.0160332,-2.4461184,0.19514328,0.57208693,-0.79664028,0
1.7953044,-2.9885056,-0.35452461,0.33434829,-0.802405,-0.4943254,0
2.2876043,-0.76802349,-3.3232536,0.33434829,-0.802405,-0.4943254,0
-1.6528668,-0.41639233,-4.4743967,0.19514328,0.57208693,-0.79664028,0
0.13202941,1.6062524,3.8706841,-0.33434829,0.802405,0.4943254,0
5.2563863,0.82038033,0.16178513,0.92202508,0.169891,0.34786034,0
-2.3703358,3.5000122,-1.6142778,0.19514328,0.57208693,-0.79664028,0
-0.54742956,2.5029249,-2.0893407,0.19514328,0.57208693,-0.79664028,0
5.861042,1.2081426,-1.6380682,0.19514328,0.57208693,-0.79664028,0
0.95351839,-1.3247389,3.2870336,-0.19514328,-0.57208693,0.79664028,0
-4.8289747,1.8788306,-1.9489684,-0.92202508,-0.169891,-0.34786034,0
3.5572977,4.9678497,0.79097104,-0.33434829,0.802405,0.4943254,0
-3.7811487,-4.7358227,-0.99013567,0.33434829,-0.802405,-0.4943254,0
-4.7363415,-0.23286223,-2.0000963,-0.92202508,-0.169891,-0.34786034,0
3.1429288,-3.0236745,1.2378838,0.33434829,-0.802405,-0.4943254,0
-1.6232171,2.7420225,-2.0662174,0.19514328,0.57208693,-0.79664028,0
-2.4208188,-1.1533618,-5.0999436,0.19514328,0.57208693,-0.79664028,0
3.1617863,2.0575562,4.8894753,0.92202508,0.169891,0.34786034,0
3.6681206,1.5073879,3.7340417,0.92202508,0.169891,0.34786034,0
-1.6455374,-0.22572088,-4.5639529,0.19514328,0.57208693,-0.79664028,0
-5.0130124,1.014503,-1.0161681,-0.92202508,-0.169891,-0.34786034,0
-5.5652456,0.23199034,1.999161,-0.33434829,0.802405,0.4943254,0
-3.6539373,1.6117718,1.1032786,-0.33434829,0.802405,0.4943254,0
-4.7796278,1.8468411,-2.7976127,-0.92202508,-0.169891,-0.34786034,0
0.97873998,0.78349811,-2.9839425,0.19514328,0.57208693,-0.79664028,0
-1.2531788,2.5667987,1.4504063,-0.33434829,0.802405,0.4943254,0
-4.8844628,-0.74237877,-1.4538474,-0.92202508,-0.169891,-0.34786034,0
3.5979724,0.8288703,4.3296924,0.92202508,0.169891,0.34786034,0
-1.1229508,-0.75279415,3.1718044,-0.19514328,-0.57208693,0.79664028,0
1.9620404,1.6064594,4.6598377,-0.33434829,0.802405,0.4943254,0
0.85337293,1.5863373,3.8235385,-0.33434829,0.802405,0.4943254,0
-4.2562685,-1.9979026,-2.1682825,-0.92202508,-0.169891,-0.34786034,0
-0.35175574,-3.2823603,-0.78291452,0.33434829,-0.802405,-0.4943254,0
0.28433633,0.51221204,4.1342525,-0.19514328,-0.57208693,0.79664028,0
-3.5802205,-0.85212517,-4.4256935,-0.92202508,-0.169891,-0.34786034,0
-4.5506253,-2.3908463,-1.0610642,-0.92202508,-0.169891,-0.34786034,0
-4.5867691,-4.4783182,-0.53561926,-0.92202508,-0.169891,-0.34786034,0
-4.8792224,1.4915547,-2.1412168,-0.92202508,-0.169891,-0.34786034,0
-1.7965406,-1.431426,2.162231,-0.19514328,-0.57208693,0.79664028,0
-2.1181381,3.0388346,-1.9825842,0.19514328,0.57208693,-0.79664028,0
2.5972452,2.3781106,3.944118,-0.33434829,0.802405,0.4943254,0
2.2379255,1.3197062,5.1796694,-0.19514328,-0.57208693,0.79664028,0
-5.4659648,-1.4393061,0.64874935,-0.92202508,-0.169891,-0.34786034,0
4.3258266,-3.1965609,2.3289242,-0.19514328,-0.57208693,0.79664028,0
2.2599521,-3.1854529,0.67141294,0.33434829,-0.802405,-0.4943254,0
-4.0870981,-4.2004995,-1.4655709,-0.92202508,-0.169891,-0.34786034,0
-1.4376488,1.5024548,2.286921,-0.33434829,0.802405,0.4943254,0
5.4568524,-0.73679781,0.40537119,0.92202508,0.169891,0.34786034,0
2.5303624,1.0225993,-2.211628,0.19514328,0.57208693,-0.79664028,0
-5.4046774,-0.53859407,-0.028719425,-0.92202508,-0.169891,-0.34786034,0
-3.4391203,-1.4060478,-4.4637399,-0.92202508,-0.169891,-0.34786034,0
-4.2862077,-1.5541816,-2.4369373,-0.92202508,-0.169891,-0.34786034,0
1.0824776,0.9653883,4.5409861,-0.19514328,-0.57208693,0.79664028,0
-5.2276568,-0.035728425,-0.92293835,-0.92202508,-0.169891,-0.34786034,0
4.4515371,0.93313032,-2.2198234,0.19514328,0.57208693,-0.79664028,0
5.02631,0.39422661,0.46713018,0.92202508,0.169891,0.34786034,0
4.4715185,1.3313178,1.9568553,0.92202508,0.169891,0.34786034,0
0.9159925,0.83036965,-2.9520111,0.19514328,0.57208693,-0.79664028,0
4.4985857,2.5162506,0.75575304,0.92202508,0.169891,0.34786034,0
-3.3005571,-0.052164078,2.9637699,-0.19514328,-0.57208693,0.79664028,0
5.1999812,0.2222085,0.38675594,0.92202508,0.169891,0.34786034,0
-6.0480103,-0.50650215,1.5837374,-0.92202508,-0.169891,-0.34786034,0
5.2550344,2.669292,-0.2887826,0.92202508,0.169891,0.34786034,0
-1.5390377,-2.3442152,-2.927362,0.33434829,-0.802405,-0.4943254,0
1.470138,2.2590485,3.2183316,-0.33434829,0.802405,0.4943254,0
-1.5483444,-0.96114826,-4.983531,0.19514328,0.57208693,-0.79664028,0
4.9746566,2.3085699,-0.87175584,0.19514328,0.57208693,-0.79664028,0
-3.3319633,1.1187315,2.226897,-0.33434829,0.802405,0.4943254,0
-4.8482361,0.63164616,1.7878914,-0.33434829,0.802405,0.4943254,0
3.6115286,1.3831609,-2.0929184,0.19514328,0.57208693,-0.79664028,0
-2.0938807,-2.3788991,-3.5811453,0.33434829,-0.802405,-0.4943254,0
4.2536659,3.5802433,0.95930958,0.92202508,0.169891,0.34786034,0
5.4295702,-1.4230306,0.12616873,0.33434829,-0.802405,-0.4943254,0
2.1729507,-0.75840831,-3.32568,0.33434829,-0.802405,-0.4943254,0
4.3680329,-0.55801773,3.4425335,0.92202508,0.169891,0.34786034,0
-4.4204416,0.74835014,2.2116737,-0.33434829,0.802405,0.4943254,0
5.2730041,-0.37609434,-2.1725776,0.33434829,-0.802405,-0.4943254,0
-4.822958,1.4039717,0.26817131,-0.33434829,0.802405,0.4943254,0
2.8813734,-0.62977207,3.9263711,-0.19514328,-0.57208693,0.79664028,0
-3.1756792,0.78153801,2.4966764,-0.33434829,0.802405,0.4943254,0
-4.9125142,-0.70441103,2.2394874,-0.19514328,-0.57208693,0.79664028,0
-4.4317279,-1.9292916,1.2895458,-0.19514328,-0.57208693,0.79664028,0
2.4269803,-1.383199,3.2032692,-0.19514328,-0.57208693,0.79664028,0
4.9315271,2.3085043,0.44803905,0.92202508,0.169891,0.34786034,0
-5.1309633,-1.7888038,0.53823709,-0.92202508,-0.169891,-0.34786034,0
1.2575133,2.9977558,1.9068569,-0.33434829,0.802405,0.4943254,0
-5.9168792,-0.30824494,1.2814889,-0.92202508,-0.169891,-0.34786034,0
3.9126463,2.3516185,2.5298705,0.92202508,0.169891,0.34786034,0
-2.0684857,-1.0866498,2.6559241,-0.19514328,-0.57208693,0.79664028,0
-5.5839939,-1.1205813,0.97177362,-0.92202508,-0.169891,-0.34786034,0
-5.7041492,1.1061109,-0.057531834,-0.92202508,-0.169891,-0.34786034,0
-4.2086473,0.68897533,1.7113084,-0.33434829,0.802405,0.4943254,0
-2.8697519,-3.0200136,-2.8345654,0.33434829,-0.802405,-0.4943254,0
4.941957,1.8931203,-0.20426512,0.92202508,0.169891,0.34786034,0
3.6316612,2.9714031,3.3717561,0.92202508,0.169891,0.34786034,0
-4.0951643,-3.6286435,-1.4612303,-0.92202508,-0.169891,-0.34786034,0
-0.72478437,-0.88408136,2.796169,-0.19514328,-0.57208693,0.79664028,0
-4.243216,3.030169,-2.4580288,0.19514328,0.57208693,-0.79664028,0
5.9202247,-1.247942,-0.15240097,0.92202508,0.169891,0.34786034,0
-5.1277018,-1.3078508,-0.40927744,-0.92202508,-0.169891,-0.34786034,0
-4.1981649,2.2133605,-3.1156788,0.19514328,0.57208693,-0.79664028,0
5.1940174,-0.47571778,1.2646489,0.92202508,0.169891,0.34786034,0
4.1555023,2.5438478,2.6112461,0.92202508,0.169891,0.34786034,0
-0.71607637,-3.8407016,0.015221655,0.33434829,-0.802405,-0.4943254,0
-4.7849302,-3.6922812,-0.21484423,-0.92202508,-0.169891,-0.34786034,0
5.5633416,-1.628686,0.076293945,0.33434829,-0.802405,-0.4943254,0
-3.5196381,-3.4714797,-2.7798896,0.33434829,-0.802405,-0.4943254,0
-1.4171572,-1.2366204,-4.8441219,0.19514328,0.57208693,-0.79664028,0
-0.64236808,-4.1542196,0.16105285,0.33434829,-0.802405,-0.4943254,0
4.559063,-1.5033741,2.6625409,0.92202508,0.169891,0.34786034,0
1.4551516,4.407258,-0.26208365,-0.33434829,0.802405,0.4943254,0
-0.40044761,-3.4923368,1.1944895,-0.19514328,-0.57208693,0.79664028,0
-3.0511498,-2.4938178,-4.4384365,0.33434829,-0.802405,-0.4943254,0
0.97884536,-3.2139699,0.14680344,0.33434829,-0.802405,-0.4943254,0
1.6303477,-1.1706047,3.5135326,-0.19514328,-0.57208693,0.79664028,0
-4.61377,-0.46554661,-1.4916911,-0.92202508,-0.169891,-0.34786034,0
-3.2738485,-1.5561664,-5.1510205,-0.92202508,-0.169891,-0.34786034,0
-0.85844815,1.0395479,3.7305689,-0.33434829,0.802405,0.4943254,0
0.46777189,-1.9322679,-2.455107,0.33434829,-0.802405,-0.4943254,0
3.9535289,3.1443379,2.1308379,0.92202508,0.169891,0.34786034,0
3.8320577,-1.4116352,-1.5766131,0.33434829,-0.802405,-0.4943254,0
4.4097686,-0.010481209,2.2196479,0.92202508,0.169891,0.34786034,0
-4.3033972,2.3684828,-2.9890304,0.19514328,0.57208693,-0.79664028,0
2.2046537,-0.93815756,3.7908013,-0.19514328,-0.57208693,0.79664028,0
1.64045,1.9498987,4.1815667,-0.33434829,0.802405,0.4943254,0
-0.24149799,-0.50913215,-4.3705773,0.19514328,0.57208693,-0.79664028,0
2.845535,1.1753778,5.5011563,-0.19514328,-0.57208693,0.79664028,0
1.0889183,-0.61756611,-4.1126003,0.33434829,-0.802405,-0.4943254,0
3.689585,-2.5178971,2.7569036,-0.19514328,-0.57208693,0.79664028,0
-4.2052488,0.098874688,-3.6487179,-0.92202508,-0.169891,-0.34786034,0
-1.0431223,-2.7809935,-2.1046858,0.33434829,-0.802405,-0.4943254,0
-1.7508101,-3.8341231,0.50410366,-0.19514328,-0.57208693,0.79664028,0
-3.6484485,3.3090212,-2.1424389,-0.33434829,0.802405,0.4943254,0
-4.9802575,-2.3934278,0.92357492,-0.19514328,-0.57208693,0.79664028,0
-4.3816719,1.277998,0.84533167,-0.33434829,0.802405,0.4943254,0
2.188544,1.3321307,4.9956856,-0.33434829,0.802405,0.4943254,0
1.4124475,3.1903949,2.0341823,-0.33434829,0.802405,0.4943254,0
3.754302,-2.7159472,0.64230871,0.33434829,-0.802405,-0.4943254,0
5.3392467,1.9889208,-1.1332321,0.92202508,0.169891,0.34786034,0
-4.7983084,2.2684512,-3.2789984,-0.92202508,-0.169891,-0.34786034,0
-5.7074842,0.53313208,0.94087887,-0.33434829,0.802405,0.4943254,0
-1.5275867,-1.3086338,2.6374013,-0.19514328,-0.57208693,0.79664028,0
2.9049101,-0.46106708,4.1288509,-0.19514328,-0.57208693,0.79664028,0
-4.2428002,-3.6590989,-0.94908905,-0.92202508,-0.169891,-0.34786034,0
2.8026965,4.2718658,0.96711659,-0.33434829,0.802405,0.4943254,0
5.2280602,1.9109226,-0.51121664,0.92202508,0.169891,0.34786034,0
-4.0555954,2.1566565,-3.3615561,0.19514328,0.57208693,-0.79664028,0
-2.7836623,-3.2589719,0.63948488,-0.19514328,-0.57208693,0.79664028,0
4.5302286,-0.20374894,-2.50317,0.33434829,-0.802405,-0.4943254,0
3.7225301,2.5940118,3.0493174,0.92202508,0.169891,0.34786034,0
4.2250524,-0.80423176,2.9987221,0.92202508,0.169891,0.34786034,0
3.3130093,-1.4396935,-1.4806349,0.33434829,-0.802405,-0.4943254,0
-0.62486231,1.1056843,3.5922484,-0.33434829,0.802405,0.4943254,0
-0.58120632,-3.1038792,-1.7034154,0.33434829,-0.802405,-0.4943254,0
-4.8010473,-0.24695814,-1.1929388,-0.92202508,-0.169891,-0.34786034,0
0.19159722,-0.66025782,3.4853153,-0.19514328,-0.57208693,0.79664028,0
-1.4444053,1.4062412,2.8742235,-0.33434829,0.802405,0.4943254,0
2.1131489,1.193274,5.1219716,-0.19514328,-0.57208693,0.79664028,0
-4.3228445,1.6030209,-3.3052144,-0.92202508,-0.169891,-0.34786034,0
-0.22401011,-2.8908131,-1.4218559,0.33434829,-0.802405,-0.4943254,0
4.3640628,-3.1127546,2.469368,-0.19514328,-0.57208693,0.79664028,0
2.666888,2.4655707,-1.1176575,0.19514328,0.57208693,-0.79664028,0
-2.2100811,3.6532564,-1.3727331,-0.33434829,0.802405,0.4943254,0
-5.1991429,1.8469226,-1.6866422,-0.92202508,-0.169891,-0.34786034,0
-5.5268979,0.69957876,-0.022346973,-0.92202508,-0.169891,-0.34786034,0
-0.99386656,0.83090281,3.8342416,-0.33434829,0.802405,0.4943254,0
3.1313725,2.6059763,4.0535107,-0.33434829,0.802405,0.4943254,0
-4.2639337,1.5394912,0.6601212,-0.33434829,0.802405,0.4943254,0
4.3016467,2.0186431,-1.4658897,0.19514328,0.57208693,-0.79664028,0
2.1589611,2.7258861,3.0900548,-0.33434829,0.802405,0.4943254,0
5.0141802,-0.55282956,1.3390579,0.92202508,0.169891,0.34786034,0
-2.5298002,1.2482666,-3.3393896,0.19514328,0.57208693,-0.79664028,0
-1.8836881,2.9349909,0.18598795,-0.33434829,0.802405,0.4943254,0
-2.3858635,3.2903838,-1.9358268,0.19514328,0.57208693,-0.79664028,0
3.257704,3.5293519,2.7372332,-0.33434829,0.802405,0.4943254,0
-5.1963282,-2.0871165,0.86970758,-0.19514328,-0.57208693,0.79664028,0
-4.3852296,-3.8595815,-0.96729946,-0.92202508,-0.169891,-0.34786034,0
3.1512778,-2.1344922,-0.33489275,0.33434829,-0.802405,-0.4943254,0
4.9951234,0.59523529,0.60778856,0.92202508,0.169891,0.34786034,0
0.48605204,0.42993999,4.1864657,-0.19514328,-0.57208693,0.79664028,0
-4.0000153,1.4845934,-3.4595957,0.19514328,0.57208693,-0.79664028,0
3.6040404,2.6459954,3.6518931,0.92202508,0.169891,0.34786034,0
5.7371473,0.32093883,-0.57118082,0.92202508,0.169891,0.34786034,0
-2.9580176,3.16993,-1.2526605,-0.33434829,0.802405,0.4943254,0
-2.9239445,-4.218008,-1.3640814,0.33434829,-0.802405,-0.4943254,0
-0.30692482,-1.7813766,-3.6592917,0.33434829,-0.802405,-0.4943254,0
3.7717805,1.6480756,3.3412175,0.92202508,0.169891,0.34786034,0
4.7982183,0.8467769,1.4956636,0.92202508,0.169891,0.34786034,0
-5.3654008,0.6947974,-0.92130661,-0.92202508,-0.169891,-0.34786034,0
2.3854771,1.5607843,5.1857128,-0.33434829,0.802405,0.4943254,0
4.6591768,0.50676972,1.9125056,0.92202508,0.169891,0.34786034,0
-2.9323311,-0.47392905,2.6549444,-0.19514328,-0.57208693,0.79664028,0
-3.4367135,1.7637432,-3.5011854,0.19514328,0.57208693,-0.79664028,0
4.7861338,-1.2867265,-0.84850788,0.33434829,-0.802405,-0.4943254,0
2.9154947,2.4545038,3.6561906,-0.33434829,0.802405,0.4943254,0
-4.6628089,3.0555792,-2.0458941,-0.33434829,0.802405,0.4943254,0
-4.1061716,0.34972727,-3.8080359,-0.92202508,-0.169891,-0.34786034,0
-3.1957607,-2.1275935,-4.7928519,-0.92202508,-0.169891,-0.34786034,0
-5.1616325,1.7010306,-1.7881751,-0.92202508,-0.169891,-0.34786034,0
4.4251747,-2.9224594,1.8282647,0.33434829,-0.802405,-0.4943254,0
-5.8868055,0.56586409,0.95114756,-0.92202508,-0.169891,-0.34786034,0
0.37201762,-2.2750378,2.4631362,-0.19514328,-0.57208693,0.79664028,0
-4.4870653,-3.2667115,-0.7043767,-0.92202508,-0.169891,-0.34786034,0
3.39713,-0.70403415,4.2523851,-0.19514328,-0.57208693,0.79664028,0
3.8860948,1.7174908,-1.3326275,0.19514328,0.57208693,-0.79664028,0
-1.0534956,-2.9484811,-2.1145067,0.33434829,-0.802405,-0.4943254,0
4.033803,-3.0215468,1.8444457,0.33434829,-0.802405,-0.4943254,0
-0.27561116,3.563318,0.14136925,-0.33434829,0.802405,0.4943254,0
-3.4566424,-2.5630214,1.3121142,-0.19514328,-0.57208693,0.79664028,0
-4.7355032,-0.086123824,-2.0072446,-0.92202508,-0.169891,-0.34786034,0
-5.0577288,1.2670715,-1.9744687,-0.92202508,-0.169891,-0.34786034,0
5.5459914,-1.7455044,0.96024942,0.92202508,0.169891,0.34786034,0
-3.561451,1.7716858,-3.5329132,0.19514328,0.57208693,-0.79664028,0
-4.2330227,2.8923697,-1.8528857,-0.33434829,0.802405,0.4943254,0
1.9408695,4.4011116,0.00054657459,0.19514328,0.57208693,-0.79664028,0
-3.8783195,0.37255824,-4.1632671,-0.92202508,-0.169891,-0.34786034,0
-3.7720513,-1.2581105,1.7202467,-0.19514328,-0.57208693,0.79664028,0
0.72010481,-1.6484668,-2.9535148,0.33434829,-0.802405,-0.4943254,0
2.0917895,-1.4241738,-2.6153226,0.33434829,-0.802405,-0.4943254,0
-4.6321211,-0.063083351,-2.2839074,-0.92202508,-0.169891,-0.34786034,0
-2.008188,3.1965206,-0.86645675,-0.33434829,0.802405,0.4943254,0
1.0234034,-3.8038814,1.1523637,-0.19514328,-0.57208693,0.79664028,0
5.3497796,2.24524,-0.39861917,0.92202508,0.169891,0.34786034,0
-4.6253166,1.0082688,1.2769995,-0.33434829,0.802405,0.4943254,0
-4.9265904,-0.58548492,-0.77803087,-0.92202508,-0.169891,-0.34786034,0
4.4279079,-1.697885,0.085040569,0.33434829,-0.802405,-0.4943254,0
3.4308052,4.5165215,0.88813329,-0.33434829,0.802405,0.4943254,0
-2.588809,0.099558115,-4.3045692,0.19514328,0.57208693,-0.79664028,0
-5.6404076,0.5721606,0.1782341,-0.92202508,-0.169891,-0.34786034,0
4.4032917,-1.9157721,3.5021315,-0.19514328,-0.57208693,0.79664028,0
-5.9771852,-0.03958869,1.9436002,-0.33434829,0.802405,0.4943254,0
-3.426352,1.1714976,-3.5225344,0.19514328,0.57208693,-0.79664028,0
2.1382773,1.9410634,-2.0151563,0.19514328,0.57208693,-0.79664028,0
-3.693953,-3.1283643,-3.4350686,-0.92202508,-0.169891,-0.34786034,0
-0.41991782,-4.080987,0.8298673,-0.19514328,-0.57208693,0.79664028,0
4.5694528,-1.2001326,3.0623274,0.92202508,0.169891,0.34786034,0
5.7224045,0.99015385,-1.1138449,0.92202508,0.169891,0.34786034,0
-2.5738008,-0.96754026,-5.1496634,0.19514328,0.57208693,-0.79664028,0
0.72048092,2.5825131,-1.5835869,0.19514328,0.57208693,-0.79664028,0
4.0078416,1.2340165,2.9157796,0.92202508,0.169891,0.34786034,0
-2.004328,-2.8936982,-2.5227895,0.33434829,-0.802405,-0.4943254,0
-2.1356268,3.8152666,-1.6890645,-0.33434829,0.802405,0.4943254,0
1.3547583,-0.45471358,-3.6022334,0.19514328,0.57208693,-0.79664028,0
0.21934223,0.065210581,-3.6964729,0.19514328,0.57208693,-0.79664028,0
2.9738269,1.4087553,5.6108289,0.92202508,0.169891,0.34786034,0
4.6602988,0.76766908,-2.1878724,0.19514328,0.57208693,-0.79664028,0
2.7215774,-1.1616666,-2.5430274,0.33434829,-0.802405,-0.4943254,0
-4.3171744,-4.6430101,-0.66493225,-0.92202508,-0.169891,-0.34786034,0
0.94041717,1.9634607,3.2142701,-0.33434829,0.802405,0.4943254,0
3.3404686,0.65201414,-2.6465402,0.19514328,0.57208693,-0.79664028,0
-1.4516213,-4.061471,0.42411339,-0.19514328,-0.57208693,0.79664028,0
1.2286537,0.50568748,4.480279,-0.19514328,-0.57208693,0.79664028,0
-5.5413141,-0.73313773,1.9422953,-0.19514328,-0.57208693,0.79664028,0
0.58530283,-3.9751496,1.0237827,0.33434829,-0.802405,-0.4943254,0
3.1198821,4.5667887,0.192101,0.19514328,0.57208693,-0.79664028,0
4.8650546,-2.3843677,0.69128466,0.33434829,-0.802405,-0.4943254,0
-3.4688656,3.5571525,-2.2136569,0.19514328,0.57208693,-0.79664028,0
1.0556211,4.034802,0.457515,-0.33434829,0.802405,0.4943254,0
-3.1112597,3.1409469,-2.2117341,0.19514328,0.57208693,-0.79664028,0
3.5706134,3.9524229,2.1915464,-0.33434829,0.802405,0.4943254,0
4.5321584,3.5396285,0.95236349,0.92202508,0.169891,0.34786034,0
2.2018466,-2.3114474,2.5761926,-0.19514328,-0.57208693,0.79664028,0
-0.058424711,2.8388298,-1.5510521,0.19514328,0.57208693,-0.79664028,0
-3.442596,3.3545797,-1.5251846,-0.33434829,0.802405,0.4943254,0
4.793417,-2.1742539,3.1695304,0.92202508,0.169891,0.34786034,0
4.1996512,4.9218054,1.2723088,0.92202508,0.169891,0.34786034,0
-3.127337,-3.7146072,0.46548057,-0.19514328,-0.57208693,0.79664028,0
4.5078893,-0.71073294,2.6069236,0.92202508,0.169891,0.34786034,0
-0.34397268,2.8170066,-2.0532641,0.19514328,0.57208693,-0.79664028,0
-3.9280066,-2.0425119,-3.2321467,-0.92202508,-0.169891,-0.34786034,0
-3.9547939,-0.45220971,-3.8454065,-0.92202508,-0.169891,-0.34786034,0
4.5194454,1.3621123,1.3062034,0.92202508,0.169891,0.34786034,0
4.0524445,3.6640251,1.8796453,0.92202508,0.169891,0.34786034,0
-3.2368848,-0.73188317,2.6532769,-0.19514328,-0.57208693,0.79664028,0
2.5606196,3.7714362,-0.55403185,0.19514328,0.57208693,-0.79664028,0
3.3425412,-0.70663786,-2.9837027,0.33434829,-0.802405,-0.4943254,0
2.0968959,-0.91512132,-3.4549005,0.33434829,-0.802405,-0.4943254,0
-5.5875359,-0.57269061,2.1365786,-0.19514328,-0.57208693,0.79664028,0
2.7035151,1.6526246,-1.8570406,0.19514328,0.57208693,-0.79664028,0
-2.6565716,2.3398511,0.62074566,-0.33434829,0.802405,0.4943254,0
-0.1955595,-1.9231577,-3.4261301,0.33434829,-0.802405,-0.4943254,0
-4.2253137,-0.40859389,-2.8390527,-0.92202508,-0.169891,-0.34786034,0
-1.6251073,0.88256216,3.7574925,-0.33434829,0.802405,0.4943254,0
4.1764565,4.2868958,0.90975618,0.92202508,0.169891,0.34786034,0
3.9445109,0.81868792,3.3442836,0.92202508,0.169891,0.34786034,0
0.54624581,3.1048255,-1.3687881,0.19514328,0.57208693,-0.79664028,0
2.653966,0.75822568,4.9487805,-0.19514328,-0.57208693,0.79664028,0
-5.9077349,-0.19725537,1.6340811,-0.92202508,-0.169891,-0.34786034,0
3.6481524,1.6560242,3.9500012,0.92202508,0.169891,0.34786034,0
-2.5697668,-2.7008212,1.3829055,-0.19514328,-0.57208693,0.79664028,0
0.7005555,-2.8989513,-1.175474,0.33434829,-0.802405,-0.4943254,0
-3.3347435,-1.5189557,-4.6633515,-0.92202508,-0.169891,-0.34786034,0
1.2537752,-3.0712364,-0.38895506,0.33434829,-0.802405,-0.4943254,0
1.7646523,1.1698083,-2.3586125,0.19514328,0.57208693,-0.79664028,0
3.8290563,2.0905299,2.7987089,0.92202508,0.169891,0.34786034,0
4.1268907,1.4183543,3.1723857,0.92202508,0.169891,0.34786034,0
5.3642726,-2.4945116,1.540731,0.92202508,0.169891,0.34786034,0
5.1001511,0.72686386,0.70103884,0.92202508,0.169891,0.34786034,0
-3.7918167,-3.294389,-2.8426538,-0.92202508,-0.169891,-0.34786034,0
-5.6775994,0.57699466,0.21490812,-0.92202508,-0.169891,-0.34786034,0
3.6078086,2.9887002,3.2127914,0.92202508,0.169891,0.34786034,0
-2.1277661,0.14381194,-4.0747504,0.19514328,0.57208693,-0.79664028,0
0.65832102,3.797601,0.26154459,-0.33434829,0.802405,0.4943254,0
3.4968777,-2.120868,-0.43829846,0.33434829,-0.802405,-0.4943254,0
3.3454421,-1.8353741,-0.93151176,0.33434829,-0.802405,-0.4943254,0
-1.0055255,-1.9620427,1.9055541,-0.19514328,-0.57208693,0.79664028,0
-3.9617217,-4.8360062,-0.73707819,0.33434829,-0.802405,-0.4943254,0
1.1696093,-3.5766478,1.5139768,-0.19514328,-0.57208693,0.79664028,0
1.4963802,-1.289613,-2.8500915,0.33434829,-0.802405,-0.4943254,0
-3.9349563,-2.2241957,-2.7636437,-0.92202508,-0.169891,-0.34786034,0
-4.5691071,-3.2369127,0.46156454,-0.19514328,-0.57208693,0.79664028,0
-2.1609237,3.4371505,-1.8126099,0.19514328,0.57208693,-0.79664028,0
5.6657047,-1.2739841,0.39892817,0.92202508,0.169891,0.34786034,0
-5.3953714,0.55136561,1.4769282,-0.33434829,0.802405,0.4943254,0
-3.5229421,-1.0342507,-4.6199045,-0.92202508,-0.169891,-0.34786034,0
-5.776742,-0.83188206,1.0450916,-0.92202508,-0.169891,-0.34786034,0
-3.6254392,3.0885131,-1.2340612,-0.33434829,0.802405,0.4943254,0
-2.3536742,2.0049753,-2.9541457,0.19514328,0.57208693,-0.79664028,0
-2.7962518,-3.7863524,-1.5833185,0.33434829,-0.802405,-0.4943254,0
0.89586687,-0.797912,3.255578,-0.19514328,-0.57208693,0.79664028,0
-2.1716309,0.028749704,-4.3295641,0.19514328,0.57208693,-0.79664028,0
4.3470726,4.2500801,0.50233078,0.19514328,0.57208693,-0.79664028,0
-1.9644085,-1.8148439,2.1126575,-0.19514328,-0.57208693,0.79664028,0
-0.34520316,-0.075803995,-4.0795813,0.19514328,0.57208693,-0.79664028,0
4.0757561,2.0014448,2.4313464,0.92202508,0.169891,0.34786034,0
0.68950009,-2.4895344,2.2899685,-0.19514328,-0.57208693,0.79664028,0
-1.7776179,2.6528692,0.2658391,-0.33434829,0.802405,0.4943254,0
-3.6923163,1.7826673,-3.3294802,0.19514328,0.57208693,-0.79664028,0
-3.8829038,-2.2480958,-2.788394,-0.92202508,-0.169891,-0.34786034,0
-3.128475,-2.9489617,0.83147371,-0.19514328,-0.57208693,0.79664028,0
-3.1775255,-2.867568,0.85799122,-0.19514328,-0.57208693,0.79664028,0
-4.026988,0.99340892,1.6072887,-0.33434829,0.802405,0.4943254,0
-5.259923,-2.2029073,1.1067197,-0.19514328,-0.57208693,0.79664028,0
2.9349394,3.5924406,2.6127901,-0.33434829,0.802405,0.4943254,0
3.7476478,1.8765404,3.6516304,0.92202508,0.169891,0.34786034,0
5.1056719,-2.8770387,1.7902904,0.33434829,-0.802405,-0.4943254,0
3.5370922,4.7621212,0.55278087,-0.33434829,0.802405,0.4943254,0
3.7081861,-3.1142609,2.4044666,-0.19514328,-0.57208693,0.79664028,0
4.0238328,-0.66567284,4.0724006,0.92202508,0.169891,0.34786034,0
4.7393432,-1.6475549,2.3197446,0.92202508,0.169891,0.34786034,0
-5.354125,1.2542439,0.48285055,-0.33434829,0.802405,0.4943254,0
-2.710494,-2.4394569,1.5676079,-0.19514328,-0.57208693,0.79664028,0
1.1747818,4.1481819,-0.6992166,0.19514328,0.57208693,-0.79664028,0
-4.4821858,0.39708227,-2.4758778,-0.92202508,-0.169891,-0.34786034,0
1.1272433,-2.0705314,-1.832958,0.33434829,-0.802405,-0.4943254,0
2.6076732,3.0336554,2.7474561,-0.33434829,0.802405,0.4943254,0
3.2220912,3.7856309,1.8870707,-0.33434829,0.802405,0.4943254,0
-4.2387004,-1.1381695,-2.2755947,-0.92202508,-0.169891,-0.34786034,0
-5.6418533,-1.3152361,1.5751188,-0.19514328,-0.57208693,0.79664028,0
-1.3967471,1.0837123,3.2287865,-0.33434829,0.802405,0.4943254,0
2.8132553,-0.47840977,-3.102169,0.33434829,-0.802405,-0.4943254,0
-1.9239023,-4.2783742,-0.70632482,0.33434829,-0.802405,-0.4943254,0
3.3794827,4.6863518,0.3771596,0.19514328,0.57208693,-0.79664028,0
-3.1994369,-1.7453561,1.5757768,-0.19514328,-0.57208693,0.79664028,0
-0.39001536,1.5550265,3.5048847,-0.33434829,0.802405,0.4943254,0
6.2516522,-0.076702356,-1.9715247,0.33434829,-0.802405,-0.4943254,0
0.96915174,0.069942236,4.1762123,-0.19514328,-0.57208693,0.79664028,0
4.2730541,-1.2057898,-1.0040865,0.33434829,-0.802405,-0.4943254,0
1.8514636,1.3432178,4.8422966,-0.33434829,0.802405,0.4943254,0
5.8074946,-1.1012309,-0.12098122,0.92202508,0.169891,0.34786034,0
-5.1330762,2.0369625,-2.2986841,-0.92202508,-0.169891,-0.34786034,0
-5.1272702,1.2772348,-1.7468185,-0.92202508,-0.169891,-0.34786034,0
-0.066510439,3.358768,0.46185738,-0.33434829,0.802405,0.4943254,0
-3.5586643,0.030344486,2.9187067,-0.19514328,-0.57208693,0.79664028,0
-5.1554418,1.473901,-1.9271922,-0.92202508,-0.169891,-0.34786034,0
4.9803658,-0.13419378,0.72190332,0.92202508,0.169891,0.34786034,0
-0.520051,0.91865969,-3.3285947,0.19514328,0.57208693,-0.79664028,0
2.2367802,-2.0576508,-0.91341245,0.33434829,-0.802405,-0.4943254,0
3.6721313,-1.1106389,3.9722342,-0.19514328,-0.57208693,0.79664028,0
-5.8441992,0.20722854,0.79293251,-0.92202508,-0.169891,-0.34786034,0
3.6869843,0.27238154,-2.7776186,0.19514328,0.57208693,-0.79664028,0
3.2593386,-0.47898889,-3.2178283,0.19514328,0.57208693,-0.79664028,0
4.5400414,-1.5048504,2.6242127,0.92202508,0.169891,0.34786034,0
0.32289922,2.9428341,1.1500924,-0.33434829,0.802405,0.4943254,0
-1.5844851,3.2674649,-0.61310053,-0.33434829,0.802405,0.4943254,0
4.6735582,-2.6269593,2.9587464,-0.19514328,-0.57208693,0.79664028,0
-0.92582989,1.6427183,2.7230175,-0.33434829,0.802405,0.4943254,0
-4.8891563,-0.1573123,-1.2458615,-0.92202508,-0.169891,-0.34786034,0
-4.8321757,2.7684357,-2.3641853,-0.92202508,-0.169891,-0.34786034,0
-3.9212718,2.8502641,-1.2372251,-0.33434829,0.802405,0.4943254,0
5.381999,1.7978591,-0.39141941,0.92202508,0.169891,0.34786034,0
2.0077608,-0.99873829,-3.1810634,0.33434829,-0.802405,-0.4943254,0
4.7612667,1.4725913,1.3937755,0.92202508,0.169891,0.34786034,0
3.2646635,0.95732713,5.4055495,0.92202508,0.169891,0.34786034,0
1.5809875,2.8147402,2.5866883,-0.33434829,0.802405,0.4943254,0
-2.2238224,2.4362025,0.38359821,-0.33434829,0.802405,0.4943254,0
3.7140954,2.3910329,3.0800571,0.92202508,0.169891,0.34786034,0
-4.6660919,0.89004779,-2.6773777,-0.92202508,-0.169891,-0.34786034,0
-1.5613799,1.6402689,-3.048943,0.19514328,0.57208693,-0.79664028,0
2.4885416,-2.1326041,2.9792466,-0.19514328,-0.57208693,0.79664028,0
2.2993095,2.8732877,-1.2058442,0.19514328,0.57208693,-0.79664028,0
-1.1579767,0.95653224,3.3665345,-0.33434829,0.802405,0.4943254,0
-1.5348938,-1.8176751,-3.8728473,0.33434829,-0.802405,-0.4943254,0
-3.9930165,-1.0251628,-2.9633455,-0.92202508,-0.169891,-0.34786034,0
-2.7372549,-3.6297596,-2.0908935,0.33434829,-0.802405,-0.4943254,0
-3.8532672,-2.4780025,1.0885999,-0.19514328,-0.57208693,0.79664028,0
4.1341953,-0.76839417,3.7824454,0.92202508,0.169891,0.34786034,0
1.5387952,-2.539187,2.1612496,-0.19514328,-0.57208693,0.79664028,0
3.9942312,2.161171,-1.342896,0.19514328,0.57208693,-0.79664028,0
-2.0193477,-3.6187346,-1.7517796,0.33434829,-0.802405,-0.4943254,0
-3.2408328,-1.7359884,-4.4982219,-0.92202508,-0.169891,-0.34786034,0
4.6801071,-1.0890043,-1.3129344,0.33434829,-0.802405,-0.4943254,0
-3.6916361,-2.0529885,-3.7888455,-0.92202508,-0.169891,-0.34786034,0
1.9263439,-1.5241538,3.0476942,-0.19514328,-0.57208693,0.79664028,0
-2.1523724,-0.28704059,2.7968016,-0.19514328,-0.57208693,0.79664028,0
1.683648,2.436204,3.1892514,-0.33434829,0.802405,0.4943254,0
3.5600402,1.5132201,3.7292414,0.92202508,0.169891,0.34786034,0
-0.96821666,2.8611341,-1.9959062,0.19514328,0.57208693,-0.79664028,0
-0.6191783,-0.37434602,-4.1968255,0.19514328,0.57208693,-0.79664028,0
1.7735291,3.5047843,1.4386892,-0.33434829,0.802405,0.4943254,0
-4.7423401,-2.9821281,-0.033949375,-0.92202508,-0.169891,-0.34786034,0
-0.79595757,3.3384674,0.26227263,-0.33434829,0.802405,0.4943254,0
-5.7356234,-1.2640606,1.4044011,-0.92202508,-0.169891,-0.34786034,0
4.6510153,2.6049061,0.26434278,0.92202508,0.169891,0.34786034,0
-0.57505441,-3.6183097,-0.74046606,0.33434829,-0.802405,-0.4943254,0
2.2309337,-2.2797997,-0.83712327,0.33434829,-0.802405,-0.4943254,0
-4.3150568,0.93319684,-3.6785188,-0.92202508,-0.169891,-0.34786034,0
-4.0528145,-0.087601185,2.8912184,-0.19514328,-0.57208693,0.79664028,0
1.2453814,-1.6743367,3.084156,-0.19514328,-0.57208693,0.79664028,0
-3.093518,-2.8513546,-3.8764548,0.33434829,-0.802405,-0.4943254,0
-5.37112,0.73439074,-0.62588024,-0.92202508,-0.169891,-0.34786034,0
-1.5161186,1.3042624,3.2724538,-0.33434829,0.802405,0.4943254,0
5.1003094,0.26180983,-2.5725887,0.19514328,0.57208693,-0.79664028,0
-3.4167771,-1.7093391,-4.427844,-0.92202508,-0.169891,-0.34786034,0
5.4658184,-0.39109588,-1.7742968,0.33434829,-0.802405,-0.4943254,0
-0.37853503,-2.022397,2.3922501,-0.19514328,-0.57208693,0.79664028,0
2.8905346,-0.80354309,-2.6850851,0.33434829,-0.802405,-0.4943254,0
1.5881062,1.6002831,-2.2120819,0.19514328,0.57208693,-0.79664028,0
1.2162337,4.1975021,-0.015635252,-0.33434829,0.802405,0.4943254,0
-6.0930185,-0.54988086,1.893023,-0.92202508,-0.169891,-0.34786034,0
2.543359,-0.5742628,3.8586431,-0.19514328,-0.57208693,0.79664028,0
5.3226948,-1.8026147,1.4233079,0.92202508,0.169891,0.34786034,0
5.8002086,0.88911963,-1.2654595,0.92202508,0.169891,0.34786034,0
2.6674094,-2.9585786,0.18033028,0.33434829,-0.802405,-0.4943254,0
-5.2032061,-0.40947282,2.3271451,-0.19514328,-0.57208693,0.79664028,0
-2.6674962,2.2356873,0.80992174,-0.33434829,0.802405,0.4943254,0
-1.8483169,1.4513214,2.4638205,-0.33434829,0.802405,0.4943254,0
1.6660933,1.8886602,4.298789,-0.33434829,0.802405,0.4943254,0
-3.4666162,-1.1963193,-4.9347134,-0.92202508,-0.169891,-0.34786034,0
-4.9413404,0.23441911,2.5346837,-0.33434829,0.802405,0.4943254,0
-2.2125561,3.1722085,-2.0156519,0.19514328,0.57208693,-0.79664028,0
-5.5843668,-0.5054552,0.39613771,-0.92202508,-0.169891,-0.34786034,0
-4.640739,-2.0664456,1.0732608,-0.19514328,-0.57208693,0.79664028,0
2.8574047,4.1983929,1.1502717,-0.33434829,0.802405,0.4943254,0
4.8933887,-2.8962715,1.8543229,0.33434829,-0.802405,-0.4943254,0
0.85830021,2.2484019,-2.0336552,0.19514328,0.57208693,-0.79664028,0
-3.9226639,2.0949624,-0.28377151,-0.33434829,0.802405,0.4943254,0
4.31671,0.24295884,2.28444,0.92202508,0.169891,0.34786034,0
-2.9814081,2.3829203,-2.5357475,0.19514328,0.57208693,-0.79664028,0
-4.7953472,-2.0439463,-0.20607424,-0.92202508,-0.169891,-0.34786034,0
-4.0594521,0.64287817,-3.7596965,-0.92202508,-0.169891,-0.34786034,0
5.0853662,-1.9112977,1.4796691,0.92202508,0.169891,0.34786034,0
4.8794961,-0.20919204,-2.492485,0.33434829,-0.802405,-0.4943254,0
-4.9902411,-0.47514945,-1.1563253,-0.92202508,-0.169891,-0.34786034,0
-4.6380548,-2.2687087,1.0064907,-0.19514328,-0.57208693,0.79664028,0
-3.1374006,3.1054761,-1.261229,-0.33434829,0.802405,0.4943254,0
-1.9416964,3.0799413,-1.9632843,0.19514328,0.57208693,-0.79664028,0
-3.4732175,-3.8178558,0.26115322,-0.19514328,-0.57208693,0.79664028,0
-4.7041559,1.6977594,0.50235701,-0.33434829,0.802405,0.4943254,0
-4.1747856,0.010199308,2.7580724,-0.19514328,-0.57208693,0.79664028,0
1.1250594,0.63000274,4.6704779,-0.19514328,-0.57208693,0.79664028,0
4.9548163,1.6194873,-1.2400959,0.19514328,0.57208693,-0.79664028,0
-5.6210747,-1.0934523,0.59059668,-0.92202508,-0.169891,-0.34786034,0
1.2285634,4.1760283,-0.14162445,-0.33434829,0.802405,0.4943254,0
-0.3552815,2.0521493,2.1911576,-0.33434829,0.802405,0.4943254,0
-5.7842674,0.40287542,1.06248,-0.92202508,-0.169891,-0.34786034,0
-3.5354617,-0.97997332,-4.941421,-0.92202508,-0.169891,-0.34786034,0
5.026906,-2.3236063,1.2943521,0.33434829,-0.802405,-0.4943254,0
1.1321317,0.65309387,-2.7710214,0.19514328,0.57208693,-0.79664028,0
5.3258877,0.97688615,-0.31821823,0.92202508,0.169891,0.34786034,0
-3.1696894,3.3175592,-2.2854893,0.19514328,0.57208693,-0.79664028,0
-5.8297415,-0.40112603,1.562212,-0.92202508,-0.169891,-0.34786034,0
0.90000951,-2.2462873,-1.6423757,0.33434829,-0.802405,-0.4943254,0
-0.37181878,3.9185638,-0.92556071,-0.33434829,0.802405,0.4943254,0
1.297363,2.8419194,-1.5469925,0.19514328,0.57208693,-0.79664028,0
-1.2727213,-0.42299986,-4.225966,0.19514328,0.57208693,-0.79664028,0
-3.880774,-2.5835683,-3.330276,-0.92202508,-0.169891,-0.34786034,0
4.0447526,-0.36215591,3.5494962,0.92202508,0.169891,0.34786034,0
4.6244545,-1.4742188,2.6256137,0.92202508,0.169891,0.34786034,0
6.0826569,0.11129832,-2.2058585,0.19514328,0.57208693,-0.79664028,0
-4.0938344,-4.2678771,-1.5041447,-0.92202508,-0.169891,-0.34786034,0
3.3033607,-2.0532274,2.9919872,-0.19514328,-0.57208693,0.79664028,0
-3.2739556,0.070661545,3.2100832,-0.19514328,-0.57208693,0.79664028,0
-1.2398412,-3.2881141,-1.9340864,0.33434829,-0.802405,-0.4943254,0
-0.69672704,-4.1244955,0.0657866,0.33434829,-0.802405,-0.4943254,0
-4.3082867,-0.1224705,-3.3010449,-0.92202508,-0.169891,-0.34786034,0
-1.4493032,-2.0859194,2.1206005,-0.19514328,-0.57208693,0.79664028,0
-3.447103,-4.2478442,-0.037968397,-0.19514328,-0.57208693,0.79664028,0
-3.9141841,-0.21111441,-4.0034571,-0.92202508,-0.169891,-0.34786034,0
-2.3081994,2.7012858,-0.2534833,-0.33434829,0.802405,0.4943254,0
4.6325312,-2.117274,0.26199198,0.33434829,-0.802405,-0.4943254,0
-4.6049342,0.54386485,-2.565845,-0.92202508,-0.169891,-0.34786034,0
-1.2862021,2.0755289,1.5912201,-0.33434829,0.802405,0.4943254,0
1.5384765,1.075826,-2.8252776,0.19514328,0.57208693,-0.79664028,0
0.22718501,1.1586149,-2.7243619,0.19514328,0.57208693,-0.79664028,0
