-1.6847944,4.9112163,-3.5515513,-0.69768989,0.31068936,-0.64552379,0
3.2210808,1.0715549,4.7912998,0.69768989,-0.31068936,0.64552379,0
1.4569838,-4.3312454,-1.4215326,0.65709376,-0.081448436,-0.74939579,0
-4.3795085,0.70750546,-2.4166515,-0.69768989,0.31068936,-0.64552379,0
4.4826622,3.6968255,0.49748945,0.2854062,0.94701546,0.14732635,0
3.7189245,-2.9299924,2.3557174,0.69768989,-0.31068936,0.64552379,0
-6.0528884,-2.601155,-2.5870762,-0.69768989,0.31068936,-0.64552379,0
-4.8248434,1.4995816,-2.1044126,-0.69768989,0.31068936,-0.64552379,0
2.9037402,-6.1239085,0.11498737,-0.2854062,-0.94701546,-0.14732635,0
-2.6093564,-0.97879374,1.4209352,-0.65709376,0.081448436,0.74939579,0
4.4188328,4.0385518,0.43680525,0.2854062,0.94701546,0.14732635,0
2.8698802,3.709343,3.5612426,0.2854062,0.94701546,0.14732635,0
-0.14257383,5.724227,-4.3296261,0.65709376,-0.081448436,-0.74939579,0
3.1741533,-0.44420773,3.9469774,0.69768989,-0.31068936,0.64552379,0
2.3558419,3.5980694,-1.776194,0.65709376,-0.081448436,-0.74939579,0
4.4257846,-0.66351724,2.3661849,0.69768989,-0.31068936,0.64552379,0
-1.9436059,3.1770067,-4.0056534,-0.69768989,0.31068936,-0.64552379,0
5.2775865,1.1591719,2.7766621,0.69768989,-0.31068936,0.64552379,0
-2.22317,0.083012104,1.4876665,-0.65709376,0.081448436,0.74939579,0
2.3618064,0.6381644,-1.1837666,0.65709376,-0.081448436,-0.74939579,0
4.5338359,3.8100109,1.2944393,0.2854062,0.94701546,0.14732635,0
1.8181484,4.2199407,3.8667302,0.2854062,0.94701546,0.14732635,0
-1.6916367,5.526722,0.84771109,0.2854062,0.94701546,0.14732635,0
-3.2129097,2.9067388,-3.0281525,-0.69768989,0.31068936,-0.64552379,0
-0.86263514,5.4291573,-3.8952491,-0.69768989,0.31068936,-0.64552379,0
0.33423865,-5.5891638,0.7859354,-0.2854062,-0.94701546,-0.14732635,0
1.6287744,5.0969038,-2.0523005,0.2854062,0.94701546,0.14732635,0
1.3725495,1.3139982,4.5566726,-0.65709376,0.081448436,0.74939579,0
-4.5333452,-0.48615289,-3.2794566,-0.69768989,0.31068936,-0.64552379,0
5.8191581,2.7901633,2.7699685,0.69768989,-0.31068936,0.64552379,0
-0.4662509,6.0321445,-2.9614832,0.2854062,0.94701546,0.14732635,0
3.1915276,-4.2271671,-0.086961508,0.65709376,-0.081448436,-0.74939579,0
-3.9927497,3.9081948,-1.7549243,-0.69768989,0.31068936,-0.64552379,0
-5.5211191,-1.9359543,-2.9060154,-0.69768989,0.31068936,-0.64552379,0
-3.3902965,-2.9778461,0.89306402,-0.65709376,0.081448436,0.74939579,0
-1.5089757,6.1069469,-2.3246825,0.2854062,0.94701546,0.14732635,0
-0.10926463,-5.0302062,-0.47340059,-0.2854062,-0.94701546,-0.14732635,0
5.6628251,0.18878698,1.6387292,0.69768989,-0.31068936,0.64552379,0
-4.0820017,2.4673975,-0.61681473,-0.65709376,0.081448436,0.74939579,0
-4.0431166,-3.8851039,-0.23321629,-0.2854062,-0.94701546,-0.14732635,0
5.1911755,2.2765944,1.0123987,0.65709376,-0.081448436,-0.74939579,0
-2.5743327,-3.8011601,-3.8560452,-0.2854062,-0.94701546,-0.14732635,0
2.9695096,2.2916636,-0.72843909,0.65709376,-0.081448436,-0.74939579,0
2.520355,-6.1369534,0.32929468,-0.2854062,-0.94701546,-0.14732635,0
2.9145718,0.65019226,4.7256427,0.69768989,-0.31068936,0.64552379,0
-1.6979303,4.8286309,1.1301188,-0.65709376,0.081448436,0.74939579,0
-2.8896227,3.3697138,-2.9202166,-0.69768989,0.31068936,-0.64552379,0
4.4957089,3.5561953,1.5903225,0.2854062,0.94701546,0.14732635,0
-4.9186101,-2.5698645,-0.44774675,-0.65709376,0.081448436,0.74939579,0
-2.7623999,3.7604461,0.46924376,-0.65709376,0.081448436,0.74939579,0
-0.67607915,4.3004122,2.2124863,-0.65709376,0.081448436,0.74939579,0
1.112915,0.13782847,4.2855492,-0.65709376,0.081448436,0.74939579,0
1.1516042,0.77761447,4.5269823,-0.65709376,0.081448436,0.74939579,0
-2.6386425,6.2579088,-0.0081210136,0.2854062,0.94701546,0.14732635,0
3.5791504,-4.6785727,0.16722012,0.65709376,-0.081448436,-0.74939579,0
1.5246568,-5.6207981,3.1121306,0.69768989,-0.31068936,0.64552379,0
0.035278559,-2.6730042,3.5688825,-0.65709376,0.081448436,0.74939579,0
3.6576943,-0.31822693,3.4693804,0.69768989,-0.31068936,0.64552379,0
4.1944818,0.41115165,3.677063,0.69768989,-0.31068936,0.64552379,0
5.7292776,2.7206812,1.3282392,0.65709376,-0.081448436,-0.74939579,0
-2.4770849,-4.4856491,0.48076725,-0.2854062,-0.94701546,-0.14732635,0
3.281117,-0.39828575,3.9453859,0.69768989,-0.31068936,0.64552379,0
2.0452158,-6.2505946,1.8451533,-0.2854062,-0.94701546,-0.14732635,0
-5.1878476,-3.5818467,-1.9344349,-0.2854062,-0.94701546,-0.14732635,0
-6.486815,-2.7362726,-2.2763395,-0.69768989,0.31068936,-0.64552379,0
-2.5839868,5.3530836,-2.5975449,-0.69768989,0.31068936,-0.64552379,0
-1.2962685,-4.3980856,-3.2078567,-0.2854062,-0.94701546,-0.14732635,0
2.0133758,-2.1009736,4.8017807,0.69768989,-0.31068936,0.64552379,0
-4.9903469,-3.243247,-2.5963402,-0.2854062,-0.94701546,-0.14732635,0
0.046642661,5.1757417,1.0803604,0.2854062,0.94701546,0.14732635,0
3.7087212,-3.8432505,0.080064297,0.65709376,-0.081448436,-0.74939579,0
2.3262572,1.7907608,5.1744356,-0.65709376,0.081448436,0.74939579,0
4.637692,-2.2218823,1.1538301,0.65709376,-0.081448436,-0.74939579,0
-2.7775583,-0.99882972,-5.3429546,-0.69768989,0.31068936,-0.64552379,0
-3.5336714,-4.2522149,0.15897655,-0.2854062,-0.94701546,-0.14732635,0
-2.6686482,-4.1032157,-2.7274857,-0.2854062,-0.94701546,-0.14732635,0
3.6372623,4.0354958,1.8262191,0.2854062,0.94701546,0.14732635,0
1.5590497,2.7928319,-2.3438809,0.65709376,-0.081448436,-0.74939579,0
5.336154,0.31177378,1.1749399,0.65709376,-0.081448436,-0.74939579,0
-3.5570316,-0.86729288,-4.1000834,-0.69768989,0.31068936,-0.64552379,0
4.4967375,3.950079,0.92610884,0.2854062,0.94701546,0.14732635,0
-0.1964879,-5.4852791,1.704566,-0.2854062,-0.94701546,-0.14732635,0
-2.0733747,5.0633202,-2.7716703,-0.69768989,0.31068936,-0.64552379,0
1.0458236,-5.5105538,-0.69260502,-0.2854062,-0.94701546,-0.14732635,0
-3.7180586,4.1751852,-0.13235593,-0.65709376,0.081448436,0.74939579,0
0.68099773,2.8946784,-2.8096304,0.65709376,-0.081448436,-0.74939579,0
-3.2067013,-3.2967949,-5.4886074,-0.2854062,-0.94701546,-0.14732635,0
2.6143131,-3.0219898,3.3409979,0.69768989,-0.31068936,0.64552379,0
-0.46934032,1.1888816,-3.9080567,0.65709376,-0.081448436,-0.74939579,0
2.8077674,2.6352537,-0.9206481,0.65709376,-0.081448436,-0.74939579,0
-5.1458421,-3.3056591,-0.80488133,-0.65709376,0.081448436,0.74939579,0
1.8612828,-5.7399611,-0.90057611,-0.2854062,-0.94701546,-0.14732635,0
-3.5319252,-3.2206924,-5.5866857,-0.69768989,0.31068936,-0.64552379,0
5.3908739,0.72912288,1.411756,0.65709376,-0.081448436,-0.74939579,0
4.9249725,1.3158773,1.0444696,0.65709376,-0.081448436,-0.74939579,0
2.7238588,3.6853929,4.7649364,0.2854062,0.94701546,0.14732635,0
-1.010283,-3.289917,2.999948,-0.65709376,0.081448436,0.74939579,0
-0.33445477,-5.7402864,3.1461902,-0.2854062,-0.94701546,-0.14732635,0
1.3067271,5.2704482,-1.2373257,0.2854062,0.94701546,0.14732635,0
-3.1425612,-4.2396793,0.0039725304,-0.2854062,-0.94701546,-0.14732635,0
-3.3473411,2.6966903,-2.9106801,-0.69768989,0.31068936,-0.64552379,0
-2.3986084,-4.1008368,1.7163329,-0.65709376,0.081448436,0.74939579,0
2.7870998,1.3676282,5.5732303,0.69768989,-0.31068936,0.64552379,0
-3.9008613,-0.46945098,-3.8236425,-0.69768989,0.31068936,-0.64552379,0
-2.1302686,3.4866328,-3.9622114,-0.69768989,0.31068936,-0.64552379,0
-1.26208,3.760371,1.9761076,-0.65709376,0.081448436,0.74939579,0
4.5878787,2.7054048,4.3292708,0.69768989,-0.31068936,0.64552379,0
-1.9407203,-4.3073578,-1.2720561,-0.2854062,-0.94701546,-0.14732635,0
0.22369611,-0.58205795,-2.9593914,0.65709376,-0.081448436,-0.74939579,0
-2.5301449,6.2856197,-0.76636267,0.2854062,0.94701546,0.14732635,0
-5.1347542,-1.5248752,-0.90559268,-0.65709376,0.081448436,0.74939579,0
-1.6812658,-4.8565197,-0.39051819,-0.2854062,-0.94701546,-0.14732635,0
-0.96252656,5.8198032,-0.85052347,0.2854062,0.94701546,0.14732635,0
1.5575502,5.2626629,-2.0175915,0.2854062,0.94701546,0.14732635,0
-1.6434731,5.0578532,-3.6985831,-0.69768989,0.31068936,-0.64552379,0
3.552906,-3.4382133,2.0930395,0.69768989,-0.31068936,0.64552379,0
2.8462996,-1.5574043,4.1324258,0.69768989,-0.31068936,0.64552379,0
3.9656496,-5.594676,0.8125062,0.69768989,-0.31068936,0.64552379,0
4.4947019,3.6349144,1.2947898,0.2854062,0.94701546,0.14732635,0
1.4778013,-5.9833474,2.1955488,-0.2854062,-0.94701546,-0.14732635,0
3.0431924,-6.468791,1.4091492,0.69768989,-0.31068936,0.64552379,0
-1.5702935,-4.4716396,2.4718637,-0.65709376,0.081448436,0.74939579,0
2.4916949,-4.102499,2.7766166,0.69768989,-0.31068936,0.64552379,0
-2.190589,-0.13912416,1.6643258,-0.65709376,0.081448436,0.74939579,0
1.0214775,4.4318018,-2.971736,0.65709376,-0.081448436,-0.74939579,0
-0.51543558,-2.2098775,3.0345912,-0.65709376,0.081448436,0.74939579,0
1.4494066,-6.2302284,2.0038631,-0.2854062,-0.94701546,-0.14732635,0
3.7885933,3.6572328,3.6312594,0.2854062,0.94701546,0.14732635,0
2.4790211,-4.2338428,-0.54381084,0.65709376,-0.081448436,-0.74939579,0
4.1747823,-3.0815594,1.6764066,0.69768989,-0.31068936,0.64552379,0
2.2015808,4.5786276,1.0737219,0.2854062,0.94701546,0.14732635,0
-5.2120156,-3.1618748,-3.0624766,-0.2854062,-0.94701546,-0.14732635,0
-2.465106,1.9501977,-4.0659084,-0.69768989,0.31068936,-0.64552379,0
0.86115599,-5.6441526,-0.61498785,-0.2854062,-0.94701546,-0.14732635,0
3.7869799,3.948127,0.22040033,0.2854062,0.94701546,0.14732635,0
-2.0811338,-4.4877596,-0.1169982,-0.2854062,-0.94701546,-0.14732635,0
5.2228441,2.6891799,1.1516886,0.65709376,-0.081448436,-0.74939579,0
-5.653255,-1.2139733,-1.9583033,-0.69768989,0.31068936,-0.64552379,0
1.1921751,-5.8274212,1.7504935,-0.2854062,-0.94701546,-0.14732635,0
4.5300865,-3.3493266,1.2388054,0.65709376,-0.081448436,-0.74939579,0
3.6272016,2.5312629,-0.25167751,0.65709376,-0.081448436,-0.74939579,0
2.060287,4.0897937,4.6550779,0.2854062,0.94701546,0.14732635,0
2.9464831,1.3321731,5.1905465,0.69768989,-0.31068936,0.64552379,0
-2.6314783,-3.885464,-3.62356,-0.2854062,-0.94701546,-0.14732635,0
0.88558215,4.929533,0.60390043,0.2854062,0.94701546,0.14732635,0
-2.2360506,-2.1480474,-4.9506598,0.65709376,-0.081448436,-0.74939579,0
0.13577008,4.0331516,-3.6485169,0.65709376,-0.081448436,-0.74939579,0
1.6874356,-6.0278921,0.33669853,-0.2854062,-0.94701546,-0.14732635,0
1.5613583,-3.0750995,-1.6718392,0.65709376,-0.081448436,-0.74939579,0
1.9051552,-1.4988706,5.022078,0.69768989,-0.31068936,0.64552379,0
-0.74318218,4.0393667,-4.6393838,0.65709376,-0.081448436,-0.74939579,0
-2.5576658,2.9542048,-3.7771809,-0.69768989,0.31068936,-0.64552379,0
0.55231214,4.5178843,3.2356329,0.2854062,0.94701546,0.14732635,0
3.9685178,2.1004586,4.1939154,0.69768989,-0.31068936,0.64552379,0
-5.1075044,-1.0185916,-0.92264485,-0.65709376,0.081448436,0.74939579,0
4.9040589,3.5085166,1.0945864,0.2854062,0.94701546,0.14732635,0
-2.2169194,0.52841282,1.3759273,-0.65709376,0.081448436,0.74939579,0
-4.2869663,2.7401333,-0.5391233,-0.65709376,0.081448436,0.74939579,0
-1.2884035,-4.9488883,1.4022937,-0.2854062,-0.94701546,-0.14732635,0
1.9529643,4.0737166,4.504426,0.2854062,0.94701546,0.14732635,0
-0.52094257,-0.057199955,3.0071909,-0.65709376,0.081448436,0.74939579,0
-4.1657543,-2.5411363,-4.7483463,-0.69768989,0.31068936,-0.64552379,0
2.1045465,1.0194603,4.9750767,-0.65709376,0.081448436,0.74939579,0
1.1236801,-3.8581102,4.7537961,0.69768989,-0.31068936,0.64552379,0
1.7465694,2.2317431,-2.0206649,0.65709376,-0.081448436,-0.74939579,0
3.7263255,1.4758911,4.5633316,0.69768989,-0.31068936,0.64552379,0
0.84569538,4.5692396,2.5320005,0.2854062,0.94701546,0.14732635,0
-4.7392573,-0.43223703,-2.6530905,-0.69768989,0.31068936,-0.64552379,0
4.2785034,-0.81817043,2.7739589,0.69768989,-0.31068936,0.64552379,0
1.2331347,0.6064949,-2.0834637,0.65709376,-0.081448436,-0.74939579,0
-2.4340799,6.2137947,-0.084121227,0.2854062,0.94701546,0.14732635,0
-3.559572,-3.9734361,-2.4352832,-0.2854062,-0.94701546,-0.14732635,0
0.69368243,3.1480508,3.5923736,-0.65709376,0.081448436,0.74939579,0
4.4073629,0.12997723,0.46730316,0.65709376,-0.081448436,-0.74939579,0
-6.1910262,-2.6289148,-2.5384915,-0.69768989,0.31068936,-0.64552379,0
-2.4413753,-3.4919116,1.719058,-0.65709376,0.081448436,0.74939579,0
-2.2546611,-2.7707148,1.444847,-0.65709376,0.081448436,0.74939579,0
-1.4440904,1.5022029,-4.9022789,0.65709376,-0.081448436,-0.74939579,0
-3.7653012,4.5617833,-0.47492552,-0.65709376,0.081448436,0.74939579,0
-3.4921923,-3.5023561,-5.1367989,-0.2854062,-0.94701546,-0.14732635,0
2.4307034,3.6638629,-1.540354,0.65709376,-0.081448436,-0.74939579,0
1.859663,-4.6337047,3.4734089,0.69768989,-0.31068936,0.64552379,0
-1.5850716,-0.90820944,-4.4804916,0.65709376,-0.081448436,-0.74939579,0
3.8163249,-0.22517204,-0.016375698,0.65709376,-0.081448436,-0.74939579,0
1.3986664,-4.2524643,-1.4629459,0.65709376,-0.081448436,-0.74939579,0
-2.761517,6.2751079,-1.3314481,0.2854062,0.94701546,0.14732635,0
1.2330477,-4.2005801,-2.0374632,0.65709376,-0.081448436,-0.74939579,0
4.3982782,-1.1040356,2.5249202,0.69768989,-0.31068936,0.64552379,0
-0.22186422,-4.6306028,3.6144028,-0.65709376,0.081448436,0.74939579,0
-3.5659237,-1.9469602,-4.5469475,-0.69768989,0.31068936,-0.64552379,0
3.3363752,4.3122039,-0.65263534,0.2854062,0.94701546,0.14732635,0
4.2646451,2.6036775,4.4221334,0.69768989,-0.31068936,0.64552379,0
1.4332118,-3.1032,4.7429233,0.69768989,-0.31068936,0.64552379,0
0.78169364,-5.3756952,-0.3455801,-0.2854062,-0.94701546,-0.14732635,0
-1.4015594,5.8722253,-3.3105323,-0.69768989,0.31068936,-0.64552379,0
2.7550359,2.7159903,-1.1761205,0.65709376,-0.081448436,-0.74939579,0
4.4278526,-4.2983503,1.1638327,0.69768989,-0.31068936,0.64552379,0
3.1497869,2.8910673,-1.0839331,0.65709376,-0.081448436,-0.74939579,0
-0.36477017,5.9991965,-3.6154671,0.2854062,0.94701546,0.14732635,0
4.4994507,2.2538962,4.0389709,0.69768989,-0.31068936,0.64552379,0
2.930922,0.36127746,4.857481,0.69768989,-0.31068936,0.64552379,0
-2.3683953,-1.5752308,1.3845502,-0.65709376,0.081448436,0.74939579,0
-2.9362085,0.024410248,0.82538807,-0.65709376,0.081448436,0.74939579,0
-2.9907823,-4.0573177,-1.6613131,-0.2854062,-0.94701546,-0.14732635,0
-5.5621934,-0.93328476,-2.3050013,-0.69768989,0.31068936,-0.64552379,0
-3.2559509,-1.1135343,0.34228468,-0.65709376,0.081448436,0.74939579,0
0.66395485,5.3838277,-1.493475,0.2854062,0.94701546,0.14732635,0
-2.604001,-3.6338673,-5.117487,-0.2854062,-0.94701546,-0.14732635,0
-3.9435523,5.9641242,-0.80881834,-0.69768989,0.31068936,-0.64552379,0
0.26605463,5.7429104,-3.3713613,0.2854062,0.94701546,0.14732635,0
-3.5258174,5.4932351,-1.1087594,-0.69768989,0.31068936,-0.64552379,0
2.975945,4.5927668,-0.18721581,0.2854062,0.94701546,0.14732635,0
2.8238668,-5.6678743,-0.034576893,0.65709376,-0.081448436,-0.74939579,0
2.9732785,-3.0005701,2.8640585,0.69768989,-0.31068936,0.64552379,0
-4.1994109,-0.72385663,-3.6277947,-0.69768989,0.31068936,-0.64552379,0
-4.4739437,2.7417438,-0.70404112,-0.65709376,0.081448436,0.74939579,0
-1.0063978,-4.6239014,-2.2085466,-0.2854062,-0.94701546,-0.14732635,0
-4.4907742,0.48707199,-2.431448,-0.69768989,0.31068936,-0.64552379,0
-1.1254821,2.7212286,2.1108391,-0.65709376,0.081448436,0.74939579,0
0.40933824,-5.9910865,3.6682565,-0.2854062,-0.94701546,-0.14732635,0
-3.1942263,-3.9823678,-2.5794392,-0.2854062,-0.94701546,-0.14732635,0
-3.8263111,3.9574831,-1.8737983,-0.69768989,0.31068936,-0.64552379,0
2.1197698,2.1589179,-1.7951466,0.65709376,-0.081448436,-0.74939579,0
2.2665291,-0.52615094,-1.4509144,0.65709376,-0.081448436,-0.74939579,0
0.71240616,-5.6926379,4.2462239,0.69768989,-0.31068936,0.64552379,0
2.225297,0.74365377,-1.2920585,0.65709376,-0.081448436,-0.74939579,0
-4.570847,0.93395114,-2.3065796,-0.69768989,0.31068936,-0.64552379,0
-4.2989974,2.6375804,-1.9274414,-0.69768989,0.31068936,-0.64552379,0
-2.420825,-4.2208467,-1.5178733,-0.2854062,-0.94701546,-0.14732635,0
-4.5901341,-3.475291,-2.6336122,-0.2854062,-0.94701546,-0.14732635,0
0.87552357,-5.1075897,-1.7119589,-0.2854062,-0.94701546,-0.14732635,0
2.5984721,0.73979449,5.0678782,0.69768989,-0.31068936,0.64552379,0
-1.9705853,1.6107736,-4.6420922,-0.69768989,0.31068936,-0.64552379,0
-3.810318,4.5322847,-1.5913541,-0.69768989,0.31068936,-0.64552379,0
2.9636016,3.8964577,2.1272693,0.2854062,0.94701546,0.14732635,0
-3.0062096,3.6857388,0.15346885,-0.65709376,0.081448436,0.74939579,0
-3.8676167,4.3204846,-1.2752397,-0.69768989,0.31068936,-0.64552379,0
-3.1027884,0.6046927,-4.3399024,-0.69768989,0.31068936,-0.64552379,0
-4.2172804,3.0510082,-1.7976968,-0.69768989,0.31068936,-0.64552379,0
-2.8285732,-3.5330749,-4.7951708,-0.2854062,-0.94701546,-0.14732635,0
0.849751,-5.7213101,3.7970166,0.69768989,-0.31068936,0.64552379,0
0.84732133,5.2427835,-2.0670819,0.2854062,0.94701546,0.14732635,0
2.9612918,-0.16793942,-0.56405908,0.65709376,-0.081448436,-0.74939579,0
4.0952573,-1.2471677,2.9456835,0.69768989,-0.31068936,0.64552379,0
-2.8142765,-4.4148211,-0.047015667,-0.2854062,-0.94701546,-0.14732635,0
0.89786196,-1.8455485,4.5808611,-0.65709376,0.081448436,0.74939579,0
5.2997723,1.4980203,1.1985176,0.65709376,-0.081448436,-0.74939579,0
1.6903467,4.4450331,1.7228165,0.2854062,0.94701546,0.14732635,0
-2.9291682,3.2520595,0.18170571,-0.65709376,0.081448436,0.74939579,0
1.2168609,4.4133301,-2.7017417,0.65709376,-0.081448436,-0.74939579,0
-4.6155677,1.3606489,-2.3686538,-0.69768989,0.31068936,-0.64552379,0
0.68461484,-1.276778,-2.8223677,0.65709376,-0.081448436,-0.74939579,0
-1.6705351,1.5528876,-4.966095,-0.69768989,0.31068936,-0.64552379,0
3.8594136,0.48980018,4.0942335,0.69768989,-0.31068936,0.64552379,0
3.9159038,4.130825,0.19730711,0.2854062,0.94701546,0.14732635,0
1.3726596,4.8024268,-0.07327795,0.2854062,0.94701546,0.14732635,0
-2.0022297,6.1477685,-0.86169958,0.2854062,0.94701546,0.14732635,0
1.4961915,2.0422275,4.5304923,-0.65709376,0.081448436,0.74939579,0
3.2400823,2.477303,5.6189899,0.69768989,-0.31068936,0.64552379,0
5.2741156,2.2081292,3.1851451,0.69768989,-0.31068936,0.64552379,0
2.3823199,-4.8816977,2.9181414,0.69768989,-0.31068936,0.64552379,0
3.3856342,2.0315158,-0.45060503,0.65709376,-0.081448436,-0.74939579,0
4.7741876,3.7690005,1.4119005,0.2854062,0.94701546,0.14732635,0
-2.348259,-4.5285468,0.15538883,-0.2854062,-0.94701546,-0.14732635,0
3.759047,3.0481918,5.2586455,0.69768989,-0.31068936,0.64552379,0
1.5596397,-5.4580345,-0.56441307,-0.2854062,-0.94701546,-0.14732635,0
-2.5214829,2.5071104,-3.5276554,-0.69768989,0.31068936,-0.64552379,0
3.0616181,4.3345184,0.37870026,0.2854062,0.94701546,0.14732635,0
2.0421844,-5.6044812,2.5713403,0.69768989,-0.31068936,0.64552379,0
2.2513397,-5.9861908,0.63707018,-0.2854062,-0.94701546,-0.14732635,0
1.074492,-1.8355905,4.4418397,-0.65709376,0.081448436,0.74939579,0
2.0696454,-4.5269251,3.0437269,0.69768989,-0.31068936,0.64552379,0
-0.087698698,-5.5772705,2.9321795,-0.2854062,-0.94701546,-0.14732635,0
-1.5562382,-1.2484601,2.1848612,-0.65709376,0.081448436,0.74939579,0
-2.7354758,-0.7459619,0.78610331,-0.65709376,0.081448436,0.74939579,0
-0.52058464,5.1322403,1.2858529,0.2854062,0.94701546,0.14732635,0
-1.4868979,5.642107,0.3471365,0.2854062,0.94701546,0.14732635,0
0.49764359,-5.3091087,-0.58864403,-0.2854062,-0.94701546,-0.14732635,0
2.4603577,-4.7274065,2.6338015,0.69768989,-0.31068936,0.64552379,0
-0.42397833,-2.9612529,-3.5660233,0.65709376,-0.081448436,-0.74939579,0
2.9799833,0.25377154,-0.7331785,0.65709376,-0.081448436,-0.74939579,0
0.40691614,2.0397205,-3.4075661,0.65709376,-0.081448436,-0.74939579,0
0.36670184,1.4541671,-3.2813601,0.65709376,-0.081448436,-0.74939579,0
-4.6718197,-0.2756083,-0.80893689,-0.65709376,0.081448436,0.74939579,0
4.8721766,-2.316041,1.2052016,0.69768989,-0.31068936,0.64552379,0
0.93544912,-3.652915,4.6858058,-0.65709376,0.081448436,0.74939579,0
1.7966019,-5.7929373,-1.0711656,0.65709376,-0.081448436,-0.74939579,0
4.6569395,3.5016651,2.8893142,0.2854062,0.94701546,0.14732635,0
-1.8639686,-5.0482693,1.225307,-0.2854062,-0.94701546,-0.14732635,0
-5.7941308,-1.118547,-2.1182952,-0.69768989,0.31068936,-0.64552379,0
3.1148093,3.9972644,0.91019392,0.2854062,0.94701546,0.14732635,0
5.3292313,0.81098628,2.6568651,0.69768989,-0.31068936,0.64552379,0
3.1703248,-3.5447831,2.5817072,0.69768989,-0.31068936,0.64552379,0
-3.7062864,-0.17495787,-3.5494151,-0.69768989,0.31068936,-0.64552379,0
0.41270399,5.4772491,-2.4662678,0.2854062,0.94701546,0.14732635,0
-4.7459536,-2.9534912,-3.8102844,-0.69768989,0.31068936,-0.64552379,0
-2.1568336,-4.99821,1.8985968,-0.2854062,-0.94701546,-0.14732635,0
-1.0120441,-5.0169349,0.77814817,-0.2854062,-0.94701546,-0.14732635,0
3.4874301,-4.9511142,1.5376816,0.69768989,-0.31068936,0.64552379,0
-0.64601719,5.3582377,-0.043576717,0.2854062,0.94701546,0.14732635,0
-3.2483883,3.0458932,-0.081223488,-0.65709376,0.081448436,0.74939579,0
2.9356852,3.4551668,5.5898972,-0.65709376,0.081448436,0.74939579,0
2.1298394,-4.3785458,3.5964391,0.69768989,-0.31068936,0.64552379,0
-4.6175346,1.7966871,-0.92852688,-0.65709376,0.081448436,0.74939579,0
0.038484573,5.3727307,-3.6914618,0.65709376,-0.081448436,-0.74939579,0
-2.6239312,6.4446993,-1.6214576,0.2854062,0.94701546,0.14732635,0
-4.2442236,3.7364535,-0.54641581,-0.65709376,0.081448436,0.74939579,0
-2.2297597,5.9008751,0.5251441,-0.65709376,0.081448436,0.74939579,0
1.4999299,-6.1062856,3.3275154,0.69768989,-0.31068936,0.64552379,0
-0.28089893,0.19119668,3.0963318,-0.65709376,0.081448436,0.74939579,0
2.665879,4.3048525,1.3184915,0.2854062,0.94701546,0.14732635,0
-0.92993498,1.4889174,2.4667273,-0.65709376,0.081448436,0.74939579,0
4.6893425,1.2426643,3.2646935,0.69768989,-0.31068936,0.64552379,0
-3.3428473,2.2225349,-3.0877008,-0.69768989,0.31068936,-0.64552379,0
-0.91676879,-5.26192,1.0781431,-0.2854062,-0.94701546,-0.14732635,0
3.0448875,3.4937923,5.1157327,0.2854062,0.94701546,0.14732635,0
-3.7925832,5.4169908,-0.74934959,-0.65709376,0.081448436,0.74939579,0
-2.4481523,6.2234664,-1.8196201,-0.69768989,0.31068936,-0.64552379,0
3.4357038,2.6495242,-0.84318852,0.65709376,-0.081448436,-0.74939579,0
-5.8708477,-2.9192491,-2.9485714,-0.2854062,-0.94701546,-0.14732635,0
4.3815117,0.77485734,3.3329744,0.69768989,-0.31068936,0.64552379,0
0.42701662,-5.3710771,-0.15016699,-0.2854062,-0.94701546,-0.14732635,0
1.8005097,4.8284307,-0.93738127,0.2854062,0.94701546,0.14732635,0
-5.0159965,-3.8499777,-0.71536064,-0.2854062,-0.94701546,-0.14732635,0
-2.1807017,-3.3623049,-4.9586778,0.65709376,-0.081448436,-0.74939579,0
-3.1819081,6.0603456,-1.1636066,-0.69768989,0.31068936,-0.64552379,0
4.7388682,-2.6621084,1.3776742,0.69768989,-0.31068936,0.64552379,0
5.619638,3.3319473,1.5239892,0.2854062,0.94701546,0.14732635,0
3.5307593,0.93191075,-0.56725127,0.65709376,-0.081448436,-0.74939579,0
2.1232882,4.5557532,1.468399,0.2854062,0.94701546,0.14732635,0
-1.3827395,3.4880576,-4.732585,0.65709376,-0.081448436,-0.74939579,0
-0.026573181,5.9653211,-3.884727,0.2854062,0.94701546,0.14732635,0
3.3645363,-0.11312461,-0.63239205,0.65709376,-0.081448436,-0.74939579,0
2.5257792,-2.0254619,-0.98938406,0.65709376,-0.081448436,-0.74939579,0
-3.3625183,-3.2230823,-5.5493422,-0.2854062,-0.94701546,-0.14732635,0
-3.5318379,5.7693481,-0.50939703,-0.65709376,0.081448436,0.74939579,0
0.73629582,4.051959,-3.0931158,0.65709376,-0.081448436,-0.74939579,0
2.9019306,4.2615566,0.14764595,0.2854062,0.94701546,0.14732635,0
-2.7144742,4.8839245,0.36310625,-0.65709376,0.081448436,0.74939579,0
0.55562305,-3.586098,4.4740872,-0.65709376,0.081448436,0.74939579,0
0.90939903,-5.5957003,3.8928349,0.69768989,-0.31068936,0.64552379,0
-4.7091336,1.9902802,-0.94977152,-0.65709376,0.081448436,0.74939579,0
0.42087007,-5.8498192,2.3866305,-0.2854062,-0.94701546,-0.14732635,0
-3.3387027,-3.6810238,-2.7752481,-0.2854062,-0.94701546,-0.14732635,0
-3.3078537,-4.1280751,-0.14133596,-0.2854062,-0.94701546,-0.14732635,0
-4.2717657,3.2865245,-0.89097118,-0.65709376,0.081448436,0.74939579,0
-3.6105599,-1.3487744,-4.7204571,-0.69768989,0.31068936,-0.64552379,0
4.2110424,-0.14670491,3.4026742,0.69768989,-0.31068936,0.64552379,0
0.70348072,-0.34618187,3.9748502,-0.65709376,0.081448436,0.74939579,0
-0.60484409,-4.2465415,-3.3865671,0.65709376,-0.081448436,-0.74939579,0
-1.0360004,-5.4735527,2.1760042,-0.2854062,-0.94701546,-0.14732635,0
-4.0628943,0.44071937,-3.2485328,-0.69768989,0.31068936,-0.64552379,0
3.1706347,-6.392168,0.34191179,0.65709376,-0.081448436,-0.74939579,0
-2.192776,5.8607092,0.039023399,0.2854062,0.94701546,0.14732635,0
-3.2069459,3.3657053,-2.7748299,-0.69768989,0.31068936,-0.64552379,0
-0.72943443,5.4096413,1.7007298,0.2854062,0.94701546,0.14732635,0
1.4333947,4.5925488,0.62618399,0.2854062,0.94701546,0.14732635,0
-6.1502552,-2.3394585,-1.9518342,-0.69768989,0.31068936,-0.64552379,0
3.2027106,-5.4267173,0.094948292,0.65709376,-0.081448436,-0.74939579,0
3.7030177,3.7017145,3.5277209,0.2854062,0.94701546,0.14732635,0
2.9934852,-5.6121902,1.5285292,0.69768989,-0.31068936,0.64552379,0
-1.8751841,5.8437581,0.74058104,0.2854062,0.94701546,0.14732635,0
1.2874582,4.5443616,2.1683435,0.2854062,0.94701546,0.14732635,0
2.1015856,4.7753553,0.31762028,0.2854062,0.94701546,0.14732635,0
-2.7545867,4.3960338,-2.7793393,-0.69768989,0.31068936,-0.64552379,0
-4.3935733,-1.1042631,-3.7888236,-0.69768989,0.31068936,-0.64552379,0
-1.3568273,1.6581347,2.1855226,-0.65709376,0.081448436,0.74939579,0
5.0126491,2.0743415,3.6097496,0.69768989,-0.31068936,0.64552379,0
-2.1297536,-4.9461665,1.4136469,-0.2854062,-0.94701546,-0.14732635,0
5.2729187,1.4814942,0.95522332,0.65709376,-0.081448436,-0.74939579,0
-1.3725824,5.6794109,-0.63596392,0.2854062,0.94701546,0.14732635,0
3.3765945,0.7452181,4.6032243,0.69768989,-0.31068936,0.64552379,0
2.5324073,-5.6206183,2.5800633,0.69768989,-0.31068936,0.64552379,0
3.1443567,3.9086268,3.9263902,0.2854062,0.94701546,0.14732635,0
-3.5850997,-4.3624806,-0.29091692,-0.2854062,-0.94701546,-0.14732635,0
0.95122606,5.2149658,-1.5706251,0.2854062,0.94701546,0.14732635,0
-2.9488587,-1.1979997,-5.2746868,-0.69768989,0.31068936,-0.64552379,0
1.763474,3.2530351,4.6837969,-0.65709376,0.081448436,0.74939579,0
-1.3938365,-1.7155555,-4.3941097,0.65709376,-0.081448436,-0.74939579,0
-3.7150197,-3.6088486,-4.6084027,-0.2854062,-0.94701546,-0.14732635,0
-4.7374458,0.66663408,-0.95084608,-0.65709376,0.081448436,0.74939579,0
4.551919,-2.179086,0.73566633,0.65709376,-0.081448436,-0.74939579,0
-3.183723,-2.4780726,-5.2428379,-0.69768989,0.31068936,-0.64552379,0
-1.3426991,-4.2524552,-4.0342321,-0.2854062,-0.94701546,-0.14732635,0
4.6628885,3.4568558,4.0296164,0.2854062,0.94701546,0.14732635,0
-3.982501,-2.6010125,-4.9238849,-0.69768989,0.31068936,-0.64552379,0
-1.721428,-4.4799829,-1.5476875,-0.2854062,-0.94701546,-0.14732635,0
1.6059232,1.2118129,4.7735753,-0.65709376,0.081448436,0.74939579,0
-5.8322549,-2.0609944,-1.5223947,-0.65709376,0.081448436,0.74939579,0
-5.6101213,-0.43507266,-2.0693729,-0.69768989,0.31068936,-0.64552379,0
-2.2097068,-4.1050515,-3.9172244,-0.2854062,-0.94701546,-0.14732635,0
-4.4452233,3.3305697,-1.5724993,-0.69768989,0.31068936,-0.64552379,0
4.9045725,-2.1376481,1.3750613,0.69768989,-0.31068936,0.64552379,0
-3.9088063,0.20206982,-3.4824889,-0.69768989,0.31068936,-0.64552379,0
-0.61820453,5.2358642,1.0390716,0.2854062,0.94701546,0.14732635,0
0.50029635,-5.4433522,1.2341685,-0.2854062,-0.94701546,-0.14732635,0
4.4473052,1.7938393,0.58132243,0.65709376,-0.081448436,-0.74939579,0
-0.14234948,1.2897036,2.8307304,-0.65709376,0.081448436,0.74939579,0
3.9147835,-1.8839155,2.6298304,0.69768989,-0.31068936,0.64552379,0
0.79036105,4.8413672,0.078585148,0.2854062,0.94701546,0.14732635,0
0.29040003,4.0266829,-3.7174268,0.65709376,-0.081448436,-0.74939579,0
0.097218692,5.2185307,0.3103261,0.2854062,0.94701546,0.14732635,0
1.8486464,-4.1444044,-1.2013545,0.65709376,-0.081448436,-0.74939579,0
-4.3551016,1.8910346,-2.0106306,-0.69768989,0.31068936,-0.64552379,0
-3.8559518,3.2954054,-2.0894578,-0.69768989,0.31068936,-0.64552379,0
-1.7381048,-2.8998983,2.2791162,-0.65709376,0.081448436,0.74939579,0
4.7953968,0.63114142,0.93236303,0.65709376,-0.081448436,-0.74939579,0
-2.4338155,2.4900868,-3.9695287,-0.69768989,0.31068936,-0.64552379,0
-1.7954643,-4.5846643,2.1865003,-0.65709376,0.081448436,0.74939579,0
-4.7412109,-1.9290711,-0.58506799,-0.65709376,0.081448436,0.74939579,0
3.0818496,1.985796,5.2928324,0.69768989,-0.31068936,0.64552379,0
-0.30080438,0.50953865,-3.4051099,0.65709376,-0.081448436,-0.74939579,0
-2.4085855,1.7194729,-4.0319958,-0.69768989,0.31068936,-0.64552379,0
-3.6999829,-4.0871153,-1.8076854,-0.2854062,-0.94701546,-0.14732635,0
3.2242913,-3.7853169,0.14327931,0.65709376,-0.081448436,-0.74939579,0
-3.5709567,3.6112363,-0.19575644,-0.65709376,0.081448436,0.74939579,0
-2.5013723,-4.0507932,-4.1331635,-0.2854062,-0.94701546,-0.14732635,0
2.3178923,-6.0552206,1.7833815,-0.2854062,-0.94701546,-0.14732635,0
-5.1235509,-0.99149847,-1.1302501,-0.65709376,0.081448436,0.74939579,0
5.0066533,-1.8453553,1.4256346,0.65709376,-0.081448436,-0.74939579,0
2.2043786,-1.0308317,4.6636996,0.69768989,-0.31068936,0.64552379,0
-0.4790585,-1.8795791,-3.6402869,0.65709376,-0.081448436,-0.74939579,0
1.2888365,4.5722089,2.6442695,0.2854062,0.94701546,0.14732635,0
-1.7941167,5.6776552,0.018324852,0.2854062,0.94701546,0.14732635,0
-2.1970611,-1.9564528,-4.9182081,0.65709376,-0.081448436,-0.74939579,0
-1.6621916,5.8026991,0.18895769,0.2854062,0.94701546,0.14732635,0
-2.1689219,5.4818001,-2.9144843,-0.69768989,0.31068936,-0.64552379,0
5.6908703,1.8874025,1.4720256,0.65709376,-0.081448436,-0.74939579,0
-2.6060147,0.94913149,-4.4970798,-0.69768989,0.31068936,-0.64552379,0
2.7246108,-4.705761,2.7149949,0.69768989,-0.31068936,0.64552379,0
1.0189404,-5.2057915,4.2141514,0.69768989,-0.31068936,0.64552379,0
2.1240215,2.8183715,4.6960783,-0.65709376,0.081448436,0.74939579,0
4.2263794,-2.0911756,2.0454988,0.69768989,-0.31068936,0.64552379,0
-5.6698141,-1.999455,-2.8633533,-0.69768989,0.31068936,-0.64552379,0
-4.6989255,2.3466148,-1.6714063,-0.69768989,0.31068936,-0.64552379,0
2.5874066,4.0928183,-1.7410691,0.65709376,-0.081448436,-0.74939579,0
-2.3912168,2.4200077,0.96648264,-0.65709376,0.081448436,0.74939579,0
0.91062212,-5.8780303,3.9949,0.69768989,-0.31068936,0.64552379,0
1.1012993,-6.2153397,3.6881692,0.69768989,-0.31068936,0.64552379,0
1.1102962,-4.459682,4.330255,0.69768989,-0.31068936,0.64552379,0
3.0296254,-3.612725,2.6416054,0.69768989,-0.31068936,0.64552379,0
4.2558231,-0.098639131,3.2862196,0.69768989,-0.31068936,0.64552379,0
1.2417063,5.1467886,-2.1835353,0.2854062,0.94701546,0.14732635,0
2.5612564,-5.7654829,2.4191065,0.69768989,-0.31068936,0.64552379,0
2.8029737,1.5520046,5.3254824,0.69768989,-0.31068936,0.64552379,0
0.65427518,-5.7447271,0.87784147,-0.2854062,-0.94701546,-0.14732635,0
-0.4987601,5.5814552,-0.25423288,0.2854062,0.94701546,0.14732635,0
-1.5452588,-4.5285215,2.3767095,-0.65709376,0.081448436,0.74939579,0
-3.1414204,-3.7900133,-3.3675504,-0.2854062,-0.94701546,-0.14732635,0
4.8508744,-1.4763167,1.8966198,0.69768989,-0.31068936,0.64552379,0
0.94165218,4.8790231,1.5387316,0.2854062,0.94701546,0.14732635,0
1.7136018,-4.9993076,-1.4836645,0.65709376,-0.081448436,-0.74939579,0
4.2980642,1.9993635,0.15806341,0.65709376,-0.081448436,-0.74939579,0
-3.4935083,-0.35537195,-4.3448839,-0.69768989,0.31068936,-0.64552379,0
-2.5526443,1.1282239,-4.6123395,-0.69768989,0.31068936,-0.64552379,0
3.03297,-2.7241573,3.3095133,0.69768989,-0.31068936,0.64552379,0
-3.6223249,-3.3610988,-5.383481,-0.69768989,0.31068936,-0.64552379,0
-4.1134477,5.3018084,-0.65379763,-0.65709376,0.081448436,0.74939579,0
-0.51091957,0.86373758,2.9639139,-0.65709376,0.081448436,0.74939579,0
0.58348095,-4.7022614,-2.1735611,0.65709376,-0.081448436,-0.74939579,0
1.3074958,-5.9887342,0.96047974,-0.2854062,-0.94701546,-0.14732635,0
-4.9723225,-1.0745971,-0.77600408,-0.65709376,0.081448436,0.74939579,0
-1.1707443,-4.8348083,-1.1325631,-0.2854062,-0.94701546,-0.14732635,0
4.9600172,3.2184479,0.84903908,0.65709376,-0.081448436,-0.74939579,0
3.8703389,-3.7086029,1.5951626,0.69768989,-0.31068936,0.64552379,0
-1.5535244,-5.132319,2.1249564,-0.2854062,-0.94701546,-0.14732635,0
-3.7605236,2.8711405,-0.27030253,-0.65709376,0.081448436,0.74939579,0
6.2647133,2.2943711,2.1625948,0.69768989,-0.31068936,0.64552379,0
-3.0478513,4.0945988,0.19116259,-0.65709376,0.081448436,0.74939579,0
0.34381199,3.2560179,3.4618056,-0.65709376,0.081448436,0.74939579,0
-4.3620534,2.2053862,-1.7019776,-0.69768989,0.31068936,-0.64552379,0
0.73093927,-5.4425821,0.82918739,-0.2854062,-0.94701546,-0.14732635,0
-2.9073143,6.2073197,-1.6545191,-0.69768989,0.31068936,-0.64552379,0
4.3318176,-0.82046175,2.4977708,0.69768989,-0.31068936,0.64552379,0
-4.1471806,3.3654828,-1.5048342,-0.69768989,0.31068936,-0.64552379,0
1.9858689,-2.418232,4.2278953,0.69768989,-0.31068936,0.64552379,0
-3.1260967,-3.6954079,-2.777317,-0.2854062,-0.94701546,-0.14732635,0
4.8793893,0.81393003,0.74015355,0.65709376,-0.081448436,-0.74939579,0
2.9595089,-1.4346676,-0.35194373,0.65709376,-0.081448436,-0.74939579,0
0.74967694,-5.7849784,1.2220721,-0.2854062,-0.94701546,-0.14732635,0
3.6696146,-5.3446655,1.2112675,0.69768989,-0.31068936,0.64552379,0
2.2344799,-5.3846803,-0.69017363,0.65709376,-0.081448436,-0.74939579,0
-0.18306482,-4.9799209,-1.5583444,-0.2854062,-0.94701546,-0.14732635,0
-4.7918077,-1.2259483,-2.8992774,-0.69768989,0.31068936,-0.64552379,0
-3.0436177,-4.4722548,0.68336344,-0.2854062,-0.94701546,-0.14732635,0
-2.2692003,2.7550433,-4.0089283,-0.69768989,0.31068936,-0.64552379,0
2.6564956,0.36762714,4.9457445,0.69768989,-0.31068936,0.64552379,0
-0.94369507,5.3059292,-3.9135928,-0.69768989,0.31068936,-0.64552379,0
0.12681437,-5.9523287,4.1823916,-0.2854062,-0.94701546,-0.14732635,0
-0.17973566,-4.6228824,-3.00842,0.65709376,-0.081448436,-0.74939579,0
3.4235187,-2.7421422,-0.18020511,0.65709376,-0.081448436,-0.74939579,0
-3.0268273,-4.5612268,1.2239602,-0.2854062,-0.94701546,-0.14732635,0
3.7399044,-0.61124152,3.5801172,0.69768989,-0.31068936,0.64552379,0
-6.0709128,-2.2758713,-2.5450182,-0.69768989,0.31068936,-0.64552379,0
-3.1629791,-0.48391128,0.38610551,-0.65709376,0.081448436,0.74939579,0
-3.0713766,-3.9540572,-1.615684,-0.2854062,-0.94701546,-0.14732635,0
4.4387016,-3.0461619,0.8573966,0.65709376,-0.081448436,-0.74939579,0
0.91951561,2.6190422,-3.0437617,0.65709376,-0.081448436,-0.74939579,0
-2.3472204,-3.8137145,-4.6231799,-0.2854062,-0.94701546,-0.14732635,0
5.3022594,2.7465184,1.0027876,0.65709376,-0.081448436,-0.74939579,0
0.2495265,5.4791055,-1.8022757,0.2854062,0.94701546,0.14732635,0
1.9500872,4.698483,1.0531297,0.2854062,0.94701546,0.14732635,0
1.7024286,4.8145061,-0.93693733,0.2854062,0.94701546,0.14732635,0
-1.126229,6.0135255,-2.1097162,0.2854062,0.94701546,0.14732635,0
4.4301643,-1.288861,0.76645952,0.65709376,-0.081448436,-0.74939579,0
-3.305006,-1.1962247,-4.8205376,-0.69768989,0.31068936,-0.64552379,0
-3.3747177,-2.7277374,0.83504057,-0.65709376,0.081448436,0.74939579,0
3.1142249,-3.6583042,2.5762177,0.69768989,-0.31068936,0.64552379,0
-4.5788012,-2.7616582,-0.1761961,-0.65709376,0.081448436,0.74939579,0
-1.1373491,1.5000581,-4.6608257,0.65709376,-0.081448436,-0.74939579,0
0.19479108,5.495235,-1.0001006,0.2854062,0.94701546,0.14732635,0
-0.28714806,-4.7350578,-1.6048312,-0.2854062,-0.94701546,-0.14732635,0
-2.562521,0.24233621,-4.9344172,-0.69768989,0.31068936,-0.64552379,0
-3.8191624,-0.011264801,-0.089193374,-0.65709376,0.081448436,0.74939579,0
-0.56624961,5.8005881,-2.1134379,0.2854062,0.94701546,0.14732635,0
-1.2990268,-5.1126194,1.4275188,-0.2854062,-0.94701546,-0.14732635,0
-1.83813,-3.5188527,-4.6259265,0.65709376,-0.081448436,-0.74939579,0
-0.4917869,5.0486135,2.504797,0.2854062,0.94701546,0.14732635,0
4.9062572,0.63484871,2.5365946,0.69768989,-0.31068936,0.64552379,0
1.7529259,-3.8117294,4.1985612,0.69768989,-0.31068936,0.64552379,0
3.2379365,-3.1780143,2.5148523,0.69768989,-0.31068936,0.64552379,0
-0.55465591,-5.5287724,1.4525623,-0.2854062,-0.94701546,-0.14732635,0
-0.4384203,0.79357207,-3.6251686,0.65709376,-0.081448436,-0.74939579,0
1.852762,4.3453555,1.8758059,0.2854062,0.94701546,0.14732635,0
0.29471803,5.645618,-2.5200319,0.2854062,0.94701546,0.14732635,0
-4.3238988,-2.8077865,-4.6033497,-0.69768989,0.31068936,-0.64552379,0
-3.5689039,-3.7750199,-3.0779128,-0.2854062,-0.94701546,-0.14732635,0
1.1507533,4.7704206,0.85351324,0.2854062,0.94701546,0.14732635,0
0.96035171,5.6015778,-3.1446524,0.2854062,0.94701546,0.14732635,0
-0.26967907,6.0560493,-4.3698263,0.65709376,-0.081448436,-0.74939579,0
-1.3620739,-0.84332609,-4.5294967,0.65709376,-0.081448436,-0.74939579,0
6.4442992,3.0197461,1.9794936,0.69768989,-0.31068936,0.64552379,0
2.0139098,-3.0356748,3.8360379,0.69768989,-0.31068936,0.64552379,0
4.1106977,3.4927728,3.8255386,0.2854062,0.94701546,0.14732635,0
4.0934439,3.5917168,3.9249973,0.2854062,0.94701546,0.14732635,0
-2.4636703,5.781024,0.35790491,-0.65709376,0.081448436,0.74939579,0
4.0781851,3.7788301,2.2489772,0.2854062,0.94701546,0.14732635,0
-3.2995181,0.7061094,-3.8090975,-0.69768989,0.31068936,-0.64552379,0
0.026729345,-5.6275406,3.9455211,-0.65709376,0.081448436,0.74939579,0
2.7407253,4.1419683,3.246973,0.2854062,0.94701546,0.14732635,0
-0.7914691,-3.2593412,-3.4715989,0.65709376,-0.081448436,-0.74939579,0
1.0348389,5.5468712,-2.3729267,0.2854062,0.94701546,0.14732635,0
3.6458063,-2.2837596,0.046223998,0.65709376,-0.081448436,-0.74939579,0
-2.3308492,3.7207458,-3.4470446,-0.69768989,0.31068936,-0.64552379,0
3.0706697,2.8841348,5.508276,0.69768989,-0.31068936,0.64552379,0
3.3299432,-3.2437251,2.3310642,0.69768989,-0.31068936,0.64552379,0
-4.7263813,1.2773657,-2.0531166,-0.69768989,0.31068936,-0.64552379,0
-5.7344522,-3.3408861,-1.8894978,-0.2854062,-0.94701546,-0.14732635,0
2.480844,-0.19219691,4.9014201,0.69768989,-0.31068936,0.64552379,0
-4.3791151,0.64132202,-2.6749485,-0.69768989,0.31068936,-0.64552379,0
2.4744871,-1.2984605,-0.90330088,0.65709376,-0.081448436,-0.74939579,0
-5.2569165,-1.0618966,-1.1365969,-0.65709376,0.081448436,0.74939579,0
5.0418382,3.3340106,3.7651091,0.2854062,0.94701546,0.14732635,0
-2.8507061,-4.5717354,0.12115431,-0.2854062,-0.94701546,-0.14732635,0
4.616107,1.8445706,3.5774648,0.69768989,-0.31068936,0.64552379,0
-2.1658664,-2.9015546,1.713974,-0.65709376,0.081448436,0.74939579,0
4.8727031,3.0996513,4.0074716,0.69768989,-0.31068936,0.64552379,0
2.5309582,-1.31135,4.2875066,0.69768989,-0.31068936,0.64552379,0
-2.5500491,3.6279469,0.86910558,-0.65709376,0.081448436,0.74939579,0
-1.0569777,-5.20924,2.8038533,-0.65709376,0.081448436,0.74939579,0
-0.16081667,-5.1501431,0.74513388,-0.2854062,-0.94701546,-0.14732635,0
4.8845901,-1.5132916,1.1179464,0.65709376,-0.081448436,-0.74939579,0
3.5288744,-2.1368887,3.0346918,0.69768989,-0.31068936,0.64552379,0
-5.8927231,-1.9360274,-1.8676355,-0.65709376,0.081448436,0.74939579,0
-2.7735896,3.0009198,0.47704244,-0.65709376,0.081448436,0.74939579,0
-4.8796964,2.2546034,-1.6851451,-0.69768989,0.31068936,-0.64552379,0
-3.5071611,-2.6394091,0.29160762,-0.65709376,0.081448436,0.74939579,0
0.71709287,5.607305,-2.4651086,0.2854062,0.94701546,0.14732635,0
3.0455465,2.5523057,5.6695881,0.69768989,-0.31068936,0.64552379,0
-2.460721,-3.9554946,-3.7778087,-0.2854062,-0.94701546,-0.14732635,0
4.3008003,-2.8146043,1.7576308,0.69768989,-0.31068936,0.64552379,0
-0.55528641,5.6506157,-1.4205308,0.2854062,0.94701546,0.14732635,0
-3.8817844,3.3315966,-1.872299,-0.69768989,0.31068936,-0.64552379,0
0.15548873,0.096377492,3.3042636,-0.65709376,0.081448436,0.74939579,0
-3.6430106,2.2714033,-2.7131798,-0.69768989,0.31068936,-0.64552379,0
2.5899763,-1.0281196,-1.1303592,0.65709376,-0.081448436,-0.74939579,0
2.040956,2.0655923,5.0363445,-0.65709376,0.081448436,0.74939579,0
3.4099979,-3.459558,2.111181,0.69768989,-0.31068936,0.64552379,0
-1.8556194,-4.400259,-1.8531184,-0.2854062,-0.94701546,-0.14732635,0
-2.044733,-1.9624951,-4.850318,0.65709376,-0.081448436,-0.74939579,0
2.4858966,4.3804207,1.4107776,0.2854062,0.94701546,0.14732635,0
3.6838951,-1.1397001,3.1251452,0.69768989,-0.31068936,0.64552379,0
-0.11051369,-5.4421515,1.2155681,-0.2854062,-0.94701546,-0.14732635,0
-3.2333841,-4.2721305,0.26731491,-0.2854062,-0.94701546,-0.14732635,0
5.4164214,1.0497806,2.6513653,0.69768989,-0.31068936,0.64552379,0
-5.9181652,-2.9043074,-2.8967092,-0.69768989,0.31068936,-0.64552379,0
-0.48682213,1.0182202,-3.851675,0.65709376,-0.081448436,-0.74939579,0
-2.7092676,-4.3486753,-0.88620996,-0.2854062,-0.94701546,-0.14732635,0
-1.6225612,4.3174458,1.4449415,-0.65709376,0.081448436,0.74939579,0
-4.0644121,-3.959188,-1.6892056,-0.2854062,-0.94701546,-0.14732635,0
3.3633404,2.2761791,5.3017073,0.69768989,-0.31068936,0.64552379,0
-5.1404305,-3.4319651,-2.5267744,-0.2854062,-0.94701546,-0.14732635,0
1.0545254,1.7501564,-2.4887726,0.65709376,-0.081448436,-0.74939579,0
-1.3002481,-5.0191851,-0.3730402,-0.2854062,-0.94701546,-0.14732635,0
3.3190253,4.0535407,1.3086696,0.2854062,0.94701546,0.14732635,0
1.452086,-1.5487239,-2.0669193,0.65709376,-0.081448436,-0.74939579,0
-4.1956253,2.8303957,-1.7735283,-0.69768989,0.31068936,-0.64552379,0
-4.0855923,-3.7427549,-2.6036663,-0.2854062,-0.94701546,-0.14732635,0
-5.3358221,-3.473866,-2.325171,-0.2854062,-0.94701546,-0.14732635,0
4.5441961,1.9369122,0.22988033,0.65709376,-0.081448436,-0.74939579,0
2.6118028,4.4185076,0.22562504,0.2854062,0.94701546,0.14732635,0
1.9627204,-3.6610997,3.9604132,0.69768989,-0.31068936,0.64552379,0
-0.083789349,5.3350444,-0.45291185,0.2854062,0.94701546,0.14732635,0
2.3931379,4.3362427,1.8628607,0.2854062,0.94701546,0.14732635,0
-2.0011094,-4.3463802,-2.0289521,-0.2854062,-0.94701546,-0.14732635,0
0.42921424,5.8056159,-2.8752964,0.2854062,0.94701546,0.14732635,0
3.5590291,1.0632646,4.1288638,0.69768989,-0.31068936,0.64552379,0
-0.41934729,0.46249294,-3.6903691,0.65709376,-0.081448436,-0.74939579,0
1.7121892,5.314249,-2.2073193,0.2854062,0.94701546,0.14732635,0
1.3439629,4.8512073,-0.11297178,0.2854062,0.94701546,0.14732635,0
5.1940765,-1.1128366,1.2545609,0.65709376,-0.081448436,-0.74939579,0
-5.4826159,-3.4407134,-1.8791656,-0.2854062,-0.94701546,-0.14732635,0
3.3045235,-2.2027812,3.3817425,0.69768989,-0.31068936,0.64552379,0
3.269155,3.9105189,1.5912013,0.2854062,0.94701546,0.14732635,0
4.1947265,3.3477316,4.1385956,0.2854062,0.94701546,0.14732635,0
-3.0749025,-3.8243504,-2.6858797,-0.2854062,-0.94701546,-0.14732635,0
0.77066219,4.0107555,-3.103229,0.65709376,-0.081448436,-0.74939579,0
4.0566297,3.2404046,3.8997259,0.2854062,0.94701546,0.14732635,0
-4.4674692,-3.7276559,-2.0713086,-0.2854062,-0.94701546,-0.14732635,0
1.3874571,-5.420857,-0.43628359,-0.2854062,-0.94701546,-0.14732635,0
-2.8484881,-2.0191097,0.80708802,-0.65709376,0.081448436,0.74939579,0
1.1978521,-4.4573455,4.1062169,0.69768989,-0.31068936,0.64552379,0
3.4811044,-0.72029591,3.8131874,0.69768989,-0.31068936,0.64552379,0
-0.99732077,-5.2357979,0.45066261,-0.2854062,-0.94701546,-0.14732635,0
-2.8681035,4.1397271,-2.4015939,-0.69768989,0.31068936,-0.64552379,0
-2.3505907,1.3185329,1.3660344,-0.65709376,0.081448436,0.74939579,0
-0.3982203,5.4087763,-1.1195669,0.2854062,0.94701546,0.14732635,0
3.3065937,1.8268183,-0.68012524,0.65709376,-0.081448436,-0.74939579,0
4.3560324,-1.8862844,2.1594481,0.69768989,-0.31068936,0.64552379,0
-1.7472459,1.3194203,1.5802847,-0.65709376,0.081448436,0.74939579,0
-3.4581299,-0.88494587,-4.6645918,-0.69768989,0.31068936,-0.64552379,0
3.4187193,-1.9429117,2.9363537,0.69768989,-0.31068936,0.64552379,0
-1.1144334,0.11451411,2.1070552,-0.65709376,0.081448436,0.74939579,0
6.0913954,3.2027977,2.4313111,0.2854062,0.94701546,0.14732635,0
-1.3925242,-1.2980664,-4.3960643,0.65709376,-0.081448436,-0.74939579,0
5.8006334,1.7188692,2.0229661,0.69768989,-0.31068936,0.64552379,0
-4.3098793,3.4236155,-1.3223166,-0.69768989,0.31068936,-0.64552379,0
-2.2523813,5.9658871,-2.7212212,-0.69768989,0.31068936,-0.64552379,0
2.4359856,4.5865874,-1.5363772,0.65709376,-0.081448436,-0.74939579,0
-3.6885595,2.7293239,-0.42550731,-0.65709376,0.081448436,0.74939579,0
-5.3222156,-0.31552696,-2.0540891,-0.69768989,0.31068936,-0.64552379,0
-0.94004297,5.8565087,-1.5611591,0.2854062,0.94701546,0.14732635,0
-4.1242981,-2.2597001,-4.136445,-0.69768989,0.31068936,-0.64552379,0
-3.4045305,-3.2159278,0.6793263,-0.65709376,0.081448436,0.74939579,0
-1.1142993,-4.5585566,-3.5411034,-0.2854062,-0.94701546,-0.14732635,0
-4.4550977,-3.7557464,-0.17753315,-0.2854062,-0.94701546,-0.14732635,0
-5.903935,-2.7962222,-2.7205825,-0.69768989,0.31068936,-0.64552379,0
3.2437143,-3.9716296,2.1453791,0.69768989,-0.31068936,0.64552379,0
-2.2629519,-3.1196017,-4.7275558,0.65709376,-0.081448436,-0.74939579,0
5.1980114,1.9298453,3.2923305,0.69768989,-0.31068936,0.64552379,0
3.2439327,1.237617,-0.82061905,0.65709376,-0.081448436,-0.74939579,0
-0.72962689,0.60317886,-3.9639628,0.65709376,-0.081448436,-0.74939579,0
-0.71281517,-3.2620611,3.3074412,-0.65709376,0.081448436,0.74939579,0
0.68491817,-0.029107451,4.0727334,-0.65709376,0.081448436,0.74939579,0
0.60142291,4.5902786,2.6874461,0.2854062,0.94701546,0.14732635,0
-3.1579576,-4.5807152,0.37304354,-0.2854062,-0.94701546,-0.14732635,0
-4.3188715,-1.6356695,-0.51136255,-0.65709376,0.081448436,0.74939579,0
2.9190383,-0.53025186,4.2470522,0.69768989,-0.31068936,0.64552379,0
-0.027093291,5.3325629,-1.3700607,0.2854062,0.94701546,0.14732635,0
-4.6372223,-3.6262789,-2.565105,-0.2854062,-0.94701546,-0.14732635,0
-3.967237,2.6532888,-2.4709721,-0.69768989,0.31068936,-0.64552379,0
-4.8388529,-0.72248781,-3.0051966,-0.69768989,0.31068936,-0.64552379,0
3.788681,-6.026556,0.88068962,0.69768989,-0.31068936,0.64552379,0
0.97468448,4.9921064,-2.9664292,0.65709376,-0.081448436,-0.74939579,0
-2.3536801,5.8714914,-2.4369678,-0.69768989,0.31068936,-0.64552379,0
-2.7097864,4.723134,-2.7401509,-0.69768989,0.31068936,-0.64552379,0
-4.5954046,-0.36684287,-2.9736464,-0.69768989,0.31068936,-0.64552379,0
-1.1386366,6.18577,-3.1985719,0.2854062,0.94701546,0.14732635,0
2.9455767,2.1594844,5.5769272,0.69768989,-0.31068936,0.64552379,0
-4.5279536,-3.6350422,-0.13326263,-0.65709376,0.081448436,0.74939579,0
-1.7278202,5.6781921,0.7490077,0.2854062,0.94701546,0.14732635,0
1.9281154,-4.997366,3.0866213,0.69768989,-0.31068936,0.64552379,0
-0.17290568,-5.6528683,3.9231303,-0.65709376,0.081448436,0.74939579,0
-2.2439466,3.3559377,-3.8817561,-0.69768989,0.31068936,-0.64552379,0
-1.3057828,1.9839206,-4.7964983,0.65709376,-0.081448436,-0.74939579,0
2.8590798,-0.77552521,4.0198264,0.69768989,-0.31068936,0.64552379,0
2.0189681,0.32104182,4.8930378,-0.65709376,0.081448436,0.74939579,0
-0.30842698,1.595402,2.7801867,-0.65709376,0.081448436,0.74939579,0
-3.6552205,3.2351799,-2.4791048,-0.69768989,0.31068936,-0.64552379,0
3.3157282,-2.3686359,3.3260241,0.69768989,-0.31068936,0.64552379,0
1.0083699,-0.18009591,-2.4420023,0.65709376,-0.081448436,-0.74939579,0
4.7355833,-2.3346088,1.482527,0.69768989,-0.31068936,0.64552379,0
-3.7338133,-1.4153718,-4.1251984,-0.69768989,0.31068936,-0.64552379,0
-4.5618582,-1.7903793,-3.9748156,-0.69768989,0.31068936,-0.64552379,0
-5.0341487,1.9684699,-1.1644447,-0.69768989,0.31068936,-0.64552379,0
0.70992577,5.494648,-2.3042977,0.2854062,0.94701546,0.14732635,0
5.1288781,0.49348998,1.0314351,0.65709376,-0.081448436,-0.74939579,0
3.3289261,2.537281,-0.67690229,0.65709376,-0.081448436,-0.74939579,0
1.6376743,-5.7851009,1.2166533,-0.2854062,-0.94701546,-0.14732635,0
1.6213408,4.3121834,-2.5912895,0.65709376,-0.081448436,-0.74939579,0
3.6781371,3.9876781,0.3605876,0.2854062,0.94701546,0.14732635,0
-3.5230751,-2.4622095,-5.3264494,-0.69768989,0.31068936,-0.64552379,0
-5.1651616,-2.641624,-3.4914958,-0.69768989,0.31068936,-0.64552379,0
3.0221705,-1.9901298,3.5969009,0.69768989,-0.31068936,0.64552379,0
-2.9307067,2.5728617,0.25365424,-0.65709376,0.081448436,0.74939579,0
0.021696091,-5.4676685,-0.023087978,-0.2854062,-0.94701546,-0.14732635,0
1.4349079,-4.1513443,4.3383284,0.69768989,-0.31068936,0.64552379,0
4.0915847,2.5881996,4.3979259,0.69768989,-0.31068936,0.64552379,0
-3.3443649,-4.1036124,-0.30545998,-0.2854062,-0.94701546,-0.14732635,0
-2.920121,-4.6037183,1.5382652,-0.65709376,0.081448436,0.74939579,0
4.7322025,0.70135343,2.9291286,0.69768989,-0.31068936,0.64552379,0
-0.92198515,-4.6650801,-2.8555331,-0.2854062,-0.94701546,-0.14732635,0
1.522981,4.38939,-2.4693208,0.65709376,-0.081448436,-0.74939579,0
