-2.0212119,5.198369,-0.56199908,-0.20386681,0.85407662,-0.47853041,0
0.059622288,-5.876193,0.18016052,0.20386681,-0.85407662,0.47853041,0
-0.76078844,4.6150904,-2.2434106,-0.20386681,0.85407662,-0.47853041,0
-0.85664344,-5.5697198,1.1383145,0.20386681,-0.85407662,0.47853041,0
-3.1093524,4.6279273,-0.96671295,-0.20386681,0.85407662,-0.47853041,0
3.1454263,1.4066906,2.7068357,0.97869962,0.18987739,-0.078060955,0
-1.9648504,-2.9441254,-2.4078004,0.024192095,-0.48425156,-0.87459421,0
3.7762187,-3.8954134,-0.97020912,0.97869962,0.18987739,-0.078060955,0
-0.30155027,-3.8860574,3.2772458,0.20386681,-0.85407662,0.47853041,0
-3.1736536,0.76251388,0.33743989,-0.97869962,-0.18987739,0.078060955,0
-1.4854958,-5.46559,-1.2143118,0.024192095,-0.48425156,-0.87459421,0
2.8531384,-3.0385423,3.8799984,0.20386681,-0.85407662,0.47853041,0
-2.8539,-1.7194567,-2.8399789,-0.97869962,-0.18987739,0.078060955,0
0.6984663,-0.83783197,-3.4403529,0.024192095,-0.48425156,-0.87459421,0
-3.017065,-0.26397705,0.13957322,-0.97869962,-0.18987739,0.078060955,0
-2.9607468,2.8567793,-4.3097377,-0.20386681,0.85407662,-0.47853041,0
0.96548653,-3.9985061,2.6448288,0.20386681,-0.85407662,0.47853041,0
2.3894663,3.9927053,-0.74393374,0.97869962,0.18987739,-0.078060955,0
2.6381032,-1.3863631,-3.1658273,0.024192095,-0.48425156,-0.87459421,0
1.8608055,-4.4591799,1.3749866,0.20386681,-0.85407662,0.47853041,0
-1.8171775,-6.0963783,-0.5767864,0.024192095,-0.48425156,-0.87459421,0
0.2370019,1.5787268,-4.6414785,0.024192095,-0.48425156,-0.87459421,0
-1.1510371,-3.3489008,4.5894737,0.20386681,-0.85407662,0.47853041,0
-0.22352648,-6.1735711,-0.72502995,0.024192095,-0.48425156,-0.87459421,0
0.3819952,-5.4898133,-1.0059164,0.024192095,-0.48425156,-0.87459421,0
-1.4651234,3.4912915,-3.289804,-0.20386681,0.85407662,-0.47853041,0
-1.0488296,4.5579886,-2.1885819,-0.20386681,0.85407662,-0.47853041,0
0.14386225,3.7356076,1.9323148,-0.024192095,0.48425156,0.87459421,0
0.079645872,5.2858019,-1.0543759,-0.20386681,0.85407662,-0.47853041,0
-2.0015717,-2.2135324,5.0505304,-0.024192095,0.48425156,0.87459421,0
-1.7186544,2.0095477,-5.1696692,0.024192095,-0.48425156,-0.87459421,0
-1.0680918,4.1977043,-2.1596828,-0.20386681,0.85407662,-0.47853041,0
-2.710732,-0.43461561,1.6591566,-0.97869962,-0.18987739,0.078060955,0
0.38627005,-4.6469946,-1.4018914,0.024192095,-0.48425156,-0.87459421,0
3.5033638,-4.8967242,0.26285315,0.20386681,-0.85407662,0.47853041,0
1.8746822,-1.9582933,5.2164392,-0.024192095,0.48425156,0.87459421,0
-1.312232,3.8691194,-3.0409584,-0.20386681,0.85407662,-0.47853041,0
0.59590328,4.6830363,-2.2644889,-0.20386681,0.85407662,-0.47853041,0
2.1256166,4.711225,-2.5572789,-0.20386681,0.85407662,-0.47853041,0
0.68225074,3.2570221,-5.0713363,-0.20386681,0.85407662,-0.47853041,0
-4.065115,5.1150794,0.63994122,-0.97869962,-0.18987739,0.078060955,0
-2.2708428,-3.8850799,0.65495908,-0.97869962,-0.18987739,0.078060955,0
-1.5156394,-1.0673573,4.5278339,-0.024192095,0.48425156,0.87459421,0
-2.4644341,5.4088745,1.101449,-0.024192095,0.48425156,0.87459421,0
0.3244772,-5.2984743,-1.229215,0.024192095,-0.48425156,-0.87459421,0
2.2112455,-4.7979078,0.56306744,0.20386681,-0.85407662,0.47853041,0
0.52098948,4.3375072,-3.1765771,-0.20386681,0.85407662,-0.47853041,0
1.3197277,-0.36289257,-3.6978106,0.024192095,-0.48425156,-0.87459421,0
-1.2218804,5.5645008,0.70237851,-0.024192095,0.48425156,0.87459421,0
0.86380792,0.66253686,-4.4713497,0.024192095,-0.48425156,-0.87459421,0
2.9577267,-4.8134456,0.64373493,0.20386681,-0.85407662,0.47853041,0
-2.918539,4.0997958,-2.1903069,-0.20386681,0.85407662,-0.47853041,0
3.3942356,-3.0652015,3.2955723,0.20386681,-0.85407662,0.47853041,0
0.53545833,0.34545195,3.9256098,-0.024192095,0.48425156,0.87459421,0
3.7773061,-3.1694176,3.1979015,0.97869962,0.18987739,-0.078060955,0
0.16499305,-0.42235112,-3.696193,0.024192095,-0.48425156,-0.87459421,0
-2.1104205,-4.4640865,-0.14787841,-0.97869962,-0.18987739,0.078060955,0
1.18603,3.553266,-4.5746865,-0.20386681,0.85407662,-0.47853041,0
2.2700419,3.8303761,-2.5525823,0.97869962,0.18987739,-0.078060955,0
3.6685338,-1.2829745,4.6299129,0.97869962,0.18987739,-0.078060955,0
2.7983279,-1.4615552,-2.9974377,0.024192095,-0.48425156,-0.87459421,0
-3.6549602,4.6069469,-0.40620565,-0.20386681,0.85407662,-0.47853041,0
0.052478075,4.1914601,-2.5777764,-0.20386681,0.85407662,-0.47853041,0
1.7651253,-5.6843796,-0.48748565,0.20386681,-0.85407662,0.47853041,0
2.9356215,1.2292409,1.0820608,0.97869962,0.18987739,-0.078060955,0
3.4812741,-3.4569163,2.5683665,0.20386681,-0.85407662,0.47853041,0
-1.3258371,1.7468092,2.8610129,-0.024192095,0.48425156,0.87459421,0
0.88189006,3.9457808,1.9419709,-0.024192095,0.48425156,0.87459421,0
0.97714996,6.0272202,0.15423107,-0.20386681,0.85407662,-0.47853041,0
0.1083653,1.9840899,-5.2341609,0.024192095,-0.48425156,-0.87459421,0
-0.62052,1.9668753,-5.1832924,0.024192095,-0.48425156,-0.87459421,0
0.730546,6.0761967,0.7293973,-0.024192095,0.48425156,0.87459421,0
-1.6902777,-1.7401576,-3.016506,0.024192095,-0.48425156,-0.87459421,0
0.81073046,4.989337,1.4547472,-0.024192095,0.48425156,0.87459421,0
2.2949934,3.1250846,2.1208515,-0.024192095,0.48425156,0.87459421,0
1.004693,-4.2678699,2.4742754,0.20386681,-0.85407662,0.47853041,0
-3.0536215,2.033437,2.829246,-0.024192095,0.48425156,0.87459421,0
-2.7335,3.9406445,-2.1052194,-0.20386681,0.85407662,-0.47853041,0
-1.6366377,5.745883,0.13385487,-0.20386681,0.85407662,-0.47853041,0
4.019515,-2.2401371,4.9195662,0.20386681,-0.85407662,0.47853041,0
-3.6451175,1.7336509,-1.8073459,-0.97869962,-0.18987739,0.078060955,0
2.5695097,0.96670783,-1.6665967,0.97869962,0.18987739,-0.078060955,0
-2.5156562,5.0138931,-0.80027699,-0.20386681,0.85407662,-0.47853041,0
-1.2318974,-5.1697841,1.5344977,0.20386681,-0.85407662,0.47853041,0
-0.51134944,-3.466773,4.2840738,0.20386681,-0.85407662,0.47853041,0
-1.4704998,-1.7012055,4.8240547,-0.024192095,0.48425156,0.87459421,0
1.3576903,-0.55803347,4.396512,-0.024192095,0.48425156,0.87459421,0
-3.8905673,2.7331505,-1.8092866,-0.97869962,-0.18987739,0.078060955,0
-0.55518126,0.60705525,3.6255817,-0.024192095,0.48425156,0.87459421,0
-1.6620098,2.8752668,-4.5670066,-0.20386681,0.85407662,-0.47853041,0
3.3487816,0.40366983,3.0146761,0.97869962,0.18987739,-0.078060955,0
3.7951312,-4.3061204,0.17843771,0.97869962,0.18987739,-0.078060955,0
-2.6146853,-1.043576,1.8312275,-0.97869962,-0.18987739,0.078060955,0
-0.99882698,-3.5495815,4.3480129,0.20386681,-0.85407662,0.47853041,0
-3.5480874,2.125509,-1.4991767,-0.97869962,-0.18987739,0.078060955,0
3.5576081,-4.9686451,-1.1066575,0.024192095,-0.48425156,-0.87459421,0
3.0722775,0.14900017,0.078483462,0.97869962,0.18987739,-0.078060955,0
-0.79492664,4.917026,1.3187935,-0.024192095,0.48425156,0.87459421,0
-3.96561,3.1026859,-1.8282046,-0.97869962,-0.18987739,0.078060955,0
2.5761533,0.20656872,-3.5039034,0.97869962,0.18987739,-0.078060955,0
2.5624614,-4.8875947,-1.1978853,0.024192095,-0.48425156,-0.87459421,0
3.1464758,-1.2968347,-2.4713788,0.97869962,0.18987739,-0.078060955,0
-2.6140828,-1.1271857,1.9771206,-0.97869962,-0.18987739,0.078060955,0
1.874922,0.28412342,3.8981254,-0.024192095,0.48425156,0.87459421,0
0.32470334,4.0798044,-3.0371435,-0.20386681,0.85407662,-0.47853041,0
3.1521649,-1.5831361,-1.3969766,0.97869962,0.18987739,-0.078060955,0
0.064118862,4.9367342,-1.8478267,-0.20386681,0.85407662,-0.47853041,0
3.0098047,-0.623896,-0.51813114,0.97869962,0.18987739,-0.078060955,0
-3.9634111,2.7076459,-2.6604946,-0.97869962,-0.18987739,0.078060955,0
-0.24169588,-3.543601,-2.0058031,0.024192095,-0.48425156,-0.87459421,0
3.4266005,-2.481868,-0.01306963,0.97869962,0.18987739,-0.078060955,0
0.55131769,-5.5315666,0.39368486,0.20386681,-0.85407662,0.47853041,0
-1.0967562,-4.2084966,3.2557735,0.20386681,-0.85407662,0.47853041,0
-2.1084652,-4.3577256,1.7788507,-0.97869962,-0.18987739,0.078060955,0
-2.5400662,1.7231414,2.9883738,-0.024192095,0.48425156,0.87459421,0
-0.91293383,-5.3892922,1.1086702,0.20386681,-0.85407662,0.47853041,0
-3.5244422,2.7447515,0.13799477,-0.97869962,-0.18987739,0.078060955,0
-0.8373487,0.37566942,3.7831726,-0.024192095,0.48425156,0.87459421,0
-1.9461999,0.49723035,3.5687213,-0.024192095,0.48425156,0.87459421,0
-2.9702501,3.8526165,-2.186065,-0.20386681,0.85407662,-0.47853041,0
-3.0250165,0.25962973,-0.17652011,-0.97869962,-0.18987739,0.078060955,0
-2.7698436,-0.14482999,-3.9727294,0.024192095,-0.48425156,-0.87459421,0
-2.4625864,0.20882177,-4.1172562,0.024192095,-0.48425156,-0.87459421,0
0.37854958,-5.5787416,-0.67399025,0.024192095,-0.48425156,-0.87459421,0
-3.6226478,0.60700989,-3.5823731,-0.97869962,-0.18987739,0.078060955,0
2.2790346,0.65855169,3.8376923,-0.024192095,0.48425156,0.87459421,0
2.3864784,2.1917651,2.8849986,-0.024192095,0.48425156,0.87459421,0
-2.5045443,-1.9498196,-3.0179529,0.024192095,-0.48425156,-0.87459421,0
1.9730465,1.8255811,3.1321576,-0.024192095,0.48425156,0.87459421,0
1.9744159,1.3186512,3.4510159,-0.024192095,0.48425156,0.87459421,0
1.085568,-5.2098708,0.46453929,0.20386681,-0.85407662,0.47853041,0
2.2543993,4.5162878,0.080094635,0.97869962,0.18987739,-0.078060955,0
1.7285199,-5.6794782,-0.81315017,0.20386681,-0.85407662,0.47853041,0
-2.2464693,-5.0320482,-0.51283634,-0.97869962,-0.18987739,0.078060955,0
2.9222815,1.240154,1.4543326,0.97869962,0.18987739,-0.078060955,0
-2.9604788,-0.57974744,-2.6273735,-0.97869962,-0.18987739,0.078060955,0
1.663589,-4.1560545,2.1141717,0.20386681,-0.85407662,0.47853041,0
-0.33198214,-6.2269783,-0.30014229,0.20386681,-0.85407662,0.47853041,0
2.2340412,-2.9372234,-2.2857983,0.024192095,-0.48425156,-0.87459421,0
-1.3339366,-4.7730474,2.5556822,0.20386681,-0.85407662,0.47853041,0
1.2864575,2.3725743,2.7064626,-0.024192095,0.48425156,0.87459421,0
3.8789973,-5.3121452,-0.97178364,0.024192095,-0.48425156,-0.87459421,0
3.1002154,1.0649593,1.0727291,0.97869962,0.18987739,-0.078060955,0
2.4289541,3.4842906,-1.587206,0.97869962,0.18987739,-0.078060955,0
-1.8791935,-2.9801142,5.6175642,-0.024192095,0.48425156,0.87459421,0
1.876864,3.6645343,-4.5130534,-0.20386681,0.85407662,-0.47853041,0
3.4450703,-0.49590588,1.866976,0.97869962,0.18987739,-0.078060955,0
-1.3303947,3.9560223,-2.9725299,-0.20386681,0.85407662,-0.47853041,0
2.8626554,-3.7607272,2.6788135,0.20386681,-0.85407662,0.47853041,0
-2.4889829,-1.3309916,2.951015,-0.97869962,-0.18987739,0.078060955,0
-2.9984543,3.1201036,-3.5770133,-0.20386681,0.85407662,-0.47853041,0
-1.6249435,-1.5596638,4.7106657,-0.024192095,0.48425156,0.87459421,0
-3.3380911,1.1160572,-1.0469465,-0.97869962,-0.18987739,0.078060955,0
0.16117764,-5.8341942,-0.25111127,0.20386681,-0.85407662,0.47853041,0
0.12074637,1.9714689,2.7792947,-0.024192095,0.48425156,0.87459421,0
3.0100837,-4.6699085,-1.2533207,0.024192095,-0.48425156,-0.87459421,0
-2.1678743,5.1137466,-0.51743698,-0.20386681,0.85407662,-0.47853041,0
3.3128722,-4.7963505,0.45863152,0.20386681,-0.85407662,0.47853041,0
2.6659451,0.43860722,-1.6779026,0.97869962,0.18987739,-0.078060955,0
-1.2186394,5.6074228,-0.30917263,-0.20386681,0.85407662,-0.47853041,0
3.3354347,-2.2936873,4.5899115,0.20386681,-0.85407662,0.47853041,0
2.5993767,3.425653,0.20869857,0.97869962,0.18987739,-0.078060955,0
4.0137424,-2.6807446,3.4981012,0.97869962,0.18987739,-0.078060955,0
2.2568071,-3.6519291,3.2096379,0.20386681,-0.85407662,0.47853041,0
-1.9061579,-3.7470362,3.4151707,-0.97869962,-0.18987739,0.078060955,0
3.8014688,-3.7751677,0.99930191,0.97869962,0.18987739,-0.078060955,0
1.6457748,-2.9522095,4.5461421,0.20386681,-0.85407662,0.47853041,0
3.4995055,-2.986167,0.70446205,0.97869962,0.18987739,-0.078060955,0
-3.8812428,1.7133114,-4.0045443,-0.97869962,-0.18987739,0.078060955,0
-0.84984374,-3.1324756,-2.3661573,0.024192095,-0.48425156,-0.87459421,0
-0.62115049,4.5305204,1.4836948,-0.024192095,0.48425156,0.87459421,0
1.7870102,-5.2150373,0.63641477,0.20386681,-0.85407662,0.47853041,0
2.742758,-0.5124293,-3.0007873,0.97869962,0.18987739,-0.078060955,0
-1.7671378,-0.34671068,-3.9615622,0.024192095,-0.48425156,-0.87459421,0
2.9783721,0.68422627,3.6241472,-0.024192095,0.48425156,0.87459421,0
-3.7615876,4.0773821,0.51669097,-0.97869962,-0.18987739,0.078060955,0
-0.79903364,2.3154569,-5.2900372,0.024192095,-0.48425156,-0.87459421,0
3.3640201,0.76753426,3.3069942,0.97869962,0.18987739,-0.078060955,0
3.7371988,-3.9236174,1.5990515,0.20386681,-0.85407662,0.47853041,0
-3.8412995,2.8006668,-0.50108624,-0.97869962,-0.18987739,0.078060955,0
1.4006777,5.6860476,-0.86076069,-0.20386681,0.85407662,-0.47853041,0
-1.0079813,5.5917616,0.87255502,-0.024192095,0.48425156,0.87459421,0
-2.5500536,5.2351308,0.83981276,-0.024192095,0.48425156,0.87459421,0
-1.8645489,-2.7292655,-2.5904374,0.024192095,-0.48425156,-0.87459421,0
2.2035434,2.8086991,-2.0615158,0.97869962,0.18987739,-0.078060955,0
-1.3233919,-1.650203,-3.182308,0.024192095,-0.48425156,-0.87459421,0
-0.74340391,6.0430908,0.65106893,-0.20386681,0.85407662,-0.47853041,0
2.1679788,0.29350662,4.0340729,-0.024192095,0.48425156,0.87459421,0
-0.079528332,-4.2426987,-1.7619195,0.024192095,-0.48425156,-0.87459421,0
2.5513492,-5.2562904,-1.165556,0.024192095,-0.48425156,-0.87459421,0
-2.0028129,4.2287998,-1.7246439,-0.20386681,0.85407662,-0.47853041,0
-2.212539,-2.9405761,4.0415359,-0.97869962,-0.18987739,0.078060955,0
0.0036325455,4.0289283,1.8214843,-0.024192095,0.48425156,0.87459421,0
2.2924817,4.0757265,1.6643007,-0.024192095,0.48425156,0.87459421,0
-0.21726084,-6.1520977,-0.46133661,0.024192095,-0.48425156,-0.87459421,0
-1.2949647,-3.5212677,4.4187627,0.20386681,-0.85407662,0.47853041,0
-3.2279184,1.1329867,0.55100775,-0.97869962,-0.18987739,0.078060955,0
2.5702777,3.1086516,0.81155658,0.97869962,0.18987739,-0.078060955,0
-1.307122,-5.2789621,1.8348325,0.20386681,-0.85407662,0.47853041,0
-1.1593995,-5.2497978,1.3382409,0.20386681,-0.85407662,0.47853041,0
-2.1726811,2.3659439,2.7022901,-0.024192095,0.48425156,0.87459421,0
-0.80429482,-1.7738067,-3.1994061,0.024192095,-0.48425156,-0.87459421,0
-3.3898549,1.2878628,-2.038691,-0.97869962,-0.18987739,0.078060955,0
1.1258883,2.2156427,2.9572558,-0.024192095,0.48425156,0.87459421,0
-2.8361573,-1.8126945,0.15848905,-0.97869962,-0.18987739,0.078060955,0
-2.5418005,-1.5701331,1.4346912,-0.97869962,-0.18987739,0.078060955,0
0.52008772,5.4600616,-0.87155962,-0.20386681,0.85407662,-0.47853041,0
-2.7065754,3.1516154,-3.3296044,-0.20386681,0.85407662,-0.47853041,0
3.446156,-1.5082303,-0.79541469,0.97869962,0.18987739,-0.078060955,0
1.7440717,3.5657473,2.1808701,-0.024192095,0.48425156,0.87459421,0
3.568908,-2.8088896,4.0567808,0.20386681,-0.85407662,0.47853041,0
2.2583098,-4.8458815,-1.3324816,0.024192095,-0.48425156,-0.87459421,0
-2.5147684,-1.2522631,2.7967064,-0.97869962,-0.18987739,0.078060955,0
-1.5334506,-6.7055483,-0.53227997,0.20386681,-0.85407662,0.47853041,0
2.4971669,-3.6459887,3.0063198,0.20386681,-0.85407662,0.47853041,0
1.2363851,4.8317318,-2.1397083,-0.20386681,0.85407662,-0.47853041,0
0.73617387,-4.9640212,1.2120779,0.20386681,-0.85407662,0.47853041,0
0.74198508,0.45140529,3.6621814,-0.024192095,0.48425156,0.87459421,0
-1.2023926,2.9351768,2.5282059,-0.024192095,0.48425156,0.87459421,0
-2.6626713,-2.3463955,-2.8842645,0.024192095,-0.48425156,-0.87459421,0
0.96466088,-2.7430446,-2.3416672,0.024192095,-0.48425156,-0.87459421,0
2.2091336,3.9728198,0.24969983,0.97869962,0.18987739,-0.078060955,0
-2.1116161,3.887413,1.7730999,-0.024192095,0.48425156,0.87459421,0
-0.380548,5.6475873,0.20438218,-0.20386681,0.85407662,-0.47853041,0
-3.5858231,4.8955441,-0.48566055,-0.20386681,0.85407662,-0.47853041,0
3.5048089,-1.241591,2.1704204,0.97869962,0.18987739,-0.078060955,0
-0.81641245,5.6313443,0.88709879,-0.024192095,0.48425156,0.87459421,0
-0.48239833,2.995631,-4.8042789,-0.20386681,0.85407662,-0.47853041,0
0.23931646,4.9614329,-1.3626444,-0.20386681,0.85407662,-0.47853041,0
-3.2671769,2.4092536,-5.1675687,-0.20386681,0.85407662,-0.47853041,0
2.6067173,0.32676351,-3.9302781,0.024192095,-0.48425156,-0.87459421,0
0.74481106,-5.7225218,-0.10520196,0.20386681,-0.85407662,0.47853041,0
2.7787428,1.6923661,-0.45939314,0.97869962,0.18987739,-0.078060955,0
-1.0027217,-3.7362483,4.4419966,0.20386681,-0.85407662,0.47853041,0
0.72040236,-0.51097548,4.4485002,-0.024192095,0.48425156,0.87459421,0
-2.3695734,-3.1472483,-2.3320775,0.024192095,-0.48425156,-0.87459421,0
-3.6054223,2.5543165,1.3174882,-0.97869962,-0.18987739,0.078060955,0
-1.1953473,1.705418,-5.070375,0.024192095,-0.48425156,-0.87459421,0
3.7824147,-4.6807375,0.065672874,0.97869962,0.18987739,-0.078060955,0
-2.2732568,-2.6212163,4.5499349,-0.97869962,-0.18987739,0.078060955,0
0.12990165,-0.039181352,4.0296636,-0.024192095,0.48425156,0.87459421,0
3.7112985,-3.2418621,2.7607992,0.20386681,-0.85407662,0.47853041,0
3.0095232,-0.38595033,-0.54653668,0.97869962,0.18987739,-0.078060955,0
2.1328378,0.31030798,3.8593292,-0.024192095,0.48425156,0.87459421,0
3.5514927,-3.8194857,-1.6701086,0.97869962,0.18987739,-0.078060955,0
-2.0541532,-3.3299282,-2.0414922,0.024192095,-0.48425156,-0.87459421,0
-1.5892668,5.2127199,0.86151814,-0.024192095,0.48425156,0.87459421,0
-0.92936659,-5.5962191,-0.98800969,0.024192095,-0.48425156,-0.87459421,0
1.8409953,4.3549676,-3.0709381,0.97869962,0.18987739,-0.078060955,0
3.0117905,2.0058689,2.0768538,0.97869962,0.18987739,-0.078060955,0
2.5306964,-3.4185078,3.1364353,0.20386681,-0.85407662,0.47853041,0
3.3497863,-1.14571,1.2440147,0.97869962,0.18987739,-0.078060955,0
0.47540879,-4.3124871,2.5163755,0.20386681,-0.85407662,0.47853041,0
-0.16685295,5.5986218,0.79077983,-0.024192095,0.48425156,0.87459421,0
0.065120697,-5.1870465,0.95581675,0.20386681,-0.85407662,0.47853041,0
-2.6400521,-0.72449946,1.6546518,-0.97869962,-0.18987739,0.078060955,0
1.054516,-2.8290565,5.3149719,0.20386681,-0.85407662,0.47853041,0
0.58392763,-5.7353778,-0.0063955784,0.20386681,-0.85407662,0.47853041,0
-2.9957597,4.0596895,1.6994133,-0.024192095,0.48425156,0.87459421,0
0.15540743,6.1607127,0.20260429,-0.20386681,0.85407662,-0.47853041,0
2.8859527,1.301023,1.4174881,0.97869962,0.18987739,-0.078060955,0
0.64829016,-5.8718929,-0.10928845,0.20386681,-0.85407662,0.47853041,0
-2.6071997,-2.30442,-0.21949768,-0.97869962,-0.18987739,0.078060955,0
-3.3651891,2.1509535,-4.825942,-0.20386681,0.85407662,-0.47853041,0
1.6686885,6.2651153,0.27545285,-0.20386681,0.85407662,-0.47853041,0
1.8187714,5.1289196,-1.6164336,0.97869962,0.18987739,-0.078060955,0
2.6220698,3.0050745,1.1485523,0.97869962,0.18987739,-0.078060955,0
-0.71516728,-2.9949932,5.626338,0.20386681,-0.85407662,0.47853041,0
-1.2336242,-0.12048075,4.195796,-0.024192095,0.48425156,0.87459421,0
2.0966146,4.7316732,-0.26042616,0.97869962,0.18987739,-0.078060955,0
1.7420065,1.5515749,3.0130177,-0.024192095,0.48425156,0.87459421,0
3.4007726,-5.3118515,-0.47963095,0.20386681,-0.85407662,0.47853041,0
0.96908855,-2.8202229,4.9064403,0.20386681,-0.85407662,0.47853041,0
-1.6165938,0.40313479,3.5718498,-0.024192095,0.48425156,0.87459421,0
-0.21526575,-2.3222694,-2.5274179,0.024192095,-0.48425156,-0.87459421,0
-0.44313955,-1.1261396,4.4677081,-0.024192095,0.48425156,0.87459421,0
0.046716213,-0.55770421,-3.6639662,0.024192095,-0.48425156,-0.87459421,0
-3.1273284,4.2154031,-1.7763171,-0.20386681,0.85407662,-0.47853041,0
-0.83308607,2.6017168,-5.1563869,-0.20386681,0.85407662,-0.47853041,0
1.1039164,3.8445485,1.9447975,-0.024192095,0.48425156,0.87459421,0
-3.0112462,4.6739998,1.4533494,-0.024192095,0.48425156,0.87459421,0
1.5240327,5.0336013,-2.4202394,-0.20386681,0.85407662,-0.47853041,0
2.0784969,1.7208581,3.222997,-0.024192095,0.48425156,0.87459421,0
-2.0856597,-0.37843609,-3.6295865,0.024192095,-0.48425156,-0.87459421,0
1.5016915,4.8613687,-2.2182951,-0.20386681,0.85407662,-0.47853041,0
-2.2420621,-2.8194294,3.2720416,-0.97869962,-0.18987739,0.078060955,0
-0.58662182,-3.5045514,4.1708899,0.20386681,-0.85407662,0.47853041,0
-1.6481869,-4.6181231,2.7979202,0.20386681,-0.85407662,0.47853041,0
-1.8222127,0.95711076,3.3408799,-0.024192095,0.48425156,0.87459421,0
-2.213963,-0.27532145,3.9892719,-0.024192095,0.48425156,0.87459421,0
-1.5567586,-1.6352301,4.9559135,-0.024192095,0.48425156,0.87459421,0
0.82087064,-2.7282906,-2.3857677,0.024192095,-0.48425156,-0.87459421,0
-1.8256059,2.6541572,2.468451,-0.024192095,0.48425156,0.87459421,0
-3.4953573,1.1326978,-1.4713647,-0.97869962,-0.18987739,0.078060955,0
3.1895106,1.1718652,2.7484066,0.97869962,0.18987739,-0.078060955,0
3.8766508,-2.6794584,3.2355208,0.97869962,0.18987739,-0.078060955,0
1.4076769,0.063251495,3.9063907,-0.024192095,0.48425156,0.87459421,0
0.67289543,-4.2412114,-1.4175069,0.024192095,-0.48425156,-0.87459421,0
0.024441659,3.0194397,-4.6987934,-0.20386681,0.85407662,-0.47853041,0
2.0364199,2.7120275,-5.3137941,0.97869962,0.18987739,-0.078060955,0
-2.9813621,4.9946656,-0.072581291,-0.20386681,0.85407662,-0.47853041,0
2.8311601,0.12555981,-3.645577,0.97869962,0.18987739,-0.078060955,0
3.5149443,-1.6622055,2.2333257,0.97869962,0.18987739,-0.078060955,0
0.099487543,0.29411209,3.9785485,-0.024192095,0.48425156,0.87459421,0
-0.3825984,2.7020996,-5.3649535,0.024192095,-0.48425156,-0.87459421,0
-1.4559917,1.636987,3.1932673,-0.024192095,0.48425156,0.87459421,0
-3.0502491,-0.27517176,-2.678648,-0.97869962,-0.18987739,0.078060955,0
-1.7652678,3.8363864,-2.6192713,-0.20386681,0.85407662,-0.47853041,0
-0.501706,-4.6248713,2.010474,0.20386681,-0.85407662,0.47853041,0
2.5145497,-2.708936,-2.6530724,0.024192095,-0.48425156,-0.87459421,0
-1.4283651,-2.6959534,5.3224597,-0.024192095,0.48425156,0.87459421,0
2.4855332,3.2217994,0.28355873,0.97869962,0.18987739,-0.078060955,0
-0.94614124,-4.6547394,-1.661496,0.024192095,-0.48425156,-0.87459421,0
0.27326202,-5.8319225,-0.42530155,0.20386681,-0.85407662,0.47853041,0
1.8941183,3.7790184,-4.8923898,-0.20386681,0.85407662,-0.47853041,0
2.3590903,4.7305117,0.4884057,0.97869962,0.18987739,-0.078060955,0
3.3699222,0.10478258,3.5930729,0.97869962,0.18987739,-0.078060955,0
-1.235836,5.6165118,-0.17011237,-0.20386681,0.85407662,-0.47853041,0
1.3352976,5.3879256,1.2013309,-0.024192095,0.48425156,0.87459421,0
0.96932185,3.5983274,-4.3034596,-0.20386681,0.85407662,-0.47853041,0
2.1036015,-4.0062056,-1.7005827,0.024192095,-0.48425156,-0.87459421,0
-2.1667545,-4.0402913,-0.11089051,-0.97869962,-0.18987739,0.078060955,0
-2.7282796,0.69628102,3.5522695,-0.024192095,0.48425156,0.87459421,0
2.882561,-1.0747387,-2.9670491,0.97869962,0.18987739,-0.078060955,0
-1.4351292,4.6080203,1.3790656,-0.024192095,0.48425156,0.87459421,0
2.0484345,0.11813813,-3.7942038,0.024192095,-0.48425156,-0.87459421,0
-1.6492691,0.65524435,-4.4303961,0.024192095,-0.48425156,-0.87459421,0
1.4070187,6.2370024,0.59379256,-0.024192095,0.48425156,0.87459421,0
-3.4718523,5.4087725,0.43374825,-0.20386681,0.85407662,-0.47853041,0
2.9400845,-0.17157364,0.0022294521,0.97869962,0.18987739,-0.078060955,0
-3.8287952,3.4318855,-0.56100869,-0.97869962,-0.18987739,0.078060955,0
-1.8077793,-0.75822872,4.2988567,-0.024192095,0.48425156,0.87459421,0
-0.57740188,4.1672363,-3.1765347,-0.20386681,0.85407662,-0.47853041,0
2.1784248,5.0825534,-0.79232752,0.97869962,0.18987739,-0.078060955,0
-3.2425568,-1.1751025,-2.6837492,-0.97869962,-0.18987739,0.078060955,0
2.260314,-1.072768,4.4322529,-0.024192095,0.48425156,0.87459421,0
2.7303054,2.7953429,0.18615919,0.97869962,0.18987739,-0.078060955,0
3.0928171,-0.73780406,-0.37880301,0.97869962,0.18987739,-0.078060955,0
-2.3234854,-2.9394424,4.6834106,-0.97869962,-0.18987739,0.078060955,0
0.26677895,5.7359514,-0.12445354,-0.20386681,0.85407662,-0.47853041,0
1.0680091,-4.7404604,1.387815,0.20386681,-0.85407662,0.47853041,0
-2.1478505,-0.026748419,3.8458304,-0.024192095,0.48425156,0.87459421,0
-0.64986438,-3.3044336,4.8376169,0.20386681,-0.85407662,0.47853041,0
-0.34403372,5.8078671,0.169379,-0.20386681,0.85407662,-0.47853041,0
3.3289914,-3.1158178,-2.1694961,0.024192095,-0.48425156,-0.87459421,0
-3.4174523,3.6149101,1.8136714,-0.024192095,0.48425156,0.87459421,0
-2.0128105,-5.0158296,1.7091727,-0.97869962,-0.18987739,0.078060955,0
-2.4148278,-1.3732767,-3.3063874,0.024192095,-0.48425156,-0.87459421,0
-3.810688,3.7071483,-2.1254292,-0.20386681,0.85407662,-0.47853041,0
3.0502968,1.1126211,1.6885102,0.97869962,0.18987739,-0.078060955,0
1.9866595,-0.082479015,-3.9901559,0.024192095,-0.48425156,-0.87459421,0
-3.6399941,1.7057471,-1.8467088,-0.97869962,-0.18987739,0.078060955,0
1.742498,-4.0658164,2.128617,0.20386681,-0.85407662,0.47853041,0
-2.3622074,-2.8793476,-2.3332171,0.024192095,-0.48425156,-0.87459421,0
-3.2132144,0.17682409,-3.5235586,-0.97869962,-0.18987739,0.078060955,0
-0.24299979,-0.55327296,4.5277104,-0.024192095,0.48425156,0.87459421,0
1.4164181,4.2355108,-3.7454081,-0.20386681,0.85407662,-0.47853041,0
3.240042,0.028748512,3.8428087,0.97869962,0.18987739,-0.078060955,0
-2.2985346,-2.8002734,2.5323365,-0.97869962,-0.18987739,0.078060955,0
-1.1004329,2.2707002,2.4981503,-0.024192095,0.48425156,0.87459421,0
-0.36454248,-3.9862633,-1.8663985,0.024192095,-0.48425156,-0.87459421,0
-0.85010338,2.6738169,-5.1448646,-0.20386681,0.85407662,-0.47853041,0
3.5005829,0.29460764,3.6389401,0.97869962,0.18987739,-0.078060955,0
-2.8718233,3.2588201,2.1529191,-0.024192095,0.48425156,0.87459421,0
2.2577121,3.3701437,-1.9008627,0.97869962,0.18987739,-0.078060955,0
-3.375751,2.5125778,-0.33591962,-0.97869962,-0.18987739,0.078060955,0
2.9282146,-0.9270041,-3.5008774,0.024192095,-0.48425156,-0.87459421,0
-2.5989647,2.5248225,-5.0891829,-0.20386681,0.85407662,-0.47853041,0
-2.2043271,4.5075893,-1.8248329,-0.20386681,0.85407662,-0.47853041,0
1.5629072,-2.0219529,-2.7112925,0.024192095,-0.48425156,-0.87459421,0
2.7004066,0.30509901,-1.6912452,0.97869962,0.18987739,-0.078060955,0
-1.1637166,-1.0891018,-3.341917,0.024192095,-0.48425156,-0.87459421,0
-1.1969824,3.6919482,1.8376122,-0.024192095,0.48425156,0.87459421,0
-2.8414705,-0.48261213,0.21751189,-0.97869962,-0.18987739,0.078060955,0
0.9234643,5.5124993,0.8241837,-0.024192095,0.48425156,0.87459421,0
-1.4426601,-2.1676266,5.2232084,-0.024192095,0.48425156,0.87459421,0
2.3794241,3.7317843,0.32496351,0.97869962,0.18987739,-0.078060955,0
1.8341984,-2.3967209,5.0981908,0.20386681,-0.85407662,0.47853041,0
3.3896577,-1.1099448,0.0092821121,0.97869962,0.18987739,-0.078060955,0
-3.3129845,2.9719446,2.1217165,-0.024192095,0.48425156,0.87459421,0
-3.039634,-1.5216565,-1.4160208,-0.97869962,-0.18987739,0.078060955,0
1.5398295,5.4961777,1.1850573,-0.024192095,0.48425156,0.87459421,0
1.3376497,0.47847104,3.5510881,-0.024192095,0.48425156,0.87459421,0
0.21997356,-5.9685178,-0.83069706,0.024192095,-0.48425156,-0.87459421,0
-0.16247511,-0.44236505,4.2266707,-0.024192095,0.48425156,0.87459421,0
-3.518662,1.9427407,1.1153651,-0.97869962,-0.18987739,0.078060955,0
2.2052681,-0.082186073,-3.8359985,0.024192095,-0.48425156,-0.87459421,0
-2.7133636,4.2464786,-1.5479755,-0.20386681,0.85407662,-0.47853041,0
-3.7659874,3.7221012,-1.9903979,-0.20386681,0.85407662,-0.47853041,0
-1.0503849,-4.8378506,2.1855474,0.20386681,-0.85407662,0.47853041,0
1.8242574,-5.8033943,-0.49758673,0.20386681,-0.85407662,0.47853041,0
0.15889895,4.1368952,-2.9657416,-0.20386681,0.85407662,-0.47853041,0
-1.2999644,-6.4514761,-0.55573773,0.20386681,-0.85407662,0.47853041,0
2.2930579,-5.2693596,-1.0921803,0.024192095,-0.48425156,-0.87459421,0
3.7951245,-2.1867588,1.6173053,0.97869962,0.18987739,-0.078060955,0
3.425154,-1.0976462,4.648632,-0.024192095,0.48425156,0.87459421,0
3.522666,-1.1774583,3.9259751,0.97869962,0.18987739,-0.078060955,0
3.746038,-3.7949739,-1.9303782,0.024192095,-0.48425156,-0.87459421,0
-0.96414781,-4.8013077,2.6207342,0.20386681,-0.85407662,0.47853041,0
2.5001242,1.6324527,-1.3988392,0.97869962,0.18987739,-0.078060955,0
-0.33707419,-3.3125696,4.7593579,0.20386681,-0.85407662,0.47853041,0
0.059942722,5.9929318,-0.17934966,-0.20386681,0.85407662,-0.47853041,0
1.0536795,6.092999,0.51115584,-0.024192095,0.48425156,0.87459421,0
1.8490617,2.637995,2.606348,-0.024192095,0.48425156,0.87459421,0
-2.7176216,3.8418462,-2.5546815,-0.20386681,0.85407662,-0.47853041,0
2.7084007,2.1941416,2.8359382,0.97869962,0.18987739,-0.078060955,0
-3.053118,0.27376962,0.076092601,-0.97869962,-0.18987739,0.078060955,0
0.75094342,-0.54714608,-3.7298136,0.024192095,-0.48425156,-0.87459421,0
3.4827712,-4.970242,0.5076232,0.20386681,-0.85407662,0.47853041,0
-0.9291569,3.9496505,-3.1361887,-0.20386681,0.85407662,-0.47853041,0
-1.2153513,-0.69344616,-3.7088885,0.024192095,-0.48425156,-0.87459421,0
1.3105953,4.921689,-2.1609445,-0.20386681,0.85407662,-0.47853041,0
-0.63278008,-5.0731354,1.8346744,0.20386681,-0.85407662,0.47853041,0
-2.8449512,-1.2443495,-1.4496192,-0.97869962,-0.18987739,0.078060955,0
-0.30905101,-3.9372158,3.6584013,0.20386681,-0.85407662,0.47853041,0
3.9121318,-2.1235154,3.9376545,0.97869962,0.18987739,-0.078060955,0
3.7293103,-4.1614003,0.54757309,0.97869962,0.18987739,-0.078060955,0
-0.22230929,2.7926211,-5.0506744,-0.20386681,0.85407662,-0.47853041,0
0.58333588,0.42713737,3.6207597,-0.024192095,0.48425156,0.87459421,0
-2.2815146,-0.52663279,4.0635471,-0.024192095,0.48425156,0.87459421,0
3.2034311,-1.3928857,4.8897157,-0.024192095,0.48425156,0.87459421,0
-1.1577055,-1.2642179,-3.5396695,0.024192095,-0.48425156,-0.87459421,0
0.54485011,2.7815371,2.4347353,-0.024192095,0.48425156,0.87459421,0
-0.9920156,-5.4733944,1.4652677,0.20386681,-0.85407662,0.47853041,0
1.8979163,6.0872097,-0.15794444,-0.20386681,0.85407662,-0.47853041,0
-2.3926136,-2.1250927,1.1302196,-0.97869962,-0.18987739,0.078060955,0
3.01285,-0.28452194,-3.0863488,0.97869962,0.18987739,-0.078060955,0
2.5435801,1.1826007,-3.0806303,0.97869962,0.18987739,-0.078060955,0
2.9041061,0.56648052,-3.1371169,0.97869962,0.18987739,-0.078060955,0
-0.84341556,2.4884846,-5.3843684,0.024192095,-0.48425156,-0.87459421,0
0.81748962,-1.5813968,-3.3063297,0.024192095,-0.48425156,-0.87459421,0
-2.9536877,-0.38595104,-3.8567417,0.024192095,-0.48425156,-0.87459421,0
3.4410834,-3.4343328,2.7039526,0.20386681,-0.85407662,0.47853041,0
2.1623082,2.9265728,-2.6346169,0.97869962,0.18987739,-0.078060955,0
-2.7199078,-2.5518935,-0.035472766,-0.97869962,-0.18987739,0.078060955,0
0.14115345,-2.6736543,5.3289185,-0.024192095,0.48425156,0.87459421,0
-1.0055594,4.739459,-1.5823681,-0.20386681,0.85407662,-0.47853041,0
1.2705978,3.2923219,-5.4311209,-0.20386681,0.85407662,-0.47853041,0
2.6821091,-3.7009592,3.0810061,0.20386681,-0.85407662,0.47853041,0
-2.0918379,-3.5291805,-2.3225121,0.024192095,-0.48425156,-0.87459421,0
2.3189709,2.6657424,-3.3923595,0.97869962,0.18987739,-0.078060955,0
3.0859022,-5.1153107,0.15399122,0.20386681,-0.85407662,0.47853041,0
1.839399,-3.0090039,4.7002363,0.20386681,-0.85407662,0.47853041,0
0.49993753,-4.9923635,1.0526135,0.20386681,-0.85407662,0.47853041,0
-2.6965737,3.3768122,2.2376292,-0.024192095,0.48425156,0.87459421,0
-3.0218301,0.44049501,0.12127614,-0.97869962,-0.18987739,0.078060955,0
-2.0214117,-3.9953389,1.6224833,-0.97869962,-0.18987739,0.078060955,0
-1.5899696,3.9578414,-2.9748676,-0.20386681,0.85407662,-0.47853041,0
1.3874962,3.1319695,-5.2416105,-0.20386681,0.85407662,-0.47853041,0
-2.2303796,-5.4933214,-0.63790953,-0.97869962,-0.18987739,0.078060955,0
1.3731756,-5.6639466,-0.40457129,0.20386681,-0.85407662,0.47853041,0
1.0794959,-5.0074039,-1.1912649,0.024192095,-0.48425156,-0.87459421,0
-3.2202818,-0.3026247,-3.1814489,-0.97869962,-0.18987739,0.078060955,0
-1.1505885,4.9476633,-0.73075604,-0.20386681,0.85407662,-0.47853041,0
3.7787981,-4.0730014,1.9774013,0.20386681,-0.85407662,0.47853041,0
3.608887,-2.6963115,4.4464817,0.20386681,-0.85407662,0.47853041,0
-1.2607782,2.1780639,2.6681211,-0.024192095,0.48425156,0.87459421,0
-2.484921,3.5606589,-2.7656543,-0.20386681,0.85407662,-0.47853041,0
2.0016093,5.2463832,-0.37278295,0.97869962,0.18987739,-0.078060955,0
3.4066076,-3.9608467,2.2654572,0.20386681,-0.85407662,0.47853041,0
-3.4996052,3.9188652,-1.7468131,-0.20386681,0.85407662,-0.47853041,0
2.1189153,3.1695659,-3.9681602,0.97869962,0.18987739,-0.078060955,0
2.2785594,-0.59204805,-3.5819316,0.024192095,-0.48425156,-0.87459421,0
-2.9959557,-1.0946088,-2.4700456,-0.97869962,-0.18987739,0.078060955,0
-0.027180314,-4.1101923,3.369411,0.20386681,-0.85407662,0.47853041,0
0.26312685,0.91067225,-4.5334954,0.024192095,-0.48425156,-0.87459421,0
1.5506264,4.1115055,-3.864151,-0.20386681,0.85407662,-0.47853041,0
-2.311029,2.6949463,-4.3150401,-0.20386681,0.85407662,-0.47853041,0
-2.2069018,-3.0443244,1.4790084,-0.97869962,-0.18987739,0.078060955,0
0.53399467,4.1635671,-3.0062366,-0.20386681,0.85407662,-0.47853041,0
-1.4178455,3.297076,-3.8293514,-0.20386681,0.85407662,-0.47853041,0
-1.9153141,3.3701856,-3.210758,-0.20386681,0.85407662,-0.47853041,0
3.3340058,-1.4101312,2.4079838,0.97869962,0.18987739,-0.078060955,0
3.1528955,-1.8509399,-2.1918075,0.97869962,0.18987739,-0.078060955,0
2.2232389,4.5749178,-1.9080408,0.97869962,0.18987739,-0.078060955,0
-2.0083923,5.6160145,0.87031293,-0.024192095,0.48425156,0.87459421,0
3.8260484,-3.8455822,1.5528011,0.97869962,0.18987739,-0.078060955,0
-1.7805059,5.0092812,-0.83995271,-0.20386681,0.85407662,-0.47853041,0
1.4583139,3.3632238,1.9681567,-0.024192095,0.48425156,0.87459421,0
-2.4653125,2.0627511,-5.2211914,0.024192095,-0.48425156,-0.87459421,0
0.19226909,-4.161438,2.6965065,0.20386681,-0.85407662,0.47853041,0
2.7573886,-5.2160864,-0.42820835,0.20386681,-0.85407662,0.47853041,0
2.4447339,1.0196866,-3.1566634,0.97869962,0.18987739,-0.078060955,0
-0.054174423,4.7483463,-1.9670854,-0.20386681,0.85407662,-0.47853041,0
-2.5187547,-3.5397592,-1.0286093,-0.97869962,-0.18987739,0.078060955,0
3.2483335,1.0399418,2.2923536,0.97869962,0.18987739,-0.078060955,0
0.28487727,-3.3582189,4.5692415,0.20386681,-0.85407662,0.47853041,0
3.06283,-0.74120629,-0.20620108,0.97869962,0.18987739,-0.078060955,0
-1.2840322,-3.5651426,4.6384754,0.20386681,-0.85407662,0.47853041,0
-3.2865508,0.92108536,-0.027652502,-0.97869962,-0.18987739,0.078060955,0
3.7786586,-2.2326958,2.3302913,0.97869962,0.18987739,-0.078060955,0
1.9719331,5.488965,-0.95758772,0.97869962,0.18987739,-0.078060955,0
3.809885,-5.2542934,-0.85479212,0.20386681,-0.85407662,0.47853041,0
2.5059512,3.0801599,0.87214363,0.97869962,0.18987739,-0.078060955,0
-2.5972328,-0.019490719,-3.856863,0.024192095,-0.48425156,-0.87459421,0
-1.7259016,-3.5955563,5.0053577,0.20386681,-0.85407662,0.47853041,0
-3.3691897,2.4440773,-4.502202,-0.20386681,0.85407662,-0.47853041,0
1.0383132,0.40824366,3.6490805,-0.024192095,0.48425156,0.87459421,0
1.10674,-3.1296601,4.7707582,0.20386681,-0.85407662,0.47853041,0
-1.6947795,-3.2338195,5.4959311,0.20386681,-0.85407662,0.47853041,0
2.3923602,0.051535845,4.2265673,-0.024192095,0.48425156,0.87459421,0
3.3252707,-5.4830613,-0.53520679,0.20386681,-0.85407662,0.47853041,0
2.6205776,1.8202958,0.57787102,0.97869962,0.18987739,-0.078060955,0
-1.9437301,0.19261782,4.0058103,-0.024192095,0.48425156,0.87459421,0
1.9954127,4.8814073,-2.9399829,-0.20386681,0.85407662,-0.47853041,0
1.3252071,3.1637576,-5.4722872,-0.20386681,0.85407662,-0.47853041,0
-3.092052,-0.42776394,-3.2905393,-0.97869962,-0.18987739,0.078060955,0
2.1405587,4.3868771,-2.3207078,0.97869962,0.18987739,-0.078060955,0
2.6935377,1.9125082,-0.12893993,0.97869962,0.18987739,-0.078060955,0
0.42901421,3.0563669,2.2662582,-0.024192095,0.48425156,0.87459421,0
-0.11316919,0.40399623,-4.2810855,0.024192095,-0.48425156,-0.87459421,0
0.20427465,4.0568318,1.855338,-0.024192095,0.48425156,0.87459421,0
-1.6285152,-3.0213251,-2.194906,0.024192095,-0.48425156,-0.87459421,0
2.1955955,-0.33158541,4.1486621,-0.024192095,0.48425156,0.87459421,0
3.5338554,-2.5872948,4.5012507,0.20386681,-0.85407662,0.47853041,0
-2.4693537,4.2984519,-1.8257284,-0.20386681,0.85407662,-0.47853041,0
3.8073559,-2.0487247,5.2311268,0.97869962,0.18987739,-0.078060955,0
2.1848004,3.9912295,-1.1787543,0.97869962,0.18987739,-0.078060955,0
1.9997623,-5.1045942,0.18191338,0.20386681,-0.85407662,0.47853041,0
2.5396223,4.2367392,1.4989692,0.97869962,0.18987739,-0.078060955,0
-1.6818099,5.5408616,0.1029098,-0.20386681,0.85407662,-0.47853041,0
-1.1394131,1.7079149,2.9999256,-0.024192095,0.48425156,0.87459421,0
2.1705029,3.3564563,-2.2068841,0.97869962,0.18987739,-0.078060955,0
0.63257217,-4.5308485,2.4701967,0.20386681,-0.85407662,0.47853041,0
2.7081566,-2.3791137,5.3607998,-0.024192095,0.48425156,0.87459421,0
-3.7862601,2.3671021,-4.5188313,-0.20386681,0.85407662,-0.47853041,0
3.7326531,-3.7039917,1.004936,0.97869962,0.18987739,-0.078060955,0
3.1090736,-4.5396075,0.76779652,0.20386681,-0.85407662,0.47853041,0
0.17217898,3.1246588,-5.1838856,-0.20386681,0.85407662,-0.47853041,0
3.6770661,-3.7504504,2.5558822,0.20386681,-0.85407662,0.47853041,0
-2.2824683,-3.5020168,1.3388525,-0.97869962,-0.18987739,0.078060955,0
1.0574083,-5.5303106,0.26072931,0.20386681,-0.85407662,0.47853041,0
2.507529,2.1421502,0.30473977,0.97869962,0.18987739,-0.078060955,0
-0.096337557,4.4417896,-2.2494893,-0.20386681,0.85407662,-0.47853041,0
2.3830647,4.6077065,0.98905808,0.97869962,0.18987739,-0.078060955,0
0.48019385,-0.55753958,4.4002085,-0.024192095,0.48425156,0.87459421,0
2.3976638,3.2046716,-2.667026,0.97869962,0.18987739,-0.078060955,0
-3.8377497,2.2582974,-1.6588087,-0.97869962,-0.18987739,0.078060955,0
-2.6412714,-2.9581642,0.28663707,-0.97869962,-0.18987739,0.078060955,0
0.28725398,1.9696882,-4.9071937,0.024192095,-0.48425156,-0.87459421,0
1.4628005,2.6210148,2.7679169,-0.024192095,0.48425156,0.87459421,0
-0.39845276,-3.868576,3.4704378,0.20386681,-0.85407662,0.47853041,0
-0.59369612,-4.0156951,-1.800186,0.024192095,-0.48425156,-0.87459421,0
-1.4359635,4.2329097,-2.2825875,-0.20386681,0.85407662,-0.47853041,0
-0.44982624,0.98855686,-4.6107197,0.024192095,-0.48425156,-0.87459421,0
1.9779921,4.0450153,1.6113445,-0.024192095,0.48425156,0.87459421,0
0.64601636,4.5752487,-2.3482146,-0.20386681,0.85407662,-0.47853041,0
2.1563408,4.8265481,-1.3689859,0.97869962,0.18987739,-0.078060955,0
0.68109775,-2.2963119,-2.5045826,0.024192095,-0.48425156,-0.87459421,0
0.92058885,-0.086502552,3.9682484,-0.024192095,0.48425156,0.87459421,0
-2.0740416,3.2932057,-3.7925065,-0.20386681,0.85407662,-0.47853041,0
-0.31051445,-4.8385968,-1.3963269,0.024192095,-0.48425156,-0.87459421,0
-1.367497,4.6737075,1.387841,-0.024192095,0.48425156,0.87459421,0
3.3139153,-1.2988389,-2.4873948,0.97869962,0.18987739,-0.078060955,0
-0.3610692,0.43066859,-4.0788388,0.024192095,-0.48425156,-0.87459421,0
2.5704372,2.9158802,-1.3282603,0.97869962,0.18987739,-0.078060955,0
1.4628069,0.77429163,-4.607101,0.024192095,-0.48425156,-0.87459421,0
3.5400333,-4.9975295,-0.19864368,0.20386681,-0.85407662,0.47853041,0
-1.0451159,-5.9745798,-0.06683898,0.20386681,-0.85407662,0.47853041,0
-2.5019283,-2.1611238,1.0796713,-0.97869962,-0.18987739,0.078060955,0
-3.1088152,1.9274864,2.1784058,-0.97869962,-0.18987739,0.078060955,0
-1.3544821,-3.0960526,5.5907216,0.20386681,-0.85407662,0.47853041,0
-2.8596108,-1.3572314,-1.599773,-0.97869962,-0.18987739,0.078060955,0
0.50886285,4.466959,-2.4075437,-0.20386681,0.85407662,-0.47853041,0
2.3698785,3.1950519,2.1445847,-0.024192095,0.48425156,0.87459421,0
1.9518173,5.1828642,0.7071718,0.97869962,0.18987739,-0.078060955,0
1.7321928,6.3496532,0.25733852,0.97869962,0.18987739,-0.078060955,0
3.6274366,-3.3822765,-1.2207813,0.97869962,0.18987739,-0.078060955,0
0.12325156,-2.8029058,5.6888065,-0.024192095,0.48425156,0.87459421,0
3.2811594,-3.8938739,1.8342669,0.20386681,-0.85407662,0.47853041,0
-3.5711653,2.6703229,1.1734636,-0.97869962,-0.18987739,0.078060955,0
-3.1656625,-0.5482657,-1.9065665,-0.97869962,-0.18987739,0.078060955,0
2.8494,0.32902861,-0.67282981,0.97869962,0.18987739,-0.078060955,0
2.8757989,0.89766455,-2.5305123,0.97869962,0.18987739,-0.078060955,0
-0.27272725,-2.9435356,5.4694242,0.20386681,-0.85407662,0.47853041,0
3.6050785,-3.3129706,-0.55176234,0.97869962,0.18987739,-0.078060955,0
-2.0898221,-5.3157139,-0.26175511,-0.97869962,-0.18987739,0.078060955,0
3.0881772,-5.4698863,-0.95418239,0.20386681,-0.85407662,0.47853041,0
-2.409008,-2.7214544,3.8642747,-0.97869962,-0.18987739,0.078060955,0
0.90227145,3.645915,-4.5403004,-0.20386681,0.85407662,-0.47853041,0
2.0233512,4.6798782,-1.4163439,0.97869962,0.18987739,-0.078060955,0
2.2480423,0.31183493,-4.2869654,0.024192095,-0.48425156,-0.87459421,0
3.1186042,0.02417016,2.6115055,0.97869962,0.18987739,-0.078060955,0
2.310215,4.0069151,1.3086481,0.97869962,0.18987739,-0.078060955,0
-2.9771733,4.5031395,-1.0102262,-0.20386681,0.85407662,-0.47853041,0
1.8944275,4.4987416,-3.2603064,0.97869962,0.18987739,-0.078060955,0
-3.3560014,1.0759554,0.18818545,-0.97869962,-0.18987739,0.078060955,0
0.044532418,-4.0921454,3.1047499,0.20386681,-0.85407662,0.47853041,0
0.25606966,1.5323685,3.1932461,-0.024192095,0.48425156,0.87459421,0
-1.1059715,-4.1923571,3.6090684,0.20386681,-0.85407662,0.47853041,0
1.1796682,3.7896008,1.8971245,-0.024192095,0.48425156,0.87459421,0
-3.2614689,1.5651276,-4.911972,0.024192095,-0.48425156,-0.87459421,0
2.3042369,-2.679477,4.4171572,0.20386681,-0.85407662,0.47853041,0
2.4284451,-3.5176044,2.9270434,0.20386681,-0.85407662,0.47853041,0
3.0644383,-0.19280124,-0.38831174,0.97869962,0.18987739,-0.078060955,0
-2.4258275,5.2604151,0.3578968,-0.20386681,0.85407662,-0.47853041,0
0.076334357,2.4422405,-5.3689909,0.024192095,-0.48425156,-0.87459421,0
1.1883534,4.4293399,-3.3919644,-0.20386681,0.85407662,-0.47853041,0
-2.9150267,-1.2219477,-2.0741715,-0.97869962,-0.18987739,0.078060955,0
2.6365192,-3.3938777,3.0906489,0.20386681,-0.85407662,0.47853041,0
0.56339192,-0.048326612,-3.7675676,0.024192095,-0.48425156,-0.87459421,0
2.5666215,0.45116377,4.0216274,-0.024192095,0.48425156,0.87459421,0
-1.3107691,2.2231874,2.6414549,-0.024192095,0.48425156,0.87459421,0
-2.5722132,-3.0747669,-0.035963453,-0.97869962,-0.18987739,0.078060955,0
0.48055649,6.0382819,0.47844768,-0.20386681,0.85407662,-0.47853041,0
-1.5640404,-2.8949106,-2.6469467,0.024192095,-0.48425156,-0.87459421,0
3.6115699,-1.9992468,2.5576956,0.97869962,0.18987739,-0.078060955,0
-1.4143596,0.54661816,3.5113583,-0.024192095,0.48425156,0.87459421,0
2.6063414,2.1888609,-2.7904992,0.97869962,0.18987739,-0.078060955,0
1.2811069,-4.2438149,2.6630735,0.20386681,-0.85407662,0.47853041,0
-3.4680271,4.4055452,-1.2044034,-0.20386681,0.85407662,-0.47853041,0
-2.4214001,-1.4477614,2.447108,-0.97869962,-0.18987739,0.078060955,0
-2.3168545,4.5932608,-1.4926524,-0.20386681,0.85407662,-0.47853041,0
1.5602942,3.3388469,-4.8219008,-0.20386681,0.85407662,-0.47853041,0
2.6308389,3.226939,1.3449557,0.97869962,0.18987739,-0.078060955,0
-1.6232407,-1.9639399,-3.0037565,0.024192095,-0.48425156,-0.87459421,0
-3.9068661,3.4922264,-1.2377226,-0.97869962,-0.18987739,0.078060955,0
-3.3698614,0.951159,-1.1500125,-0.97869962,-0.18987739,0.078060955,0
-3.268734,-0.12352824,-2.1731448,-0.97869962,-0.18987739,0.078060955,0
-2.6494513,-2.4102499,1.7372512,-0.97869962,-0.18987739,0.078060955,0
1.9012668,-4.2948146,2.3748715,0.20386681,-0.85407662,0.47853041,0
-3.1314187,1.7419189,1.8826525,-0.97869962,-0.18987739,0.078060955,0
0.24834299,0.11363578,-3.9185269,0.024192095,-0.48425156,-0.87459421,0
1.1145725,-6.1902943,-0.75717163,0.20386681,-0.85407662,0.47853041,0
-0.65214348,-0.14429235,-3.873749,0.024192095,-0.48425156,-0.87459421,0
1.2371826,-4.7100677,-1.344615,0.024192095,-0.48425156,-0.87459421,0
-0.40039492,4.846076,1.1628425,-0.024192095,0.48425156,0.87459421,0
2.9367869,0.93497229,0.10285246,0.97869962,0.18987739,-0.078060955,0
-1.0362072,-3.7636151,4.1146359,0.20386681,-0.85407662,0.47853041,0
2.749424,-0.85651898,4.659626,-0.024192095,0.48425156,0.87459421,0
-3.3335927,2.3476219,2.3501079,-0.97869962,-0.18987739,0.078060955,0
-2.6492491,-2.5365667,-2.3019431,-0.97869962,-0.18987739,0.078060955,0
2.7094753,1.4917786,1.1496716,0.97869962,0.18987739,-0.078060955,0
0.74282241,2.9420757,2.4436398,-0.024192095,0.48425156,0.87459421,0
1.3298059,-4.9406643,1.2714677,0.20386681,-0.85407662,0.47853041,0
0.45180166,4.3728371,-3.0206227,-0.20386681,0.85407662,-0.47853041,0
2.3122911,2.500144,-1.8308411,0.97869962,0.18987739,-0.078060955,0
1.1710124,0.45734906,-4.4060454,0.024192095,-0.48425156,-0.87459421,0
1.9299545,5.9500728,0.81375647,-0.024192095,0.48425156,0.87459421,0
2.9639831,1.862807,1.3512349,0.97869962,0.18987739,-0.078060955,0
-2.2192354,-3.7394979,3.8080413,-0.97869962,-0.18987739,0.078060955,0
3.0937562,-1.5618372,-1.4876642,0.97869962,0.18987739,-0.078060955,0
-2.8539629,-1.1556232,0.23909968,-0.97869962,-0.18987739,0.078060955,0
0.22036707,-4.2292013,3.0005593,0.20386681,-0.85407662,0.47853041,0
-2.0018513,-5.6124496,0.35052741,-0.97869962,-0.18987739,0.078060955,0
-3.189616,3.3626904,-3.3661036,-0.20386681,0.85407662,-0.47853041,0
3.7100358,-2.1050105,4.7655458,0.20386681,-0.85407662,0.47853041,0
-1.9283819,0.45426685,3.4869637,-0.024192095,0.48425156,0.87459421,0
-1.297786,5.117589,-0.95022583,-0.20386681,0.85407662,-0.47853041,0
2.025466,3.5232277,-2.7513006,0.97869962,0.18987739,-0.078060955,0
-1.3570422,-3.5250936,5.0245852,0.20386681,-0.85407662,0.47853041,0
3.3633494,-2.2126627,5.0930843,0.20386681,-0.85407662,0.47853041,0
2.4220176,-2.3677077,5.3926048,0.20386681,-0.85407662,0.47853041,0
-0.18213964,-2.7568128,5.4919286,-0.024192095,0.48425156,0.87459421,0
-1.0343417,-4.014802,3.5690327,0.20386681,-0.85407662,0.47853041,0
0.52037024,-5.2510386,0.85639048,0.20386681,-0.85407662,0.47853041,0
-0.72773385,4.7576399,-1.9329808,-0.20386681,0.85407662,-0.47853041,0
-1.9606357,0.87095642,-4.5669417,0.024192095,-0.48425156,-0.87459421,0
2.6234665,1.2044036,-0.21500319,0.97869962,0.18987739,-0.078060955,0
-2.4000988,-3.3320239,-1.4486885,-0.97869962,-0.18987739,0.078060955,0
-2.1486866,2.0092647,-5.281148,0.024192095,-0.48425156,-0.87459421,0
0.82395595,-3.364825,3.9077539,0.20386681,-0.85407662,0.47853041,0
-0.24259329,-2.3321149,-2.5397797,0.024192095,-0.48425156,-0.87459421,0
-1.754952,2.4666724,2.487119,-0.024192095,0.48425156,0.87459421,0
-1.1281056,0.08006978,-4.1991625,0.024192095,-0.48425156,-0.87459421,0
0.499964,3.122797,2.4644408,-0.024192095,0.48425156,0.87459421,0
-3.0601182,-0.5829823,-0.84016871,-0.97869962,-0.18987739,0.078060955,0
0.14644152,-3.790503,3.4661527,0.20386681,-0.85407662,0.47853041,0
1.4180102,-4.8529439,0.86844254,0.20386681,-0.85407662,0.47853041,0
-1.0301064,4.0482016,-2.4773841,-0.20386681,0.85407662,-0.47853041,0
2.9842105,0.629776,0.68244028,0.97869962,0.18987739,-0.078060955,0
2.9875612,-0.40352774,-0.7826457,0.97869962,0.18987739,-0.078060955,0
-2.3293753,4.9241543,-0.48858738,-0.20386681,0.85407662,-0.47853041,0
-2.5406132,-1.7790534,-3.21927,0.024192095,-0.48425156,-0.87459421,0
-3.0734215,-1.3822203,-3.1610665,-0.97869962,-0.18987739,0.078060955,0
-3.5788059,5.383749,0.69716024,-0.20386681,0.85407662,-0.47853041,0
-1.0693594,-3.2072682,5.1112509,0.20386681,-0.85407662,0.47853041,0
-1.7897666,0.49364427,3.6906111,-0.024192095,0.48425156,0.87459421,0
2.3616037,2.7656898,-0.11191571,0.97869962,0.18987739,-0.078060955,0
-3.4915984,0.92094231,-4.7843676,0.024192095,-0.48425156,-0.87459421,0
-2.7355063,-1.9782057,-0.88056934,-0.97869962,-0.18987739,0.078060955,0
-0.38433123,5.3277864,-0.96176577,-0.20386681,0.85407662,-0.47853041,0
1.2775488,-1.2748488,-3.1736674,0.024192095,-0.48425156,-0.87459421,0
1.1395137,5.1487131,-2.1441998,-0.20386681,0.85407662,-0.47853041,0
-3.9065015,3.349689,-1.8160002,-0.97869962,-0.18987739,0.078060955,0
2.5009418,1.3334956,-4.270453,0.97869962,0.18987739,-0.078060955,0
0.069839478,5.9704862,0.73225689,-0.024192095,0.48425156,0.87459421,0
-0.43265796,-5.2065353,1.3262713,0.20386681,-0.85407662,0.47853041,0
-2.1179631,-4.2905226,1.4224415,-0.97869962,-0.18987739,0.078060955,0
0.026084423,2.5508289,2.4774022,-0.024192095,0.48425156,0.87459421,0
0.1007719,-3.7539871,-1.9026148,0.024192095,-0.48425156,-0.87459421,0
-1.5067716,-4.5614395,2.5784314,0.20386681,-0.85407662,0.47853041,0
0.7147361,4.1397138,-3.1236382,-0.20386681,0.85407662,-0.47853041,0
-1.7152488,3.731169,-2.7295768,-0.20386681,0.85407662,-0.47853041,0
-2.9434278,-1.4467325,-3.0321696,-0.97869962,-0.18987739,0.078060955,0
2.6923456,-1.3756348,-3.0421383,0.024192095,-0.48425156,-0.87459421,0
