-1.9411851,3.6677477,-0.31369168,-0.13663566,0.98726261,0.081507474,0
-3.1603563,3.8664706,-4.0655737,-0.13663566,0.98726261,0.081507474,0
-1.9759102,-3.7588518,-4.5514326,0.13663566,-0.98726261,-0.081507474,0
1.9605844,-1.4220648,-4.1217036,0.099602476,0.095553704,-0.99042892,0
1.1077633,-1.5854675,3.9841971,-0.099602476,-0.095553704,0.99042892,0
-3.1135316,-0.42341137,1.7837734,-0.98560143,-0.12720978,-0.11138984,0
1.5256977,4.1714153,3.4423745,-0.13663566,0.98726261,0.081507474,0
-1.8988928,2.4182439,-3.9718378,0.099602476,0.095553704,-0.99042892,0
2.076498,0.29417288,-3.6393588,0.099602476,0.095553704,-0.99042892,0
-2.4782591,2.3081183,3.9709327,-0.099602476,-0.095553704,0.99042892,0
-3.9372816,2.4782753,3.4211912,-0.98560143,-0.12720978,-0.11138984,0
-2.2916765,-4.2045641,-0.13449585,-0.98560143,-0.12720978,-0.11138984,0
2.1956511,4.078835,1.1906698,0.98560143,0.12720978,0.11138984,0
2.8816164,-1.6970978,2.4393559,0.98560143,0.12720978,0.11138984,0
3.3735266,-0.37032485,-3.5053103,0.98560143,0.12720978,0.11138984,0
1.0971959,-3.511219,-2.6610894,0.13663566,-0.98726261,-0.081507474,0
-2.8469512,0.21693373,-2.3655,-0.98560143,-0.12720978,-0.11138984,0
3.3297586,-0.62540627,-1.999105,0.98560143,0.12720978,0.11138984,0
1.0542531,-2.6401482,-4.0752387,0.099602476,0.095553704,-0.99042892,0
-2.2245839,3.4528422,-3.9886503,0.099602476,0.095553704,-0.99042892,0
1.9707155,-0.39645743,4.2086487,-0.099602476,-0.095553704,0.99042892,0
-3.4596193,2.8076825,3.9583588,-0.099602476,-0.095553704,0.99042892,0
2.2175219,3.0342736,3.1829607,0.98560143,0.12720978,0.11138984,0
-2.365766,-3.5299687,-1.2067728,-0.98560143,-0.12720978,-0.11138984,0
-0.86387229,3.4738221,3.1298542,-0.13663566,0.98726261,0.081507474,0
2.8932481,-0.40640354,2.7380023,0.98560143,0.12720978,0.11138984,0
-1.3762062,4.2464008,-2.7905869,-0.13663566,0.98726261,0.081507474,0
-1.9923172,-2.2966278,-4.5191469,0.099602476,0.095553704,-0.99042892,0
-2.1499915,-4.1027927,-1.0018605,0.13663566,-0.98726261,-0.081507474,0
1.806529,-3.0992463,-4.3535976,0.099602476,0.095553704,-0.99042892,0
-2.753839,-0.97593284,-0.8827399,-0.98560143,-0.12720978,-0.11138984,0
2.9168048,-0.21397328,0.74438369,0.98560143,0.12720978,0.11138984,0
2.0800226,1.5297313,4.3689594,-0.099602476,-0.095553704,0.99042892,0
-1.0820479,3.7830443,0.30738944,-0.13663566,0.98726261,0.081507474,0
-1.2944574,-4.4673319,1.0509336,0.13663566,-0.98726261,-0.081507474,0
3.8702993,-3.2434735,-2.849277,0.13663566,-0.98726261,-0.081507474,0
3.6139772,-3.432683,-2.1593144,0.13663566,-0.98726261,-0.081507474,0
1.4686935,-3.4587772,-2.3171244,0.13663566,-0.98726261,-0.081507474,0
0.3117857,3.7427149,-3.4798822,0.099602476,0.095553704,-0.99042892,0
1.6997275,-3.6103916,-3.6343629,0.13663566,-0.98726261,-0.081507474,0
2.8966136,3.6720181,-3.2381687,0.099602476,0.095553704,-0.99042892,0
2.9763632,-1.7193451,3.063247,0.98560143,0.12720978,0.11138984,0
1.0606837,1.589395,4.4505777,-0.099602476,-0.095553704,0.99042892,0
1.4449809,-3.178812,4.0572166,-0.099602476,-0.095553704,0.99042892,0
0.24195719,4.0931549,0.86156368,-0.13663566,0.98726261,0.081507474,0
2.1069176,4.5611763,-1.6743269,-0.13663566,0.98726261,0.081507474,0
2.5626135,3.8257625,-3.3668346,0.099602476,0.095553704,-0.99042892,0
-1.6423589,1.0257361,3.7723253,-0.099602476,-0.095553704,0.99042892,0
-2.095578,1.7230397,-4.2217574,0.099602476,0.095553704,-0.99042892,0
1.8253523,-3.9867153,3.9015675,-0.099602476,-0.095553704,0.99042892,0
-1.2226236,3.6526637,0.5419932,-0.13663566,0.98726261,0.081507474,0
-1.1705103,1.1268443,4.0098639,-0.099602476,-0.095553704,0.99042892,0
-2.1023872,2.0272884,-3.9408622,0.099602476,0.095553704,-0.99042892,0
-2.8823144,-1.52019,-0.17607757,-0.98560143,-0.12720978,-0.11138984,0
3.3268626,-0.54740286,-3.6950469,0.099602476,0.095553704,-0.99042892,0
-2.7392001,1.6814997,-3.7510285,-0.98560143,-0.12720978,-0.11138984,0
1.6660829,-0.21566129,3.9903674,-0.099602476,-0.095553704,0.99042892,0
-3.3060234,-0.80202985,1.810879,-0.98560143,-0.12720978,-0.11138984,0
2.1249962,-3.4630685,-2.4344797,0.13663566,-0.98726261,-0.081507474,0
2.7270188,-0.2112298,-3.6793833,0.099602476,0.095553704,-0.99042892,0
-0.075379372,-4.0643854,-0.85743362,0.13663566,-0.98726261,-0.081507474,0
-3.2879534,0.86052775,1.2444302,-0.98560143,-0.12720978,-0.11138984,0
2.4280248,-3.7282562,-1.6420819,0.13663566,-0.98726261,-0.081507474,0
-1.7415806,-0.30157351,-4.1904116,0.099602476,0.095553704,-0.99042892,0
-2.8685646,2.8882115,-4.2188001,0.099602476,0.095553704,-0.99042892,0
0.47720385,4.2495999,0.38949007,-0.13663566,0.98726261,0.081507474,0
-2.8114989,-0.051913023,-0.62528414,-0.98560143,-0.12720978,-0.11138984,0
1.3599758,-1.9054352,3.7917838,-0.099602476,-0.095553704,0.99042892,0
-0.42474937,-1.2819974,3.9388862,-0.099602476,-0.095553704,0.99042892,0
2.9053679,-0.78643274,0.55328596,0.98560143,0.12720978,0.11138984,0
0.40739346,-4.0144906,1.1828511,0.13663566,-0.98726261,-0.081507474,0
-2.8478577,0.12975216,-2.6333337,-0.98560143,-0.12720978,-0.11138984,0
2.0292931,4.3990135,-0.32931161,-0.13663566,0.98726261,0.081507474,0
-2.0192335,-3.4739475,3.6001449,-0.099602476,-0.095553704,0.99042892,0
-1.9388869,2.219265,-4.1460071,0.099602476,0.095553704,-0.99042892,0
-2.7830865,3.706625,1.506168,-0.13663566,0.98726261,0.081507474,0
0.44767046,-2.012495,4.0592713,-0.099602476,-0.095553704,0.99042892,0
2.2072158,3.9144008,3.2361956,0.98560143,0.12720978,0.11138984,0
-2.7189908,3.3591542,2.5023053,-0.13663566,0.98726261,0.081507474,0
3.6292775,-3.5268102,-2.2332015,0.13663566,-0.98726261,-0.081507474,0
-0.55130243,4.3021526,-1.5853965,-0.13663566,0.98726261,0.081507474,0
3.7089427,-3.3648415,-1.0018654,0.13663566,-0.98726261,-0.081507474,0
2.5008705,2.6065001,0.39739197,0.98560143,0.12720978,0.11138984,0
-1.228106,-3.8681066,-2.2657256,0.13663566,-0.98726261,-0.081507474,0
0.70617843,-0.45786762,-3.8960452,0.099602476,0.095553704,-0.99042892,0
-1.1669803,2.193882,-3.8835595,0.099602476,0.095553704,-0.99042892,0
0.91544008,3.2848287,-3.636281,0.099602476,0.095553704,-0.99042892,0
-2.3910315,-2.3836527,-2.3928556,-0.98560143,-0.12720978,-0.11138984,0
2.6386011,2.781929,1.1269773,0.98560143,0.12720978,0.11138984,0
-0.80619073,-3.6955154,3.7356386,-0.099602476,-0.095553704,0.99042892,0
1.1204351,-0.17366567,-3.9972086,0.099602476,0.095553704,-0.99042892,0
2.9005806,1.4688432,-1.7312455,0.98560143,0.12720978,0.11138984,0
-2.06849,3.9001026,-3.6775677,-0.13663566,0.98726261,0.081507474,0
3.0910857,-1.1741887,-0.030454665,0.98560143,0.12720978,0.11138984,0
1.863265,-3.7104793,-1.9377477,0.13663566,-0.98726261,-0.081507474,0
-0.914572,4.068203,-0.50115907,-0.13663566,0.98726261,0.081507474,0
-2.5642426,-3.2386944,-0.62685257,-0.98560143,-0.12720978,-0.11138984,0
-0.93614888,-4.4695377,1.7319465,0.13663566,-0.98726261,-0.081507474,0
2.0043082,3.1774161,-3.7163305,0.099602476,0.095553704,-0.99042892,0
1.9606651,-3.7987547,1.5653063,0.13663566,-0.98726261,-0.081507474,0
-1.337481,-4.5530782,1.8507986,0.13663566,-0.98726261,-0.081507474,0
-0.48723435,-3.4914796,3.8131623,-0.099602476,-0.095553704,0.99042892,0
-2.730643,0.63250685,-2.6998782,-0.98560143,-0.12720978,-0.11138984,0
1.1716554,-3.9364994,-1.238169,0.13663566,-0.98726261,-0.081507474,0
-0.88664699,4.3911281,-3.674037,-0.13663566,0.98726261,0.081507474,0
3.1542954,-3.6962848,-1.0481555,0.13663566,-0.98726261,-0.081507474,0
3.1014466,-3.5235,0.17491153,0.13663566,-0.98726261,-0.081507474,0
-0.23506749,-0.527879,3.8654583,-0.099602476,-0.095553704,0.99042892,0
2.6377838,1.3284836,3.0278878,0.98560143,0.12720978,0.11138984,0
-2.9565289,3.2263119,-3.2756782,-0.98560143,-0.12720978,-0.11138984,0
-1.2555037,-2.9753368,-4.5931406,0.099602476,0.095553704,-0.99042892,0
-2.112051,0.44026375,-4.2131872,0.099602476,0.095553704,-0.99042892,0
-3.6969981,3.4373055,3.484457,-0.13663566,0.98726261,0.081507474,0
1.9944365,-1.8670821,4.1216207,-0.099602476,-0.095553704,0.99042892,0
-1.5824087,-4.1470528,0.14828467,0.13663566,-0.98726261,-0.081507474,0
-1.0889604,3.7674723,0.53343296,-0.13663566,0.98726261,0.081507474,0
-2.3597684,3.2969532,4.15627,-0.099602476,-0.095553704,0.99042892,0
0.66595387,3.634939,-3.633934,0.099602476,0.095553704,-0.99042892,0
-2.5133269,-4.6924605,1.6264844,0.13663566,-0.98726261,-0.081507474,0
3.0402293,3.0884101,-2.988102,0.98560143,0.12720978,0.11138984,0
1.4157107,2.4694691,-3.5474434,0.099602476,0.095553704,-0.99042892,0
0.33939004,-4.2303619,1.6287882,0.13663566,-0.98726261,-0.081507474,0
3.9917777,-3.2399926,-3.0152194,0.98560143,0.12720978,0.11138984,0
2.8492649,-2.3888075,3.7045417,0.98560143,0.12720978,0.11138984,0
2.1426525,-3.5636673,3.9087763,-0.099602476,-0.095553704,0.99042892,0
-1.1250877,-3.9062042,-2.5910845,0.13663566,-0.98726261,-0.081507474,0
1.9809513,0.45226717,-3.699965,0.099602476,0.095553704,-0.99042892,0
-3.467927,0.51704955,1.7264991,-0.98560143,-0.12720978,-0.11138984,0
3.3254833,-3.0143695,-4.1230922,0.099602476,0.095553704,-0.99042892,0
-1.5607984,-2.0097363,3.7478518,-0.099602476,-0.095553704,0.99042892,0
-3.6187129,2.7496228,2.5257967,-0.98560143,-0.12720978,-0.11138984,0
-2.8883586,3.2941556,2.6074309,-0.13663566,0.98726261,0.081507474,0
2.7458577,3.567173,-1.6793134,0.98560143,0.12720978,0.11138984,0
-3.3166096,2.9732862,-1.382906,-0.98560143,-0.12720978,-0.11138984,0
-3.4180288,2.9142213,-0.83889908,-0.98560143,-0.12720978,-0.11138984,0
-0.26840401,-2.7948437,-4.1342688,0.099602476,0.095553704,-0.99042892,0
-1.7193551,1.2341754,-4.0724659,0.099602476,0.095553704,-0.99042892,0
-0.34588027,1.6001775,-3.7768614,0.099602476,0.095553704,-0.99042892,0
0.23532915,3.9796124,2.496603,-0.13663566,0.98726261,0.081507474,0
-0.26301575,-3.863137,-3.9702361,0.13663566,-0.98726261,-0.081507474,0
-2.7180598,-2.4780211,-0.63638872,-0.98560143,-0.12720978,-0.11138984,0
-0.78161639,2.3598585,-4.0196018,0.099602476,0.095553704,-0.99042892,0
-3.4563432,2.2933385,2.6867669,-0.98560143,-0.12720978,-0.11138984,0
-1.8259811,3.6512444,2.8447227,-0.13663566,0.98726261,0.081507474,0
2.6401696,-3.8187149,3.7890053,0.13663566,-0.98726261,-0.081507474,0
2.9079118,-3.2684901,-3.3564658,0.13663566,-0.98726261,-0.081507474,0
-2.8778534,2.1384628,-2.5169864,-0.98560143,-0.12720978,-0.11138984,0
-1.7173541,0.73635197,-4.2997799,0.099602476,0.095553704,-0.99042892,0
-0.12378311,4.1873822,0.10943925,-0.13663566,0.98726261,0.081507474,0
-0.13206291,-2.9212451,3.825233,-0.099602476,-0.095553704,0.99042892,0
-0.25504705,-1.1092917,3.8362598,-0.099602476,-0.095553704,0.99042892,0
-2.7914319,0.8955307,-3.2548871,-0.98560143,-0.12720978,-0.11138984,0
-0.20961136,-0.027472079,3.8878639,-0.099602476,-0.095553704,0.99042892,0
1.1810174,-0.18905997,3.9648628,-0.099602476,-0.095553704,0.99042892,0
3.7438934,-3.4462354,-2.0562916,0.98560143,0.12720978,0.11138984,0
1.4813504,4.4120965,-3.2879214,0.099602476,0.095553704,-0.99042892,0
0.14897259,-0.44500259,3.8403683,-0.099602476,-0.095553704,0.99042892,0
1.6430571,-3.1642995,-4.3593674,0.099602476,0.095553704,-0.99042892,0
0.20578408,-2.2402728,4.0384469,-0.099602476,-0.095553704,0.99042892,0
-3.4335699,3.3163059,3.9324617,-0.13663566,0.98726261,0.081507474,0
-1.1203239,-4.0486584,-0.42168713,0.13663566,-0.98726261,-0.081507474,0
-1.0978827,3.811337,0.17671269,-0.13663566,0.98726261,0.081507474,0
-2.271733,-3.2565813,-3.0399327,-0.98560143,-0.12720978,-0.11138984,0
3.7297163,-2.4174278,-3.5237823,0.98560143,0.12720978,0.11138984,0
-0.57471251,2.4615719,4.3552823,-0.099602476,-0.095553704,0.99042892,0
-2.3791986,0.42026448,-4.1554604,0.099602476,0.095553704,-0.99042892,0
-1.6238256,-4.0824537,-3.6567569,0.13663566,-0.98726261,-0.081507474,0
2.7407124,2.7722003,0.63204408,0.98560143,0.12720978,0.11138984,0
2.8329625,3.5560622,-2.1710083,0.98560143,0.12720978,0.11138984,0
-0.25114131,-3.4724903,3.8617086,-0.099602476,-0.095553704,0.99042892,0
-0.017165422,3.2141285,-3.5928726,0.099602476,0.095553704,-0.99042892,0
2.3951745,-1.9700818,4.020318,-0.099602476,-0.095553704,0.99042892,0
2.8176308,3.4479394,-2.2088814,0.98560143,0.12720978,0.11138984,0
1.0592253,1.6935415,4.2360768,-0.099602476,-0.095553704,0.99042892,0
-3.4454975,3.0429456,-0.64899474,-0.98560143,-0.12720978,-0.11138984,0
0.95040894,-3.5204616,-3.9105742,0.13663566,-0.98726261,-0.081507474,0
2.5621231,1.5929286,3.3777459,0.98560143,0.12720978,0.11138984,0
-2.063544,4.068687,-1.6424472,-0.13663566,0.98726261,0.081507474,0
-2.6968017,-1.8350239,-0.93350548,-0.98560143,-0.12720978,-0.11138984,0
-0.18053126,-1.9184318,3.9553685,-0.099602476,-0.095553704,0.99042892,0
-1.923317,1.4619993,3.79634,-0.099602476,-0.095553704,0.99042892,0
3.1076498,-3.9212508,1.6960347,0.13663566,-0.98726261,-0.081507474,0
1.8015035,-1.7329452,-3.8410606,0.099602476,0.095553704,-0.99042892,0
-2.3284993,3.2692573,4.2281418,-0.099602476,-0.095553704,0.99042892,0
-2.432817,1.1388223,-4.1213884,0.099602476,0.095553704,-0.99042892,0
-0.57639259,1.208861,-3.8554327,0.099602476,0.095553704,-0.99042892,0
-3.1451447,-0.34985399,1.7276807,-0.98560143,-0.12720978,-0.11138984,0
-2.6465793,3.9347115,-0.72550571,-0.13663566,0.98726261,0.081507474,0
-0.65468407,-4.2062349,-0.80075693,0.13663566,-0.98726261,-0.081507474,0
-3.2385612,0.26522923,1.6635146,-0.98560143,-0.12720978,-0.11138984,0
-2.7274339,-2.0723169,-1.0442407,-0.98560143,-0.12720978,-0.11138984,0
-1.3126042,-0.72741818,-4.1052971,0.099602476,0.095553704,-0.99042892,0
-0.35804772,-4.4934535,3.2625399,0.13663566,-0.98726261,-0.081507474,0
3.4904151,-0.99130011,-2.8797543,0.98560143,0.12720978,0.11138984,0
-3.2226741,-1.4594731,3.0879829,-0.98560143,-0.12720978,-0.11138984,0
1.7548552,-3.3468995,3.7471781,-0.099602476,-0.095553704,0.99042892,0
-0.71601129,3.2298851,4.3535228,-0.099602476,-0.095553704,0.99042892,0
-1.8260497,-0.67438006,-4.2943249,0.099602476,0.095553704,-0.99042892,0
-0.95795345,-4.1831293,1.7264798,0.13663566,-0.98726261,-0.081507474,0
1.0569506,3.8759477,1.9594046,-0.13663566,0.98726261,0.081507474,0
-2.7449005,0.59722376,-2.160414,-0.98560143,-0.12720978,-0.11138984,0
2.9420829,2.278959,-0.31209087,0.98560143,0.12720978,0.11138984,0
-1.6658018,2.4989362,4.2817421,-0.099602476,-0.095553704,0.99042892,0
-1.3878778,0.1290381,-4.0923443,0.099602476,0.095553704,-0.99042892,0
3.0408273,0.56006002,-0.1109181,0.98560143,0.12720978,0.11138984,0
-1.1453142,-4.393692,2.4080241,0.13663566,-0.98726261,-0.081507474,0
0.21424818,-1.8117545,-4.2661505,0.099602476,0.095553704,-0.99042892,0
-0.90972829,-2.9325156,-4.2271805,0.099602476,0.095553704,-0.99042892,0
3.117641,-0.76778913,0.18404067,0.98560143,0.12720978,0.11138984,0
-0.93830657,3.6414855,-3.9752107,0.099602476,0.095553704,-0.99042892,0
-1.4334744,-1.9688575,3.885231,-0.099602476,-0.095553704,0.99042892,0
1.1804132,4.2154188,-2.0050759,-0.13663566,0.98726261,0.081507474,0
-1.3070173,3.8030963,1.24332,-0.13663566,0.98726261,0.081507474,0
2.1525328,-0.25396919,4.2034731,-0.099602476,-0.095553704,0.99042892,0
2.9454947,1.6434186,-0.90100312,0.98560143,0.12720978,0.11138984,0
2.7112288,1.5193074,1.7079399,0.98560143,0.12720978,0.11138984,0
-1.6002923,-2.0471294,3.6217432,-0.099602476,-0.095553704,0.99042892,0
0.46147728,2.2914531,4.3793669,-0.099602476,-0.095553704,0.99042892,0
-2.9871635,3.2855308,-2.6027069,-0.98560143,-0.12720978,-0.11138984,0
1.5845077,4.3543253,-2.8360708,-0.13663566,0.98726261,0.081507474,0
-1.0964417,3.88466,-1.5300539,-0.13663566,0.98726261,0.081507474,0
-1.2125409,4.2244139,-2.0988975,-0.13663566,0.98726261,0.081507474,0
-2.1680107,3.9902182,-0.5292244,-0.13663566,0.98726261,0.081507474,0
-0.79581809,3.8982275,2.204299,-0.13663566,0.98726261,0.081507474,0
-0.33645117,0.4891746,4.0892811,-0.099602476,-0.095553704,0.99042892,0
-2.5048766,3.2696853,3.7517312,-0.13663566,0.98726261,0.081507474,0
-2.0184717,-3.9187882,-3.0031612,-0.98560143,-0.12720978,-0.11138984,0
0.70126867,-1.9830582,-4.128932,0.099602476,0.095553704,-0.99042892,0
-2.9375629,2.8894205,-3.5279069,-0.98560143,-0.12720978,-0.11138984,0
-3.4942086,3.0371082,-0.24572292,-0.98560143,-0.12720978,-0.11138984,0
3.2359142,-1.8121305,0.047302917,0.98560143,0.12720978,0.11138984,0
2.7468472,0.099173069,3.5382726,0.98560143,0.12720978,0.11138984,0
-3.0936503,0.57250512,3.6759672,-0.099602476,-0.095553704,0.99042892,0
-2.95959,4.0924749,-3.08623,-0.13663566,0.98726261,0.081507474,0
-2.9909148,-2.1535995,1.2958486,-0.98560143,-0.12720978,-0.11138984,0
1.9983966,4.2539978,-1.3064969,-0.13663566,0.98726261,0.081507474,0
-3.0947971,2.2948284,-2.6382549,-0.98560143,-0.12720978,-0.11138984,0
-2.7175832,-2.6672814,0.42567718,-0.98560143,-0.12720978,-0.11138984,0
0.079388916,-0.035591781,4.0059824,-0.099602476,-0.095553704,0.99042892,0
3.0452876,-0.92532992,1.751802,0.98560143,0.12720978,0.11138984,0
-3.1272509,-2.3304477,2.7857027,-0.98560143,-0.12720978,-0.11138984,0
-0.93253803,-3.8480811,-3.3265746,0.13663566,-0.98726261,-0.081507474,0
-3.3510616,0.50496507,1.4726499,-0.98560143,-0.12720978,-0.11138984,0
-2.5903006,3.4276848,2.5164759,-0.13663566,0.98726261,0.081507474,0
2.214479,4.1986265,1.8308344,-0.13663566,0.98726261,0.081507474,0
-1.9276242,-4.4034071,0.63207114,0.13663566,-0.98726261,-0.081507474,0
-1.258383,4.2341261,-2.2866013,-0.13663566,0.98726261,0.081507474,0
2.698236,0.8279922,3.2311373,0.98560143,0.12720978,0.11138984,0
-0.10412978,0.88235646,-3.9218621,0.099602476,0.095553704,-0.99042892,0
0.50161886,3.9307344,0.99828619,-0.13663566,0.98726261,0.081507474,0
-2.6202366,0.71630162,3.6711373,-0.099602476,-0.095553704,0.99042892,0
-3.1983604,2.5737004,-0.54000342,-0.98560143,-0.12720978,-0.11138984,0
-2.7164702,-2.986455,3.6299624,-0.099602476,-0.095553704,0.99042892,0
2.4137383,-3.8566482,-0.49277049,0.13663566,-0.98726261,-0.081507474,0
-1.949193,1.4405669,-4.1805592,0.099602476,0.095553704,-0.99042892,0
-0.81176424,3.6285076,3.9305062,-0.13663566,0.98726261,0.081507474,0
1.7576156,2.9277937,4.5941358,-0.099602476,-0.095553704,0.99042892,0
1.8221684,2.9549153,4.4374194,-0.099602476,-0.095553704,0.99042892,0
3.5844843,-3.1364422,-2.7859015,0.98560143,0.12720978,0.11138984,0
1.6663892,-4.1429119,3.5005195,0.13663566,-0.98726261,-0.081507474,0
-1.3227277,4.0284753,-1.0387524,-0.13663566,0.98726261,0.081507474,0
2.6152754,-0.17665386,4.0424933,0.98560143,0.12720978,0.11138984,0
-1.203464,-3.6949987,-4.5245628,0.099602476,0.095553704,-0.99042892,0
0.94069719,-2.9854407,-4.2156181,0.099602476,0.095553704,-0.99042892,0
3.498971,-1.3073807,-1.8192356,0.98560143,0.12720978,0.11138984,0
-1.2848356,3.7472882,0.64654231,-0.13663566,0.98726261,0.081507474,0
1.4913282,2.646915,4.4004302,-0.099602476,-0.095553704,0.99042892,0
-2.2850075,-4.1319466,-1.5084114,0.13663566,-0.98726261,-0.081507474,0
-1.9535844,-2.6062179,-4.6747093,0.099602476,0.095553704,-0.99042892,0
-0.43270659,-2.099879,-4.4812121,0.099602476,0.095553704,-0.99042892,0
0.23589754,-1.6428919,-4.1685877,0.099602476,0.095553704,-0.99042892,0
2.3238506,4.4421244,-0.264606,-0.13663566,0.98726261,0.081507474,0
-2.6478951,-4.6419797,2.8020449,-0.98560143,-0.12720978,-0.11138984,0
-2.1184692,-4.3020644,-0.49097463,0.13663566,-0.98726261,-0.081507474,0
3.276787,-3.2390273,1.937037,0.98560143,0.12720978,0.11138984,0
-2.5861974,-1.5108051,-1.6983751,-0.98560143,-0.12720978,-0.11138984,0
-3.3201084,-1.5148513,2.4793441,-0.98560143,-0.12720978,-0.11138984,0
-3.0596037,3.6205904,-2.1912897,-0.13663566,0.98726261,0.081507474,0
3.1754532,-3.1649022,-3.4023273,0.13663566,-0.98726261,-0.081507474,0
2.2744443,4.0766234,-3.4328346,0.099602476,0.095553704,-0.99042892,0
0.35184431,3.9039071,2.9167647,-0.13663566,0.98726261,0.081507474,0
1.8883317,-4.097455,3.171243,0.13663566,-0.98726261,-0.081507474,0
-2.9864814,-4.4625297,2.9598846,-0.98560143,-0.12720978,-0.11138984,0
-2.8417475,-0.52633786,-1.7133657,-0.98560143,-0.12720978,-0.11138984,0
0.83388066,3.1044874,-3.6708846,0.099602476,0.095553704,-0.99042892,0
-2.2673147,-1.704809,3.4762373,-0.099602476,-0.095553704,0.99042892,0
2.551044,0.25941861,-3.6551075,0.099602476,0.095553704,-0.99042892,0
1.9303071,0.28006971,-3.692143,0.099602476,0.095553704,-0.99042892,0
-0.80879426,-3.7837973,-2.3959627,0.13663566,-0.98726261,-0.081507474,0
-2.1439462,-4.3153353,-1.20803,0.13663566,-0.98726261,-0.081507474,0
2.2789769,-3.7785687,2.5866618,0.13663566,-0.98726261,-0.081507474,0
-0.83198094,-2.0841827,-4.4920177,0.099602476,0.095553704,-0.99042892,0
0.646047,2.493994,-3.564599,0.099602476,0.095553704,-0.99042892,0
1.4751298,-3.6468503,-2.8443077,0.13663566,-0.98726261,-0.081507474,0
-0.9580617,-4.1001453,-1.2544905,0.13663566,-0.98726261,-0.081507474,0
2.6494682,-0.97895145,3.8266659,0.98560143,0.12720978,0.11138984,0
-2.3047345,3.5646014,3.3395414,-0.13663566,0.98726261,0.081507474,0
0.77082968,4.2986164,-2.1451941,-0.13663566,0.98726261,0.081507474,0
-2.3539934,3.540235,2.2687552,-0.13663566,0.98726261,0.081507474,0
0.46068186,1.6148043,-3.9878836,0.099602476,0.095553704,-0.99042892,0
-2.0216255,-4.3230214,-0.63055992,0.13663566,-0.98726261,-0.081507474,0
-2.5351858,-1.5659699,-4.1549063,-0.98560143,-0.12720978,-0.11138984,0
2.0858631,3.6403172,3.8008509,0.98560143,0.12720978,0.11138984,0
0.66268206,4.3449841,-2.1431527,-0.13663566,0.98726261,0.081507474,0
3.4064648,-2.8124621,-0.2592741,0.98560143,0.12720978,0.11138984,0
-0.21677423,2.5015497,4.2228317,-0.099602476,-0.095553704,0.99042892,0
2.8191805,-0.69545197,2.3332472,0.98560143,0.12720978,0.11138984,0
-3.5594387,1.9640224,2.0279162,-0.98560143,-0.12720978,-0.11138984,0
-2.4108276,3.3215013,2.5267415,-0.13663566,0.98726261,0.081507474,0
0.56677151,4.2659311,-2.682807,-0.13663566,0.98726261,0.081507474,0
-1.0352825,1.1043208,4.1143312,-0.099602476,-0.095553704,0.99042892,0
1.4838126,-3.4792926,-3.8362854,0.13663566,-0.98726261,-0.081507474,0
-2.7897668,0.087146759,-2.4034371,-0.98560143,-0.12720978,-0.11138984,0
2.5973213,-0.56312704,-3.7849483,0.099602476,0.095553704,-0.99042892,0
-2.4631214,-2.3924561,-2.3372569,-0.98560143,-0.12720978,-0.11138984,0
-2.3605232,-1.1334324,-3.526257,-0.98560143,-0.12720978,-0.11138984,0
2.7001626,1.9480278,0.25703293,0.98560143,0.12720978,0.11138984,0
1.1072931,4.2315922,0.59596288,-0.13663566,0.98726261,0.081507474,0
0.59287667,-3.9652221,-1.5918221,0.13663566,-0.98726261,-0.081507474,0
2.5732007,4.0595837,-3.3969107,0.099602476,0.095553704,-0.99042892,0
2.8156803,-1.8480725,-3.85532,0.099602476,0.095553704,-0.99042892,0
-0.89327693,-0.62688625,3.9929147,-0.099602476,-0.095553704,0.99042892,0
0.38226438,3.9157004,-3.5664477,0.099602476,0.095553704,-0.99042892,0
2.4127595,4.6161294,-2.3448391,-0.13663566,0.98726261,0.081507474,0
1.8327112,4.0153408,2.4301097,-0.13663566,0.98726261,0.081507474,0
0.6261313,-3.7220559,-2.3963585,0.13663566,-0.98726261,-0.081507474,0
-2.404402,-0.7456857,3.7905264,-0.099602476,-0.095553704,0.99042892,0
0.66930318,-3.2794051,3.6892796,-0.099602476,-0.095553704,0.99042892,0
0.719733,4.4176655,-1.7691128,-0.13663566,0.98726261,0.081507474,0
3.1280446,1.29651,-0.84452236,0.98560143,0.12720978,0.11138984,0
2.3634334,1.2312901,3.7306778,0.98560143,0.12720978,0.11138984,0
2.8429508,0.88416219,-0.023677826,0.98560143,0.12720978,0.11138984,0
1.851671,-3.9372988,3.1532309,0.13663566,-0.98726261,-0.081507474,0
-2.6550868,-0.16190529,-3.9968426,-0.98560143,-0.12720978,-0.11138984,0
2.4798973,-4.2010407,3.5145552,0.13663566,-0.98726261,-0.081507474,0
-3.1852541,0.84597754,-0.4269926,-0.98560143,-0.12720978,-0.11138984,0
-1.2134652,1.4322069,-3.998759,0.099602476,0.095553704,-0.99042892,0
-0.35910273,-3.9817481,-2.0455108,0.13663566,-0.98726261,-0.081507474,0
0.62053037,-2.732511,4.005115,-0.099602476,-0.095553704,0.99042892,0
3.0261035,-3.1887519,2.3673384,0.98560143,0.12720978,0.11138984,0
2.9126999,0.073297262,2.043479,0.98560143,0.12720978,0.11138984,0
-2.4250264,-4.5327377,0.98178887,0.13663566,-0.98726261,-0.081507474,0
-0.98508644,-2.7435429,-4.4708924,0.099602476,0.095553704,-0.99042892,0
-2.9250681,-2.1534684,-0.24194109,-0.98560143,-0.12720978,-0.11138984,0
-1.2503576,-3.7992249,-4.1974192,0.13663566,-0.98726261,-0.081507474,0
-3.1424909,3.5217741,1.1840025,-0.13663566,0.98726261,0.081507474,0
-0.65156496,-0.59643936,3.7614396,-0.099602476,-0.095553704,0.99042892,0
-1.0650178,1.9434162,-3.8410366,0.099602476,0.095553704,-0.99042892,0
-0.39654255,-3.9100971,-4.227767,0.13663566,-0.98726261,-0.081507474,0
-2.3534131,3.7410069,-1.9566004,-0.13663566,0.98726261,0.081507474,0
-3.2931881,0.49574208,0.21945155,-0.98560143,-0.12720978,-0.11138984,0
1.6253695,-3.6560264,-0.63684928,0.13663566,-0.98726261,-0.081507474,0
-3.8819683,2.8463588,4.1094513,-0.099602476,-0.095553704,0.99042892,0
2.968751,3.3509364,-1.3803,0.98560143,0.12720978,0.11138984,0
-2.1722298,-4.453331,0.4772377,0.13663566,-0.98726261,-0.081507474,0
-2.1689653,0.1066215,-4.3790798,0.099602476,0.095553704,-0.99042892,0
2.3683493,2.7862189,3.2054238,0.98560143,0.12720978,0.11138984,0
-3.0473278,-0.51447463,1.3326336,-0.98560143,-0.12720978,-0.11138984,0
-3.3204365,0.57812762,2.425921,-0.98560143,-0.12720978,-0.11138984,0
-3.7026896,1.5030737,2.7796438,-0.98560143,-0.12720978,-0.11138984,0
2.8943887,-3.526859,0.75621223,0.13663566,-0.98726261,-0.081507474,0
1.8137455,0.70450234,4.296176,-0.099602476,-0.095553704,0.99042892,0
-2.2090583,-0.93698549,-4.2540407,0.099602476,0.095553704,-0.99042892,0
0.59548426,-4.0190954,-1.2673626,0.13663566,-0.98726261,-0.081507474,0
-0.51167274,3.8278861,3.4510715,-0.13663566,0.98726261,0.081507474,0
-3.5419676,2.0874398,3.1292918,-0.98560143,-0.12720978,-0.11138984,0
-3.4828057,2.9386163,1.9499439,-0.98560143,-0.12720978,-0.11138984,0
1.0910158,-4.0516191,-0.14930984,0.13663566,-0.98726261,-0.081507474,0
3.2972469,-1.8938714,-0.67346233,0.98560143,0.12720978,0.11138984,0
-2.2193227,3.4740825,1.7425442,-0.13663566,0.98726261,0.081507474,0
-2.3752613,-4.2579246,-0.76250988,-0.98560143,-0.12720978,-0.11138984,0
-0.66713619,-2.2105846,-4.46451,0.099602476,0.095553704,-0.99042892,0
2.3492899,-3.7877495,1.5547982,0.13663566,-0.98726261,-0.081507474,0
-3.258069,1.1212983,2.3526695,-0.98560143,-0.12720978,-0.11138984,0
-0.57894111,-1.7944521,3.8203783,-0.099602476,-0.095553704,0.99042892,0
2.8668201,1.5646117,0.77555352,0.98560143,0.12720978,0.11138984,0
-2.0053201,-4.1404605,-1.9271672,0.13663566,-0.98726261,-0.081507474,0
2.4475141,-1.6190876,4.2577019,-0.099602476,-0.095553704,0.99042892,0
-0.10603809,4.1120949,0.90147644,-0.13663566,0.98726261,0.081507474,0
1.4514604,2.1785004,4.3341265,-0.099602476,-0.095553704,0.99042892,0
-2.0662475,4.0844316,-3.5238881,-0.13663566,0.98726261,0.081507474,0
0.46820784,-4.3655343,2.4510977,0.13663566,-0.98726261,-0.081507474,0
-1.9300666,1.9982793,3.9511366,-0.099602476,-0.095553704,0.99042892,0
-2.2118657,3.4804475,3.0585895,-0.13663566,0.98726261,0.081507474,0
3.511271,-1.6815428,-1.5882665,0.98560143,0.12720978,0.11138984,0
2.9738965,2.0093274,-2.5642028,0.98560143,0.12720978,0.11138984,0
1.3241763,3.7378702,4.3453217,-0.099602476,-0.095553704,0.99042892,0
-2.9838107,-3.1439259,2.2943637,-0.98560143,-0.12720978,-0.11138984,0
0.34256601,-2.1249056,-4.1761141,0.099602476,0.095553704,-0.99042892,0
2.5797176,1.429965,2.6396701,0.98560143,0.12720978,0.11138984,0
2.7836785,2.5986679,-2.4335425,0.98560143,0.12720978,0.11138984,0
-1.7777081,-4.1697254,-1.8170024,0.13663566,-0.98726261,-0.081507474,0
2.3066308,3.4299347,1.3464781,0.98560143,0.12720978,0.11138984,0
-3.0016656,1.5140235,-3.6179001,-0.98560143,-0.12720978,-0.11138984,0
2.3738244,3.8377478,-0.0028567314,0.98560143,0.12720978,0.11138984,0
1.9611773,-2.3122504,-3.9756103,0.099602476,0.095553704,-0.99042892,0
-3.6483023,2.124795,2.1543977,-0.98560143,-0.12720978,-0.11138984,0
2.377991,2.3818064,1.8342991,0.98560143,0.12720978,0.11138984,0
0.18581629,4.0515566,0.30268699,-0.13663566,0.98726261,0.081507474,0
0.06257844,-4.0424423,3.68507,-0.099602476,-0.095553704,0.99042892,0
-2.4171259,-4.2152367,0.73795915,-0.98560143,-0.12720978,-0.11138984,0
-2.7569849,-3.1105747,2.033668,-0.98560143,-0.12720978,-0.11138984,0
0.7546382,3.7424846,3.4474113,-0.13663566,0.98726261,0.081507474,0
2.4579337,2.5307386,1.5237074,0.98560143,0.12720978,0.11138984,0
-0.4200325,4.1711559,-1.9756711,-0.13663566,0.98726261,0.081507474,0
2.8658454,2.087466,0.93994153,0.98560143,0.12720978,0.11138984,0
-3.5013537,3.4710183,1.0538687,-0.98560143,-0.12720978,-0.11138984,0
-1.520664,4.0919595,-2.1800368,-0.13663566,0.98726261,0.081507474,0
0.64281392,-3.8944507,-1.5972016,0.13663566,-0.98726261,-0.081507474,0
-3.1698174,3.6626272,-3.070704,-0.98560143,-0.12720978,-0.11138984,0
2.9404867,1.7014675,-3.397614,0.099602476,0.095553704,-0.99042892,0
3.4177804,-1.2772864,-3.7333694,0.099602476,0.095553704,-0.99042892,0
0.68779087,4.4456873,-3.4823551,-0.13663566,0.98726261,0.081507474,0
-3.7606177,3.1864033,3.7350202,-0.13663566,0.98726261,0.081507474,0
2.1030669,3.6209421,-3.5393887,0.099602476,0.095553704,-0.99042892,0
-3.6461103,2.176641,3.4868741,-0.98560143,-0.12720978,-0.11138984,0
3.2992806,-3.7527549,0.76707119,0.13663566,-0.98726261,-0.081507474,0
3.6500797,-1.5583417,-2.7917774,0.98560143,0.12720978,0.11138984,0
2.5181923,2.6732457,0.54383785,0.98560143,0.12720978,0.11138984,0
3.0285652,-2.0222397,2.0674238,0.98560143,0.12720978,0.11138984,0
-1.5901982,2.6027348,-3.7763441,0.099602476,0.095553704,-0.99042892,0
1.9136068,0.019612074,4.3293328,-0.099602476,-0.095553704,0.99042892,0
1.9823127,1.8328495,4.4762211,-0.099602476,-0.095553704,0.99042892,0
0.42389834,-1.6930717,-4.0969095,0.099602476,0.095553704,-0.99042892,0
1.6572309,4.0185699,3.6309321,-0.13663566,0.98726261,0.081507474,0
0.30085969,4.2141027,-2.8930759,-0.13663566,0.98726261,0.081507474,0
1.7174871,3.6681092,-3.475965,0.099602476,0.095553704,-0.99042892,0
-0.81511354,-3.9405737,-1.8355076,0.13663566,-0.98726261,-0.081507474,0
1.4806097,4.4310203,-0.74596882,-0.13663566,0.98726261,0.081507474,0
0.9360435,-4.2219095,2.7726271,0.13663566,-0.98726261,-0.081507474,0
-1.445224,-4.2132258,0.5644294,0.13663566,-0.98726261,-0.081507474,0
1.0316038,0.82571578,-3.6672864,0.099602476,0.095553704,-0.99042892,0
-1.6115305,-2.1489201,3.6816044,-0.099602476,-0.095553704,0.99042892,0
3.1775181,-1.2427814,-1.2887697,0.98560143,0.12720978,0.11138984,0
2.0592954,0.45458913,-3.5917475,0.099602476,0.095553704,-0.99042892,0
-1.6070547,-0.25830555,-4.1949358,0.099602476,0.095553704,-0.99042892,0
-2.1159549,-2.6159177,-3.582974,-0.98560143,-0.12720978,-0.11138984,0
2.6163664,-1.3057423,3.8108127,0.98560143,0.12720978,0.11138984,0
-2.7883854,2.5992889,3.9172623,-0.099602476,-0.095553704,0.99042892,0
-2.9875741,-2.8850386,1.7409675,-0.98560143,-0.12720978,-0.11138984,0
-1.5762956,3.9474564,-3.4471602,-0.13663566,0.98726261,0.081507474,0
-0.92951846,-3.9415207,-1.6131058,0.13663566,-0.98726261,-0.081507474,0
1.7214229,-2.167289,-3.9669819,0.099602476,0.095553704,-0.99042892,0
1.8976822,-3.1615286,-4.0388608,0.099602476,0.095553704,-0.99042892,0
2.57251,-2.1415138,3.9614904,-0.099602476,-0.095553704,0.99042892,0
-2.1433344,-4.3659496,-1.4048872,0.13663566,-0.98726261,-0.081507474,0
-3.3228731,1.9288181,0.43552315,-0.98560143,-0.12720978,-0.11138984,0
2.7858584,-3.8549311,3.518074,0.13663566,-0.98726261,-0.081507474,0
-0.40689513,0.49169928,-4.068779,0.099602476,0.095553704,-0.99042892,0
-3.4423351,1.2083818,1.0326484,-0.98560143,-0.12720978,-0.11138984,0
2.8653092,-1.4561746,3.1348617,0.98560143,0.12720978,0.11138984,0
1.3937774,4.0021415,2.5926933,-0.13663566,0.98726261,0.081507474,0
0.7173183,4.1329823,-1.3846767,-0.13663566,0.98726261,0.081507474,0
3.4033272,-3.1818843,-3.3259149,0.13663566,-0.98726261,-0.081507474,0
-2.9958076,-3.1372657,1.8531101,-0.98560143,-0.12720978,-0.11138984,0
-0.39282417,-3.9283571,-2.1743569,0.13663566,-0.98726261,-0.081507474,0
-3.3896935,1.2255734,0.42773074,-0.98560143,-0.12720978,-0.11138984,0
2.7953656,-0.78013325,3.2578194,0.98560143,0.12720978,0.11138984,0
-1.0791698,-4.3537717,3.4862576,-0.099602476,-0.095553704,0.99042892,0
-2.1077788,-4.4285727,0.31502247,0.13663566,-0.98726261,-0.081507474,0
-0.10205793,4.3422389,-3.2253129,-0.13663566,0.98726261,0.081507474,0
0.31169879,-0.0035438538,4.1780539,-0.099602476,-0.095553704,0.99042892,0
-1.638,-1.6400826,-4.2854662,0.099602476,0.095553704,-0.99042892,0
0.61243939,-4.0312738,1.3472098,0.13663566,-0.98726261,-0.081507474,0
-2.9268768,0.1867311,0.26515901,-0.98560143,-0.12720978,-0.11138984,0
-2.0577846,-1.9895329,-4.618207,0.099602476,0.095553704,-0.99042892,0
0.98247051,-1.9647334,-4.2011604,0.099602476,0.095553704,-0.99042892,0
3.0149415,-1.6492814,1.2818435,0.98560143,0.12720978,0.11138984,0
1.2615094,-3.7953541,-2.2782571,0.13663566,-0.98726261,-0.081507474,0
2.7198935,-1.1994292,-3.7825689,0.099602476,0.095553704,-0.99042892,0
-0.69277859,-4.3179946,3.5977063,0.13663566,-0.98726261,-0.081507474,0
-1.5903621,-3.912348,-4.6823893,0.13663566,-0.98726261,-0.081507474,0
2.0799425,-3.7054439,-1.2784183,0.13663566,-0.98726261,-0.081507474,0
-1.6860821,-3.7343938,3.4835777,-0.099602476,-0.095553704,0.99042892,0
1.2580076,-3.297586,3.9077816,-0.099602476,-0.095553704,0.99042892,0
2.6702476,-2.1250577,4.1578507,0.98560143,0.12720978,0.11138984,0
2.1476114,3.261348,3.7001462,0.98560143,0.12720978,0.11138984,0
-1.834291,-4.3357263,0.40788674,0.13663566,-0.98726261,-0.081507474,0
-3.1474259,0.71748257,-1.5909339,-0.98560143,-0.12720978,-0.11138984,0
-3.5058789,0.81401873,1.9103711,-0.98560143,-0.12720978,-0.11138984,0
-0.31698143,-1.5807658,3.8716326,-0.099602476,-0.095553704,0.99042892,0
-3.0197649,0.59412909,-0.36039618,-0.98560143,-0.12720978,-0.11138984,0
1.8296847,2.2650273,4.4173937,-0.099602476,-0.095553704,0.99042892,0
-2.4415646,-0.40017176,-3.876163,-0.98560143,-0.12720978,-0.11138984,0
2.4818254,0.50907612,2.7779555,0.98560143,0.12720978,0.11138984,0
3.3898299,-2.0911736,-1.2801901,0.98560143,0.12720978,0.11138984,0
-0.3512826,-2.6364882,3.6007743,-0.099602476,-0.095553704,0.99042892,0
0.14000368,3.8868408,3.8004348,-0.13663566,0.98726261,0.081507474,0
0.5721494,0.27709818,4.1056776,-0.099602476,-0.095553704,0.99042892,0
2.7731564,4.4378853,-3.3864374,0.98560143,0.12720978,0.11138984,0
2.9920502,-3.4900594,-1.9387771,0.13663566,-0.98726261,-0.081507474,0
2.7013044,0.0060486794,3.0862646,0.98560143,0.12720978,0.11138984,0
-3.0262358,-1.12323,0.10005808,-0.98560143,-0.12720978,-0.11138984,0
0.76551771,-3.5724037,-2.9228106,0.13663566,-0.98726261,-0.081507474,0
3.1455615,-1.7388078,1.0069938,0.98560143,0.12720978,0.11138984,0
2.4421673,1.3375425,2.3973622,0.98560143,0.12720978,0.11138984,0
3.2558823,0.15253496,-2.8066599,0.98560143,0.12720978,0.11138984,0
3.4881816,-1.2113266,-3.7882214,0.98560143,0.12720978,0.11138984,0
1.6939522,-1.1707497,-3.9749379,0.099602476,0.095553704,-0.99042892,0
1.380827,-0.91230416,3.986845,-0.099602476,-0.095553704,0.99042892,0
-2.714257,-4.2609138,2.6463487,-0.98560143,-0.12720978,-0.11138984,0
-3.2136106,3.0001681,-0.29622862,-0.98560143,-0.12720978,-0.11138984,0
-3.7954464,1.9720433,3.7014186,-0.98560143,-0.12720978,-0.11138984,0
3.1848149,-0.80262208,-0.092801154,0.98560143,0.12720978,0.11138984,0
-0.41205192,-4.3499141,3.5730629,0.13663566,-0.98726261,-0.081507474,0
-2.2512348,-4.3787508,1.4930382,0.13663566,-0.98726261,-0.081507474,0
1.4042301,4.1802311,-0.58315754,-0.13663566,0.98726261,0.081507474,0
3.584064,-3.1536856,-2.5962038,0.13663566,-0.98726261,-0.081507474,0
-2.4791732,-4.5270233,1.9524822,0.13663566,-0.98726261,-0.081507474,0
3.1672313,-1.9002602,2.4680729,0.98560143,0.12720978,0.11138984,0
1.9762142,-3.8438184,1.3121452,0.13663566,-0.98726261,-0.081507474,0
0.44489789,-1.9376129,3.7680888,-0.099602476,-0.095553704,0.99042892,0
-2.7128801,-0.13653421,-2.9862785,-0.98560143,-0.12720978,-0.11138984,0
-3.2499726,-0.14424419,0.65520287,-0.98560143,-0.12720978,-0.11138984,0
-1.6904049,-2.33196,3.4942465,-0.099602476,-0.095553704,0.99042892,0
2.3396697,-1.8866222,4.0622892,-0.099602476,-0.095553704,0.99042892,0
1.2182739,3.7925327,-3.6571221,0.099602476,0.095553704,-0.99042892,0
3.0403745,-2.7859128,1.616585,0.98560143,0.12720978,0.11138984,0
2.8909233,-0.029145479,2.1264572,0.98560143,0.12720978,0.11138984,0
-2.3968749,-1.180357,-3.4091945,-0.98560143,-0.12720978,-0.11138984,0
2.3719678,2.4237192,2.9770377,0.98560143,0.12720978,0.11138984,0
2.5722318,3.7741816,1.6049985,0.98560143,0.12720978,0.11138984,0
-1.6874118,-1.8077509,-4.5257778,0.099602476,0.095553704,-0.99042892,0
-0.0091940165,0.82379436,4.0433197,-0.099602476,-0.095553704,0.99042892,0
0.28963852,1.9268832,4.2260942,-0.099602476,-0.095553704,0.99042892,0
-0.34411192,4.0024142,-1.9785089,-0.13663566,0.98726261,0.081507474,0
1.0581167,-3.9831071,0.24833328,0.13663566,-0.98726261,-0.081507474,0
2.0701876,-3.974515,2.1128998,0.13663566,-0.98726261,-0.081507474,0
3.043999,2.8635459,-2.9923587,0.98560143,0.12720978,0.11138984,0
3.8430347,-1.6911906,-3.4990606,0.98560143,0.12720978,0.11138984,0
-0.70316124,-3.7320745,-3.6473746,0.13663566,-0.98726261,-0.081507474,0
-2.1909719,-2.98017,-4.2888594,-0.98560143,-0.12720978,-0.11138984,0
-1.534803,1.6905686,3.87924,-0.099602476,-0.095553704,0.99042892,0
1.9164733,-3.8791556,2.7943385,0.13663566,-0.98726261,-0.081507474,0
0.65998256,-1.0838391,4.0462241,-0.099602476,-0.095553704,0.99042892,0
3.0866907,-1.9709251,-4.0384374,0.099602476,0.095553704,-0.99042892,0
-0.15022135,-3.9915104,-1.8781189,0.13663566,-0.98726261,-0.081507474,0
0.12454081,3.5230846,-3.5883002,0.099602476,0.095553704,-0.99042892,0
-2.1993408,-4.4035749,-0.68836135,0.13663566,-0.98726261,-0.081507474,0
1.7644053,3.9649732,3.2581742,-0.13663566,0.98726261,0.081507474,0
0.36051989,3.3448489,-3.6882086,0.099602476,0.095553704,-0.99042892,0
2.0887103,3.9608257,3.2517352,0.98560143,0.12720978,0.11138984,0
-2.384485,-2.8010163,3.4681864,-0.099602476,-0.095553704,0.99042892,0
2.7634311,-3.4080415,-1.3022656,0.13663566,-0.98726261,-0.081507474,0
2.7702,2.979394,-2.1905708,0.98560143,0.12720978,0.11138984,0
-2.0650074,-3.2181139,-3.3832827,-0.98560143,-0.12720978,-0.11138984,0
1.7656608,4.3253422,-3.5891113,0.099602476,0.095553704,-0.99042892,0
-0.19537497,-3.8725617,-1.3429737,0.13663566,-0.98726261,-0.081507474,0
2.7541025,-0.56609154,2.4558465,0.98560143,0.12720978,0.11138984,0
-3.1561403,0.33597755,1.4612509,-0.98560143,-0.12720978,-0.11138984,0
2.6583455,-1.8579737,4.3010478,-0.099602476,-0.095553704,0.99042892,0
2.2272656,4.3945637,-3.510674,0.099602476,0.095553704,-0.99042892,0
0.51613259,4.2739229,-3.5237732,0.099602476,0.095553704,-0.99042892,0
-2.7454197,2.2706962,-4.1658525,0.099602476,0.095553704,-0.99042892,0
2.5176389,3.9695878,-3.3389583,0.099602476,0.095553704,-0.99042892,0
1.6777544,2.5382612,4.3781199,-0.099602476,-0.095553704,0.99042892,0
-0.76155233,-2.8957381,-4.3417206,0.099602476,0.095553704,-0.99042892,0
0.80874467,-4.0597806,3.6644869,-0.099602476,-0.095553704,0.99042892,0
2.13063,-3.410404,-2.9783299,0.13663566,-0.98726261,-0.081507474,0
-1.7787421,0.7979939,3.7521057,-0.099602476,-0.095553704,0.99042892,0
2.2218645,2.3907399,-3.4092002,0.099602476,0.095553704,-0.99042892,0
-2.1170845,0.39814234,-4.3873267,0.099602476,0.095553704,-0.99042892,0
-1.7458464,-1.2434576,-4.3142014,0.099602476,0.095553704,-0.99042892,0
-2.2543242,-2.9203372,-2.2788444,-0.98560143,-0.12720978,-0.11138984,0
3.2940195,-3.6420507,1.2016306,0.13663566,-0.98726261,-0.081507474,0
2.631825,1.1070001,1.2829776,0.98560143,0.12720978,0.11138984,0
-1.7450299,-4.1047816,-2.0948849,0.13663566,-0.98726261,-0.081507474,0
-2.5330946,-3.6312888,-0.35728693,-0.98560143,-0.12720978,-0.11138984,0
-2.0614145,-1.792207,-4.2380695,0.099602476,0.095553704,-0.99042892,0
-0.97814417,3.4723434,3.6415737,-0.13663566,0.98726261,0.081507474,0
-0.26426387,2.824007,-3.7318273,0.099602476,0.095553704,-0.99042892,0
1.4843602,3.3454299,-3.7567368,0.099602476,0.095553704,-0.99042892,0
-3.1534071,3.1010942,4.0667381,-0.099602476,-0.095553704,0.99042892,0
2.1580346,3.7740495,3.5053852,0.98560143,0.12720978,0.11138984,0
-2.5526524,-4.5027027,-0.0097699165,0.13663566,-0.98726261,-0.081507474,0
-2.5204771,-2.8746645,-0.23529768,-0.98560143,-0.12720978,-0.11138984,0
2.1329272,-1.5384771,-4.1390238,0.099602476,0.095553704,-0.99042892,0
2.7637639,-3.5440304,-3.423552,0.13663566,-0.98726261,-0.081507474,0
-3.0403831,0.14280224,1.5480487,-0.98560143,-0.12720978,-0.11138984,0
-2.5197659,-1.5558462,-2.5213466,-0.98560143,-0.12720978,-0.11138984,0
2.5847301,1.9268279,1.0471187,0.98560143,0.12720978,0.11138984,0
0.19650449,-0.54686165,4.0183935,-0.099602476,-0.095553704,0.99042892,0
-2.7694035,-0.66271925,-1.3976341,-0.98560143,-0.12720978,-0.11138984,0
-2.3262877,-1.5834816,-3.068692,-0.98560143,-0.12720978,-0.11138984,0
0.13056922,3.9297328,0.28990138,-0.13663566,0.98726261,0.081507474,0
-3.5829034,1.6350244,2.1074727,-0.98560143,-0.12720978,-0.11138984,0
-0.0028020144,0.61058545,3.9098318,-0.099602476,-0.095553704,0.99042892,0
2.4788356,-3.8574746,-0.28572291,0.13663566,-0.98726261,-0.081507474,0
-1.8119333,-4.0200205,-1.6373076,0.13663566,-0.98726261,-0.081507474,0
2.5398746,2.2842221,3.5986996,0.98560143,0.12720978,0.11138984,0
1.2190385,-3.9024503,-0.015420377,0.13663566,-0.98726261,-0.081507474,0
-0.64525485,-1.6083585,3.6654367,-0.099602476,-0.095553704,0.99042892,0
2.7916021,-1.8219233,3.7112873,0.98560143,0.12720978,0.11138984,0
-1.8768058,-4.1793923,-3.5946953,0.13663566,-0.98726261,-0.081507474,0
-3.5624928,2.5909042,1.441494,-0.98560143,-0.12720978,-0.11138984,0
-0.49020481,-3.027055,-4.5588355,0.099602476,0.095553704,-0.99042892,0
-3.2144196,3.7198324,-0.3618353,-0.13663566,0.98726261,0.081507474,0
-1.3404355,4.1393156,-1.8587952,-0.13663566,0.98726261,0.081507474,0
1.4828408,-3.6994185,0.40128821,0.13663566,-0.98726261,-0.081507474,0
-0.085278511,-2.6434674,-4.1781883,0.099602476,0.095553704,-0.99042892,0
-0.45249319,-4.3474259,2.7087767,0.13663566,-0.98726261,-0.081507474,0
3.4625587,-2.3598881,0.18918556,0.98560143,0.12720978,0.11138984,0
1.1023808,-4.3351698,3.6621785,0.13663566,-0.98726261,-0.081507474,0
-2.8704238,-2.1526024,-0.020519435,-0.98560143,-0.12720978,-0.11138984,0
3.502748,-2.9575646,-0.21723992,0.98560143,0.12720978,0.11138984,0
-3.1576917,2.6575508,-2.6940889,-0.98560143,-0.12720978,-0.11138984,0
-2.5845466,2.2551618,3.7972558,-0.099602476,-0.095553704,0.99042892,0
-3.1736321,1.4187595,1.0162473,-0.98560143,-0.12720978,-0.11138984,0
-0.90701902,0.9109562,4.0968709,-0.099602476,-0.095553704,0.99042892,0
0.93013525,1.7093365,4.2461214,-0.099602476,-0.095553704,0.99042892,0
-1.587554,2.5343664,-3.9432659,0.099602476,0.095553704,-0.99042892,0
-3.2270098,2.9236596,-1.188095,-0.98560143,-0.12720978,-0.11138984,0
-2.3122158,-4.5828767,2.9135385,0.13663566,-0.98726261,-0.081507474,0
2.383044,-3.8618584,-0.21444511,0.13663566,-0.98726261,-0.081507474,0
1.9448097,4.4951763,-2.0779943,-0.13663566,0.98726261,0.081507474,0
3.0204797,-3.4204988,-4.0827103,0.099602476,0.095553704,-0.99042892,0
-1.0740495,4.1688323,-0.80277014,-0.13663566,0.98726261,0.081507474,0
-2.5197077,-3.1262035,3.5022144,-0.099602476,-0.095553704,0.99042892,0
0.61607885,-3.843823,-1.7982116,0.13663566,-0.98726261,-0.081507474,0
-0.45985913,-4.5029759,2.6361315,0.13663566,-0.98726261,-0.081507474,0
2.8810577,2.5680399,-0.29236186,0.98560143,0.12720978,0.11138984,0
-0.32319653,-0.65942782,4.071744,-0.099602476,-0.095553704,0.99042892,0
-3.2352059,0.33567703,3.8740392,-0.099602476,-0.095553704,0.99042892,0
2.7525043,1.8967888,-1.0142826,0.98560143,0.12720978,0.11138984,0
-3.4505386,3.7624056,-2.2215421,-0.98560143,-0.12720978,-0.11138984,0
-1.6351571,-4.493125,2.2646461,0.13663566,-0.98726261,-0.081507474,0
-1.9037768,0.52410388,-4.1480875,0.099602476,0.095553704,-0.99042892,0
-0.80831075,-3.0236623,-4.241374,0.099602476,0.095553704,-0.99042892,0
-2.5543659,-2.6605687,0.27950001,-0.98560143,-0.12720978,-0.11138984,0
0.092976093,3.7563977,1.9892958,-0.13663566,0.98726261,0.081507474,0
3.512701,-1.2739725,-3.9597998,0.099602476,0.095553704,-0.99042892,0
-2.9125724,-2.5373597,0.91158009,-0.98560143,-0.12720978,-0.11138984,0
-2.4247971,-2.9021745,-3.8422093,-0.98560143,-0.12720978,-0.11138984,0
2.3470764,-3.6599681,-2.3164029,0.13663566,-0.98726261,-0.081507474,0
-3.2635937,0.71331537,2.2357411,-0.98560143,-0.12720978,-0.11138984,0
-2.057869,-4.2466483,-2.0783832,0.13663566,-0.98726261,-0.081507474,0
-3.0806637,3.0212715,-1.9371421,-0.98560143,-0.12720978,-0.11138984,0
3.2273231,-1.2796443,1.6236886,0.98560143,0.12720978,0.11138984,0
1.3169572,-3.7958314,-0.78726906,0.13663566,-0.98726261,-0.081507474,0
1.2026739,-4.1019688,2.7848053,0.13663566,-0.98726261,-0.081507474,0
2.7879839,1.0570266,2.4317646,0.98560143,0.12720978,0.11138984,0
2.4226878,-1.0219511,-3.8369665,0.099602476,0.095553704,-0.99042892,0
-0.22531986,3.6535363,4.187314,-0.13663566,0.98726261,0.081507474,0
-2.6090593,3.6893473,0.46765375,-0.13663566,0.98726261,0.081507474,0
-2.8937721,-1.6697116,3.4968114,-0.099602476,-0.095553704,0.99042892,0
2.6525156,0.044538021,3.2997594,0.98560143,0.12720978,0.11138984,0
-2.4860494,-0.24781132,-3.9032602,-0.98560143,-0.12720978,-0.11138984,0
3.4669032,0.58177161,-2.8356576,0.98560143,0.12720978,0.11138984,0
-1.5131514,-3.0648434,-4.3809071,0.099602476,0.095553704,-0.99042892,0
-0.50417185,4.1142511,-2.8138702,-0.13663566,0.98726261,0.081507474,0
2.979882,0.26182652,0.53133667,0.98560143,0.12720978,0.11138984,0
2.8883204,0.59909868,0.033732653,0.98560143,0.12720978,0.11138984,0
1.6128349,-3.8305674,1.2559797,0.13663566,-0.98726261,-0.081507474,0
1.5565686,0.08029753,-3.9252944,0.099602476,0.095553704,-0.99042892,0
-3.1881979,-0.32227516,2.6731639,-0.98560143,-0.12720978,-0.11138984,0
-1.5022933,3.7556949,-0.071626186,-0.13663566,0.98726261,0.081507474,0
0.40054893,3.2956176,-3.5117044,0.099602476,0.095553704,-0.99042892,0
-3.3435531,1.2468206,1.1082392,-0.98560143,-0.12720978,-0.11138984,0
3.7311628,-1.8405679,-2.3508437,0.98560143,0.12720978,0.11138984,0
3.2138038,0.62450361,-3.3341253,0.98560143,0.12720978,0.11138984,0
2.6588361,3.910979,-2.2242935,0.98560143,0.12720978,0.11138984,0
-3.1737339,-0.92432714,1.2209958,-0.98560143,-0.12720978,-0.11138984,0
0.52835774,-2.0794401,-4.0186338,0.099602476,0.095553704,-0.99042892,0
3.9867692,-2.7878652,-3.464272,0.98560143,0.12720978,0.11138984,0
-1.8935959,3.6739821,0.55461514,-0.13663566,0.98726261,0.081507474,0
2.6437626,0.90062857,1.556483,0.98560143,0.12720978,0.11138984,0
3.1828642,-3.3389921,-1.8463345,0.13663566,-0.98726261,-0.081507474,0
0.57642221,-0.4067837,4.0460162,-0.099602476,-0.095553704,0.99042892,0
2.2215862,4.48947,0.72014433,-0.13663566,0.98726261,0.081507474,0
2.3867986,-2.78269,-4.1874475,0.099602476,0.095553704,-0.99042892,0
2.797163,0.64071822,2.5403359,0.98560143,0.12720978,0.11138984,0
2.6590216,-3.7819569,3.5376027,0.13663566,-0.98726261,-0.081507474,0
-2.9063518,-2.796329,0.92559767,-0.98560143,-0.12720978,-0.11138984,0
-3.4390802,3.1259904,3.6265137,-0.13663566,0.98726261,0.081507474,0
-2.1814847,-4.5291815,1.5001919,0.13663566,-0.98726261,-0.081507474,0
1.4042099,3.4125919,-3.5590301,0.099602476,0.095553704,-0.99042892,0
0.42987084,-3.9612331,-1.0403126,0.13663566,-0.98726261,-0.081507474,0
2.4422717,3.7048187,-0.44113207,0.98560143,0.12720978,0.11138984,0
1.690109,-4.0602684,1.262135,0.13663566,-0.98726261,-0.081507474,0
2.9031715,-0.30330491,2.6855996,0.98560143,0.12720978,0.11138984,0
-2.5325863,-1.1145875,-2.3577998,-0.98560143,-0.12720978,-0.11138984,0
3.3188219,-2.4208694,0.37529001,0.98560143,0.12720978,0.11138984,0
-2.3189623,-4.7850752,2.5962636,0.13663566,-0.98726261,-0.081507474,0
0.55857193,-0.19648325,4.0652914,-0.099602476,-0.095553704,0.99042892,0
2.4375114,0.54770947,3.6667337,0.98560143,0.12720978,0.11138984,0
-1.8462806,-4.0045438,-3.7443602,0.13663566,-0.98726261,-0.081507474,0
-3.6302438,0.36927676,3.6031938,-0.98560143,-0.12720978,-0.11138984,0
-3.2740879,2.2363188,0.67067635,-0.98560143,-0.12720978,-0.11138984,0
3.2116914,-0.18982005,-0.64883208,0.98560143,0.12720978,0.11138984,0
0.2940464,4.1091933,1.6057415,-0.13663566,0.98726261,0.081507474,0
0.052350998,3.8534336,3.3250206,-0.13663566,0.98726261,0.081507474,0
-2.7208819,0.79288763,3.761179,-0.099602476,-0.095553704,0.99042892,0
