0.98405248,0.53711432,4.476027,-0.1961029,-0.24652529,0.94908845,0
3.1720433,-1.437923,-0.4801994,0.8587715,-0.5103904,0.044867754,0
-2.646421,0.10380447,-4.5758514,0.1961029,0.24652529,-0.94908845,0
-4.281806,-1.9287114,-1.4833611,-0.47334462,-0.82384878,-0.31179792,0
1.8670459,-4.0279775,-0.90414858,0.8587715,-0.5103904,0.044867754,0
-0.93168449,2.6493087,-3.6972785,0.1961029,0.24652529,-0.94908845,0
3.8485193,-0.45483994,-2.6668427,0.8587715,-0.5103904,0.044867754,0
-1.4207962,3.9581907,3.9736352,0.47334462,0.82384878,0.31179792,0
4.8859787,1.1497512,-2.8570075,0.1961029,0.24652529,-0.94908845,0
-1.7493685,0.97056341,4.3094921,-0.1961029,-0.24652529,0.94908845,0
1.9377165,3.0881221,1.6581255,0.47334462,0.82384878,0.31179792,0
-0.91096616,-3.4711459,-2.802722,-0.47334462,-0.82384878,-0.31179792,0
-4.7592421,-2.6680851,2.6529763,-0.1961029,-0.24652529,0.94908845,0
1.2523099,-4.7959213,-0.30444905,0.8587715,-0.5103904,0.044867754,0
3.4239559,-1.5539106,-1.080855,0.8587715,-0.5103904,0.044867754,0
-2.9280005,1.888,3.272723,-0.8587715,0.5103904,-0.044867754,0
1.5086678,-4.6323495,-0.56342685,0.8587715,-0.5103904,0.044867754,0
-0.69315946,-2.4735031,-4.9891629,0.1961029,0.24652529,-0.94908845,0
-2.7840083,-3.131484,-0.94896221,-0.47334462,-0.82384878,-0.31179792,0
-1.368764,-2.0287881,-4.9828119,0.1961029,0.24652529,-0.94908845,0
-2.2142167,-2.3496997,-3.4169657,-0.47334462,-0.82384878,-0.31179792,0
-0.97671413,5.1570721,0.18347339,0.47334462,0.82384878,0.31179792,0
0.88038832,1.6128312,-3.7020051,0.1961029,0.24652529,-0.94908845,0
2.8538074,-1.5954731,3.590245,0.8587715,-0.5103904,0.044867754,0
-1.0264977,-1.9159112,3.6345708,-0.1961029,-0.24652529,0.94908845,0
-1.45627,4.242137,0.39687747,-0.8587715,0.5103904,-0.044867754,0
-0.75901151,3.6361117,3.9311998,0.47334462,0.82384878,0.31179792,0
-0.88565803,-3.1065969,-3.5939429,-0.47334462,-0.82384878,-0.31179792,0
-3.0648246,-1.463675,-4.3711233,-0.47334462,-0.82384878,-0.31179792,0
-3.6140113,-1.3305569,-4.021245,-0.47334462,-0.82384878,-0.31179792,0
-3.0839336,-2.3597801,-1.7978566,-0.47334462,-0.82384878,-0.31179792,0
4.9148836,1.2154014,1.1237798,0.8587715,-0.5103904,0.044867754,0
-2.1510463,3.1594329,2.8667645,-0.8587715,0.5103904,-0.044867754,0
2.9562016,-1.8831267,3.8204908,0.8587715,-0.5103904,0.044867754,0
-4.6474986,-1.8433361,-0.7632767,-0.47334462,-0.82384878,-0.31179792,0
-2.7782509,-0.076097727,3.4252861,-0.1961029,-0.24652529,0.94908845,0
2.2299113,-2.4258356,3.8879018,-0.1961029,-0.24652529,0.94908845,0
-2.1157546,3.2805061,4.0323238,-0.8587715,0.5103904,-0.044867754,0
-2.9198923,-3.3636923,-0.10918739,-0.47334462,-0.82384878,-0.31179792,0
0.73293889,3.2745748,-3.0121756,0.1961029,0.24652529,-0.94908845,0
-1.9759707,-3.1326933,-1.8041873,-0.47334462,-0.82384878,-0.31179792,0
1.745554,1.8121457,5.1896815,0.47334462,0.82384878,0.31179792,0
-2.7684369,-1.6968348,3.3008018,-0.1961029,-0.24652529,0.94908845,0
2.6285419,-2.6337342,-1.2545829,0.8587715,-0.5103904,0.044867754,0
4.0842838,2.1204789,1.0286789,0.47334462,0.82384878,0.31179792,0
3.5270374,3.6935365,-2.5240903,0.1961029,0.24652529,-0.94908845,0
-2.9670224,1.3217936,3.7595506,-0.1961029,-0.24652529,0.94908845,0
2.9129863,-1.7745137,-1.042805,0.8587715,-0.5103904,0.044867754,0
-1.4660673,-5.0626616,2.198611,-0.47334462,-0.82384878,-0.31179792,0
3.3981264,2.3424206,1.0481503,0.47334462,0.82384878,0.31179792,0
2.9953613,1.2443763,4.7986412,0.47334462,0.82384878,0.31179792,0
-1.4265726,2.4722304,-3.7354491,0.1961029,0.24652529,-0.94908845,0
4.5370283,2.4011145,-0.815813,0.47334462,0.82384878,0.31179792,0
-3.5967994,-1.8967655,-2.0436356,-0.47334462,-0.82384878,-0.31179792,0
2.2251332,-2.1561272,4.2261887,-0.1961029,-0.24652529,0.94908845,0
-3.7472353,-3.5041947,2.1903067,-0.47334462,-0.82384878,-0.31179792,0
-4.6123295,-1.945955,-0.48511472,-0.47334462,-0.82384878,-0.31179792,0
1.5716689,3.0780544,2.5754702,0.47334462,0.82384878,0.31179792,0
2.8338349,-2.2762551,0.45241272,0.8587715,-0.5103904,0.044867754,0
-4.6437578,-0.68968093,3.1643507,-0.1961029,-0.24652529,0.94908845,0
3.2308464,-1.8301667,-0.44538414,0.8587715,-0.5103904,0.044867754,0
-1.5826735,4.1621146,-0.22220513,-0.8587715,0.5103904,-0.044867754,0
1.9448371,4.3891482,-2.7682538,0.1961029,0.24652529,-0.94908845,0
-0.82791215,1.6734548,-3.7610426,0.1961029,0.24652529,-0.94908845,0
1.5355024,4.2122459,-0.82479656,0.47334462,0.82384878,0.31179792,0
-1.7342038,-1.3303753,3.5700791,-0.1961029,-0.24652529,0.94908845,0
-4.8585258,-1.4578866,-1.4563447,-0.8587715,0.5103904,-0.044867754,0
2.2976282,-3.0202322,3.123827,0.8587715,-0.5103904,0.044867754,0
3.6756268,-0.7710011,-3.5904729,0.1961029,0.24652529,-0.94908845,0
1.975973,0.38279605,4.8894482,-0.1961029,-0.24652529,0.94908845,0
-0.35218287,-3.8257804,-2.7986517,-0.47334462,-0.82384878,-0.31179792,0
-3.1562266,-2.6651914,-1.4677966,-0.47334462,-0.82384878,-0.31179792,0
1.5868046,1.3009025,-3.5365372,0.1961029,0.24652529,-0.94908845,0
-0.43485153,5.5280294,-2.4416239,-0.8587715,0.5103904,-0.044867754,0
-4.5655417,-1.1684167,-2.1060021,-0.8587715,0.5103904,-0.044867754,0
-3.7674332,-3.1886039,1.554673,-0.47334462,-0.82384878,-0.31179792,0
-0.25555837,-2.2061105,3.5671904,-0.1961029,-0.24652529,0.94908845,0
-1.731093,-1.796074,-4.8602886,-0.47334462,-0.82384878,-0.31179792,0
-1.0977989,-1.0164036,-4.6677532,0.1961029,0.24652529,-0.94908845,0
-1.5517638,4.3644543,1.975368,-0.8587715,0.5103904,-0.044867754,0
4.1142883,0.23289979,1.8680199,0.8587715,-0.5103904,0.044867754,0
0.84408879,3.4316618,3.0023029,0.47334462,0.82384878,0.31179792,0
-4.3312788,-2.9793081,1.4524714,-0.47334462,-0.82384878,-0.31179792,0
-2.4954011,-2.1468909,3.0687048,-0.1961029,-0.24652529,0.94908845,0
3.6813364,2.5884538,-2.7003243,0.1961029,0.24652529,-0.94908845,0
0.41461089,0.35380307,-4.2411599,0.1961029,0.24652529,-0.94908845,0
-0.35448647,2.2409191,4.8921537,-0.1961029,-0.24652529,0.94908845,0
3.5926366,1.7625852,2.7844005,0.47334462,0.82384878,0.31179792,0
-1.6208103,-0.056710958,3.8564842,-0.1961029,-0.24652529,0.94908845,0
-0.34188366,-3.9140761,-2.3216047,-0.47334462,-0.82384878,-0.31179792,0
-1.1403836,4.4017358,-2.6372106,-0.8587715,0.5103904,-0.044867754,0
-3.2838101,-2.1047258,-2.7938333,-0.47334462,-0.82384878,-0.31179792,0
4.7728724,1.104928,-0.17065728,0.8587715,-0.5103904,0.044867754,0
-1.2252718,-3.2339039,-2.0023031,-0.47334462,-0.82384878,-0.31179792,0
-4.2997541,-2.9172163,2.7345486,-0.1961029,-0.24652529,0.94908845,0
-3.1411195,-2.4474521,3.0526772,-0.1961029,-0.24652529,0.94908845,0
4.4710579,1.3584511,2.0332654,0.47334462,0.82384878,0.31179792,0
1.4099654,-4.1785331,0.34432906,0.8587715,-0.5103904,0.044867754,0
-4.9473886,-1.4475782,-1.0195444,-0.47334462,-0.82384878,-0.31179792,0
-4.8677635,-1.0869308,0.2998786,-0.8587715,0.5103904,-0.044867754,0
2.1558609,-3.5229208,-3.5716679,0.8587715,-0.5103904,0.044867754,0
-4.0764956,0.19434071,1.8478513,-0.8587715,0.5103904,-0.044867754,0
4.477263,1.9363078,-2.5919003,0.1961029,0.24652529,-0.94908845,0
-1.9274397,3.6408367,4.8757792,-0.1961029,-0.24652529,0.94908845,0
-0.82014465,-5.1185513,1.921124,-0.47334462,-0.82384878,-0.31179792,0
1.5134856,2.7256696,3.3805428,0.47334462,0.82384878,0.31179792,0
-0.64108562,4.1110172,2.3808367,0.47334462,0.82384878,0.31179792,0
0.15130448,5.3507981,-2.0231738,0.47334462,0.82384878,0.31179792,0
4.1427064,1.6491549,1.5868331,0.47334462,0.82384878,0.31179792,0
-1.1774169,-0.99115002,-4.9208126,0.1961029,0.24652529,-0.94908845,0
0.79182363,-5.1282949,-0.90535402,-0.47334462,-0.82384878,-0.31179792,0
-4.3734369,-2.351193,-0.40011659,-0.47334462,-0.82384878,-0.31179792,0
1.0056212,1.6111488,5.0279713,-0.1961029,-0.24652529,0.94908845,0
4.9635715,2.8233707,-2.0338559,0.47334462,0.82384878,0.31179792,0
-0.93679786,5.0946779,0.8898772,0.47334462,0.82384878,0.31179792,0
-4.1168194,-0.64076942,-4.0233078,-0.8587715,0.5103904,-0.044867754,0
1.1584755,2.6140606,-3.3143981,0.1961029,0.24652529,-0.94908845,0
0.59970081,-0.82825553,-4.3379731,0.1961029,0.24652529,-0.94908845,0
1.7179735,3.3000889,-2.9106328,0.1961029,0.24652529,-0.94908845,0
-0.86392772,1.1467137,-4.1533842,0.1961029,0.24652529,-0.94908845,0
1.5394406,3.8234897,0.65479219,0.47334462,0.82384878,0.31179792,0
-1.8918605,-2.6020794,-2.492512,-0.47334462,-0.82384878,-0.31179792,0
1.9524965,-3.3522599,-0.58903593,0.8587715,-0.5103904,0.044867754,0
3.519156,-1.5953157,-3.2174292,0.8587715,-0.5103904,0.044867754,0
-1.8426483,4.1156015,4.337955,0.47334462,0.82384878,0.31179792,0
-0.74924207,-1.8713347,-5.0005951,0.1961029,0.24652529,-0.94908845,0
-0.054668188,-4.9316897,0.84545791,-0.47334462,-0.82384878,-0.31179792,0
3.5354745,-0.30320215,-3.3848829,0.1961029,0.24652529,-0.94908845,0
0.61628085,-1.1220371,3.9860187,-0.1961029,-0.24652529,0.94908845,0
0.051024437,4.7511058,0.08979433,0.47334462,0.82384878,0.31179792,0
-1.24345,2.5539124,-3.7591436,0.1961029,0.24652529,-0.94908845,0
-4.8818884,-1.6430092,1.089691,-0.8587715,0.5103904,-0.044867754,0
0.059406757,-4.2784958,-1.4896277,-0.47334462,-0.82384878,-0.31179792,0
-3.1110511,-1.9301028,-2.5616622,-0.47334462,-0.82384878,-0.31179792,0
-0.32416463,-4.0827899,-1.4968729,-0.47334462,-0.82384878,-0.31179792,0
-5.6173968,-2.5827458,2.1677852,-0.47334462,-0.82384878,-0.31179792,0
0.68771267,3.9550533,1.4866582,0.47334462,0.82384878,0.31179792,0
1.0723491,4.5646391,-2.787313,0.1961029,0.24652529,-0.94908845,0
0.043099165,-2.96065,-5.1723495,0.1961029,0.24652529,-0.94908845,0
1.5560379,-4.3855972,-2.5435965,0.8587715,-0.5103904,0.044867754,0
-1.3790548,4.0813723,4.2515068,0.47334462,0.82384878,0.31179792,0
1.1553123,-4.7124767,-2.0243959,-0.47334462,-0.82384878,-0.31179792,0
-2.73298,-2.6394067,2.8148789,-0.1961029,-0.24652529,0.94908845,0
4.0728984,2.3002417,-2.9743536,0.1961029,0.24652529,-0.94908845,0
2.1222568,-1.5017718,4.3409824,-0.1961029,-0.24652529,0.94908845,0
-2.1833429,-1.0198261,3.6348717,-0.1961029,-0.24652529,0.94908845,0
0.4419812,-5.5195446,1.5427675,-0.47334462,-0.82384878,-0.31179792,0
-0.8130331,1.0149807,4.4195023,-0.1961029,-0.24652529,0.94908845,0
4.6297369,1.2683102,2.2377949,0.8587715,-0.5103904,0.044867754,0
3.2229855,-1.7547941,-2.6686158,0.8587715,-0.5103904,0.044867754,0
-3.3564329,0.73822224,-2.2110722,-0.8587715,0.5103904,-0.044867754,0
0.85835332,-0.72201931,4.3832998,-0.1961029,-0.24652529,0.94908845,0
0.38654804,-4.9689598,0.083980605,-0.47334462,-0.82384878,-0.31179792,0
4.2895265,0.11043179,-1.0481445,0.8587715,-0.5103904,0.044867754,0
4.7696671,1.2022681,-0.12277162,0.8587715,-0.5103904,0.044867754,0
-0.065244436,5.6767697,-2.6560884,0.47334462,0.82384878,0.31179792,0
-3.7478268,-3.0096655,0.99986178,-0.47334462,-0.82384878,-0.31179792,0
1.6927698,3.529248,0.59497952,0.47334462,0.82384878,0.31179792,0
-0.27774441,4.6598072,1.2444816,0.47334462,0.82384878,0.31179792,0
-3.4852157,-2.6220028,0.010082901,-0.47334462,-0.82384878,-0.31179792,0
2.2036943,-1.5577868,-4.3455529,0.1961029,0.24652529,-0.94908845,0
-0.31556296,3.2350073,-3.5598085,0.1961029,0.24652529,-0.94908845,0
0.75620306,4.3944917,-3.0800529,0.1961029,0.24652529,-0.94908845,0
-1.654829,-1.8545165,-5.1894932,-0.47334462,-0.82384878,-0.31179792,0
0.47737932,-5.5774641,1.0182368,0.8587715,-0.5103904,0.044867754,0
0.55313373,3.6626825,2.3682778,0.47334462,0.82384878,0.31179792,0
-0.83003449,-4.4048796,-0.03064302,-0.47334462,-0.82384878,-0.31179792,0
-2.9476743,-1.0011992,-4.8986773,0.1961029,0.24652529,-0.94908845,0
0.99058223,3.642699,1.728711,0.47334462,0.82384878,0.31179792,0
-2.3403912,2.406831,4.5257359,-0.1961029,-0.24652529,0.94908845,0
-0.5076794,0.30636901,-4.4492679,0.1961029,0.24652529,-0.94908845,0
-2.7806454,2.3617823,-1.6209233,-0.8587715,0.5103904,-0.044867754,0
1.6408358,0.97031844,-3.4852145,0.1961029,0.24652529,-0.94908845,0
1.8383224,3.2303164,1.1004932,0.47334462,0.82384878,0.31179792,0
-2.9151967,2.3628464,0.73194474,-0.8587715,0.5103904,-0.044867754,0
-3.5593958,-3.4083219,1.5619323,-0.47334462,-0.82384878,-0.31179792,0
-3.1966538,1.0271821,-2.734894,-0.8587715,0.5103904,-0.044867754,0
-4.9355526,-1.1648588,0.48242903,-0.8587715,0.5103904,-0.044867754,0
2.8416965,3.9695745,-1.5953575,0.47334462,0.82384878,0.31179792,0
3.3429689,-0.87046623,2.2871823,0.8587715,-0.5103904,0.044867754,0
0.96466959,-1.0836196,4.0440998,-0.1961029,-0.24652529,0.94908845,0
-2.8307269,2.0671899,0.80555886,-0.8587715,0.5103904,-0.044867754,0
-3.1726742,0.40077198,3.7595356,-0.1961029,-0.24652529,0.94908845,0
2.1388085,-1.5495532,-4.0476828,0.1961029,0.24652529,-0.94908845,0
3.565788,-0.5083288,0.62394524,0.8587715,-0.5103904,0.044867754,0
-0.86506903,2.3573947,-3.6093926,0.1961029,0.24652529,-0.94908845,0
-1.358609,-3.4429891,-1.1817226,-0.47334462,-0.82384878,-0.31179792,0
-2.7555425,-2.3054461,-2.4017806,-0.47334462,-0.82384878,-0.31179792,0
-1.4770899,-0.42918652,-4.5035319,0.1961029,0.24652529,-0.94908845,0
3.8984902,0.01042223,0.8296259,0.8587715,-0.5103904,0.044867754,0
-3.6111519,1.0726426,3.2411118,-0.8587715,0.5103904,-0.044867754,0
1.5041149,3.1226621,-3.0697262,0.1961029,0.24652529,-0.94908845,0
-3.2572279,1.5616356,-2.3273473,-0.8587715,0.5103904,-0.044867754,0
-1.2251518,-3.9557338,-0.47559112,-0.47334462,-0.82384878,-0.31179792,0
-0.12741876,-4.8396492,0.59290379,-0.47334462,-0.82384878,-0.31179792,0
1.8393556,-3.4552732,-4.717701,0.1961029,0.24652529,-0.94908845,0
3.0011659,2.149657,-3.2389503,0.1961029,0.24652529,-0.94908845,0
1.8423746,-3.7814007,-1.5172024,0.8587715,-0.5103904,0.044867754,0
-2.081811,-0.29161906,3.7514324,-0.1961029,-0.24652529,0.94908845,0
-1.4304755,-4.5375848,1.0814233,-0.47334462,-0.82384878,-0.31179792,0
1.7132314,2.3527617,4.4634743,0.47334462,0.82384878,0.31179792,0
1.5391085,4.172781,-2.7514584,0.1961029,0.24652529,-0.94908845,0
-0.35331321,-5.2267966,1.0538802,-0.47334462,-0.82384878,-0.31179792,0
-0.83015871,3.5123262,4.5124383,0.47334462,0.82384878,0.31179792,0
-1.2949433,-4.8210115,2.6940601,-0.1961029,-0.24652529,0.94908845,0
-4.8374939,-1.4735109,2.2130313,-0.8587715,0.5103904,-0.044867754,0
2.8473072,3.1004109,0.76293612,0.47334462,0.82384878,0.31179792,0
-1.55168,4.5662308,-0.78867435,-0.8587715,0.5103904,-0.044867754,0
0.95515096,2.6282687,4.6340499,0.47334462,0.82384878,0.31179792,0
-2.6513562,-2.4587092,-1.7933426,-0.47334462,-0.82384878,-0.31179792,0
-2.0133252,2.2230959,4.5473666,-0.1961029,-0.24652529,0.94908845,0
2.973403,-2.2029712,-1.6759591,0.8587715,-0.5103904,0.044867754,0
4.4992194,0.25783098,-0.99692273,0.8587715,-0.5103904,0.044867754,0
0.071535945,3.8786249,-3.1519284,0.1961029,0.24652529,-0.94908845,0
-4.5739708,-0.78337592,-3.1063199,-0.8587715,0.5103904,-0.044867754,0
2.4120722,-2.7917838,-1.1779225,0.8587715,-0.5103904,0.044867754,0
2.2527828,-2.5282724,3.396054,0.8587715,-0.5103904,0.044867754,0
-2.4908719,0.92371225,-4.2977872,0.1961029,0.24652529,-0.94908845,0
0.42721987,-5.3383756,0.37028509,-0.47334462,-0.82384878,-0.31179792,0
1.5164087,-2.3419294,-4.6903663,0.1961029,0.24652529,-0.94908845,0
-0.94790852,-2.7441313,3.1078906,-0.1961029,-0.24652529,0.94908845,0
0.47584414,1.5962336,4.6600928,-0.1961029,-0.24652529,0.94908845,0
2.5224826,2.5994625,2.4246092,0.47334462,0.82384878,0.31179792,0
0.16010714,-5.3714638,0.99205524,-0.47334462,-0.82384878,-0.31179792,0
-1.123595,-4.7644148,1.7038007,-0.47334462,-0.82384878,-0.31179792,0
-3.4752707,0.47892916,-4.4402986,-0.8587715,0.5103904,-0.044867754,0
1.0216024,-5.099586,-0.63614613,0.8587715,-0.5103904,0.044867754,0
-2.8455398,1.6516681,-1.6858703,-0.8587715,0.5103904,-0.044867754,0
-2.4277744,2.9390204,4.2232752,-0.8587715,0.5103904,-0.044867754,0
3.8963699,-0.17380774,1.8303241,0.8587715,-0.5103904,0.044867754,0
0.21585381,-3.9124231,-2.8094637,-0.47334462,-0.82384878,-0.31179792,0
0.48109356,1.6103013,-3.8155046,0.1961029,0.24652529,-0.94908845,0
-4.1189957,0.3523252,0.59328204,-0.8587715,0.5103904,-0.044867754,0
2.292716,2.7338109,2.5259335,0.47334462,0.82384878,0.31179792,0
-1.6969111,-3.6503987,-0.1906513,-0.47334462,-0.82384878,-0.31179792,0
0.96159852,-0.68323821,4.3127708,-0.1961029,-0.24652529,0.94908845,0
3.362288,3.1969366,-0.8693862,0.47334462,0.82384878,0.31179792,0
-2.736558,2.5825579,2.3551681,-0.8587715,0.5103904,-0.044867754,0
2.6092784,4.0023971,-1.4625767,0.47334462,0.82384878,0.31179792,0
2.5306938,3.7509058,-1.2817755,0.47334462,0.82384878,0.31179792,0
-3.2677462,0.90350592,-4.3951645,-0.8587715,0.5103904,-0.044867754,0
-0.8245914,-0.70928532,-4.5129824,0.1961029,0.24652529,-0.94908845,0
-3.9004757,0.078927398,-1.9098339,-0.8587715,0.5103904,-0.044867754,0
0.91555345,0.83261621,-3.6847265,0.1961029,0.24652529,-0.94908845,0
1.3392143,-0.032329179,4.5185227,-0.1961029,-0.24652529,0.94908845,0
2.556637,2.2511411,3.567215,0.47334462,0.82384878,0.31179792,0
-1.111403,-2.4722319,3.1327233,-0.1961029,-0.24652529,0.94908845,0
4.8333483,1.2686646,-1.2216048,0.8587715,-0.5103904,0.044867754,0
-3.9368629,0.079611063,-4.0819178,-0.8587715,0.5103904,-0.044867754,0
4.9016709,2.7796559,-2.24681,0.47334462,0.82384878,0.31179792,0
3.4489686,-1.1785454,-1.1614068,0.8587715,-0.5103904,0.044867754,0
-2.8111746,-3.0280285,-0.82049876,-0.47334462,-0.82384878,-0.31179792,0
1.5074291,-0.23288827,4.6339812,-0.1961029,-0.24652529,0.94908845,0
4.5794563,2.9043984,-2.1315889,0.47334462,0.82384878,0.31179792,0
-1.7694838,-4.4966755,1.8563606,-0.47334462,-0.82384878,-0.31179792,0
3.8968227,-0.8348074,-3.0962958,0.8587715,-0.5103904,0.044867754,0
1.159326,-3.1233017,-4.7676482,0.1961029,0.24652529,-0.94908845,0
1.4652598,4.1092539,-0.28955561,0.47334462,0.82384878,0.31179792,0
-4.2533016,-1.1275172,2.9558599,-0.1961029,-0.24652529,0.94908845,0
-3.6383243,-3.578156,2.4515932,-0.1961029,-0.24652529,0.94908845,0
-1.9469204,0.31330636,-4.3357964,0.1961029,0.24652529,-0.94908845,0
-2.5416262,1.974128,-4.111639,-0.8587715,0.5103904,-0.044867754,0
-0.59323525,-2.7052794,-5.1321526,-0.47334462,-0.82384878,-0.31179792,0
-3.855474,0.34671164,-1.4558175,-0.8587715,0.5103904,-0.044867754,0
-4.5965395,-2.7462959,1.8587557,-0.47334462,-0.82384878,-0.31179792,0
-0.55707484,2.3629072,-3.5233598,0.1961029,0.24652529,-0.94908845,0
-1.4570346,-2.9357383,-2.268265,-0.47334462,-0.82384878,-0.31179792,0
-2.4865932,2.6342738,3.9143989,-0.8587715,0.5103904,-0.044867754,0
5.5259972,2.5498493,-2.1746225,0.8587715,-0.5103904,0.044867754,0
-2.39153,-3.7104564,2.716049,-0.1961029,-0.24652529,0.94908845,0
-4.8074889,-1.9944777,2.5730937,-0.1961029,-0.24652529,0.94908845,0
-1.5666351,4.7703834,2.1850886,-0.8587715,0.5103904,-0.044867754,0
3.5744431,3.0653644,-0.357261,0.47334462,0.82384878,0.31179792,0
-4.3487058,-0.36756682,-2.9633784,-0.8587715,0.5103904,-0.044867754,0
-2.5616879,-2.0042706,-3.376045,-0.47334462,-0.82384878,-0.31179792,0
3.5535038,-0.98947704,-1.6752487,0.8587715,-0.5103904,0.044867754,0
-1.4887393,-2.7441006,-2.7947187,-0.47334462,-0.82384878,-0.31179792,0
-2.5263398,-2.8921301,-1.102493,-0.47334462,-0.82384878,-0.31179792,0
5.0346479,1.5387772,-0.91129041,0.8587715,-0.5103904,0.044867754,0
-0.045633078,3.448895,4.0175085,0.47334462,0.82384878,0.31179792,0
2.6254411,-2.1202631,2.5477917,0.8587715,-0.5103904,0.044867754,0
-1.466289,2.8517709,4.7025762,-0.1961029,-0.24652529,0.94908845,0
-0.46686399,-3.8735938,3.1584058,-0.1961029,-0.24652529,0.94908845,0
4.6118593,0.74761581,1.3143885,0.8587715,-0.5103904,0.044867754,0
1.0602374,3.2123394,3.3287067,0.47334462,0.82384878,0.31179792,0
1.1535361,-5.0164013,1.2825812,0.8587715,-0.5103904,0.044867754,0
-2.3637033,-2.4531667,-3.1184058,-0.47334462,-0.82384878,-0.31179792,0
-0.62405777,-3.518295,-3.1356125,-0.47334462,-0.82384878,-0.31179792,0
-2.3236561,2.518538,-3.8259611,-0.8587715,0.5103904,-0.044867754,0
-2.1528213,-4.1210842,0.75900948,-0.47334462,-0.82384878,-0.31179792,0
3.023634,0.70934814,-3.4382856,0.1961029,0.24652529,-0.94908845,0
2.0873122,-3.9135485,-4.3141093,0.8587715,-0.5103904,0.044867754,0
3.9754152,1.1876109,3.1401134,0.47334462,0.82384878,0.31179792,0
5.1496768,1.2594935,-2.4281921,0.8587715,-0.5103904,0.044867754,0
-1.5804834,-4.6967983,1.7052255,-0.47334462,-0.82384878,-0.31179792,0
-3.8220918,-3.4902115,2.2557826,-0.47334462,-0.82384878,-0.31179792,0
-0.77674794,-4.7022266,0.17346433,-0.47334462,-0.82384878,-0.31179792,0
4.6668935,1.3232996,-3.0377393,0.1961029,0.24652529,-0.94908845,0
0.82115024,-4.7114954,2.9969332,-0.1961029,-0.24652529,0.94908845,0
-1.219599,4.6706433,0.76044881,-0.8587715,0.5103904,-0.044867754,0
1.3645353,3.4640839,1.4844707,0.47334462,0.82384878,0.31179792,0
-4.3492222,-0.82120872,-0.92629761,-0.8587715,0.5103904,-0.044867754,0
0.63363391,-0.9438113,3.9825897,-0.1961029,-0.24652529,0.94908845,0
2.0993297,3.6138887,0.55962759,0.47334462,0.82384878,0.31179792,0
1.1764942,2.8658342,3.3857999,0.47334462,0.82384878,0.31179792,0
0.32924664,-4.9313526,0.13796085,-0.47334462,-0.82384878,-0.31179792,0
-2.9007602,0.72627413,3.6119444,-0.1961029,-0.24652529,0.94908845,0
-1.8953075,3.8023508,1.6789057,-0.8587715,0.5103904,-0.044867754,0
-1.3337786,-4.9804335,1.8195333,-0.47334462,-0.82384878,-0.31179792,0
-4.7219787,-0.94359374,0.91492605,-0.8587715,0.5103904,-0.044867754,0
4.3609915,0.73614645,0.98588365,0.8587715,-0.5103904,0.044867754,0
1.7103708,3.3624945,-2.8686264,0.1961029,0.24652529,-0.94908845,0
-0.67855173,0.71259344,4.0956182,-0.1961029,-0.24652529,0.94908845,0
-4.0928869,-1.9332683,-1.993816,-0.47334462,-0.82384878,-0.31179792,0
-0.7586937,4.0326109,2.814929,0.47334462,0.82384878,0.31179792,0
-0.98941088,-3.2128837,-3.445271,-0.47334462,-0.82384878,-0.31179792,0
1.0280983,-5.2987876,0.9722178,0.8587715,-0.5103904,0.044867754,0
2.1886461,1.6313432,4.564043,0.47334462,0.82384878,0.31179792,0
2.0692201,1.8160241,4.937427,0.47334462,0.82384878,0.31179792,0
-0.45333683,4.1340647,3.0623286,0.47334462,0.82384878,0.31179792,0
2.3411496,-2.787751,1.8710176,0.8587715,-0.5103904,0.044867754,0
2.8480976,-2.2823982,1.1318816,0.8587715,-0.5103904,0.044867754,0
2.6015484,3.8755424,-1.6321102,0.47334462,0.82384878,0.31179792,0
-1.034258,0.053497493,3.8445396,-0.1961029,-0.24652529,0.94908845,0
-4.1240025,-1.330238,3.15411,-0.1961029,-0.24652529,0.94908845,0
-0.17297721,-3.1839416,3.4414473,-0.1961029,-0.24652529,0.94908845,0
4.470747,2.9879293,-2.5952952,0.1961029,0.24652529,-0.94908845,0
-4.0488787,0.29992008,1.5336666,-0.8587715,0.5103904,-0.044867754,0
-4.6892405,-2.7173898,2.3317237,-0.1961029,-0.24652529,0.94908845,0
2.6359086,1.1495162,-3.4113986,0.1961029,0.24652529,-0.94908845,0
-5.0785551,-1.9546454,0.2665695,-0.8587715,0.5103904,-0.044867754,0
2.6533856,2.4497058,-3.0601342,0.1961029,0.24652529,-0.94908845,0
-4.629344,-0.88039458,1.2649058,-0.8587715,0.5103904,-0.044867754,0
-0.57907891,4.6513224,1.2500533,0.47334462,0.82384878,0.31179792,0
-3.8524108,0.29126084,-0.25529611,-0.8587715,0.5103904,-0.044867754,0
-0.77864826,-3.1062841,-3.0877156,-0.47334462,-0.82384878,-0.31179792,0
1.1613125,-1.7974727,3.9024918,-0.1961029,-0.24652529,0.94908845,0
0.42809606,-4.5893631,-0.96110976,-0.47334462,-0.82384878,-0.31179792,0
0.18547583,4.6153641,-2.8067214,0.1961029,0.24652529,-0.94908845,0
3.9278541,-0.60725665,-1.9151826,0.8587715,-0.5103904,0.044867754,0
-1.3529279,-4.9702778,2.6322887,-0.47334462,-0.82384878,-0.31179792,0
1.9829062,-1.8754402,-4.1650639,0.1961029,0.24652529,-0.94908845,0
-0.51963794,4.8547549,-3.1491597,0.1961029,0.24652529,-0.94908845,0
2.9105015,0.73813021,4.9606647,-0.1961029,-0.24652529,0.94908845,0
1.6788871,-3.678143,3.4796681,0.8587715,-0.5103904,0.044867754,0
4.5836725,1.507903,1.9487145,0.47334462,0.82384878,0.31179792,0
-0.70675504,3.4739089,4.4278164,0.47334462,0.82384878,0.31179792,0
0.41682339,4.0001926,2.2670636,0.47334462,0.82384878,0.31179792,0
-3.351927,-1.7611929,-3.1573637,-0.47334462,-0.82384878,-0.31179792,0
0.43003064,-2.5015378,3.7849658,-0.1961029,-0.24652529,0.94908845,0
4.0312982,0.21135843,3.725733,0.8587715,-0.5103904,0.044867754,0
-0.031311568,-0.75995147,4.0209479,-0.1961029,-0.24652529,0.94908845,0
-4.1553135,-1.0452558,-3.5753942,-0.47334462,-0.82384878,-0.31179792,0
-3.8791766,-1.7399151,2.9463449,-0.1961029,-0.24652529,0.94908845,0
1.3824379,2.5257795,3.8846686,0.47334462,0.82384878,0.31179792,0
2.891454,-1.2402041,-3.9174967,0.1961029,0.24652529,-0.94908845,0
0.95383412,-2.9326346,3.4403663,-0.1961029,-0.24652529,0.94908845,0
0.81866312,2.7244384,4.6949434,0.47334462,0.82384878,0.31179792,0
0.54716206,-4.5470505,3.2531199,-0.1961029,-0.24652529,0.94908845,0
-1.5849867,-2.5876038,-3.053005,-0.47334462,-0.82384878,-0.31179792,0
0.17700577,-6.0280452,2.479481,-0.47334462,-0.82384878,-0.31179792,0
3.7223873,-0.51602483,-0.18573481,0.8587715,-0.5103904,0.044867754,0
3.9021044,1.9336538,2.255187,0.47334462,0.82384878,0.31179792,0
-1.5715415,3.680891,-3.5471776,-0.8587715,0.5103904,-0.044867754,0
-4.3596945,-0.50835037,2.4633265,-0.8587715,0.5103904,-0.044867754,0
-4.299284,-0.18142104,1.9181154,-0.8587715,0.5103904,-0.044867754,0
-1.4081581,-2.054723,3.2374027,-0.1961029,-0.24652529,0.94908845,0
-0.47983968,-4.1575317,2.8802731,-0.1961029,-0.24652529,0.94908845,0
3.4054976,-0.83285868,2.9156196,0.8587715,-0.5103904,0.044867754,0
4.4915938,2.5342903,-0.52656513,0.47334462,0.82384878,0.31179792,0
-1.4527303,0.69243395,-4.4284492,0.1961029,0.24652529,-0.94908845,0
-0.81927121,-0.87771827,-4.4758878,0.1961029,0.24652529,-0.94908845,0
3.8966913,0.11245519,5.0761309,0.8587715,-0.5103904,0.044867754,0
0.11043048,3.89821,2.8877096,0.47334462,0.82384878,0.31179792,0
-3.7098019,-2.033694,-2.2781801,-0.47334462,-0.82384878,-0.31179792,0
-0.23968512,1.6803854,4.5470161,-0.1961029,-0.24652529,0.94908845,0
-0.99372816,-1.1641663,-4.6724586,0.1961029,0.24652529,-0.94908845,0
-1.1004869,-0.37145019,3.6971076,-0.1961029,-0.24652529,0.94908845,0
-2.8507669,2.3815386,2.865634,-0.8587715,0.5103904,-0.044867754,0
-2.3464024,-0.23049772,3.5391982,-0.1961029,-0.24652529,0.94908845,0
4.3642645,3.1757925,-2.3665614,0.47334462,0.82384878,0.31179792,0
4.4925141,2.4531786,-0.75143391,0.47334462,0.82384878,0.31179792,0
0.12903893,0.14976856,-4.3335576,0.1961029,0.24652529,-0.94908845,0
-1.1240894,0.66513854,-4.3469224,0.1961029,0.24652529,-0.94908845,0
-5.0386724,-1.5595454,1.1214011,-0.8587715,0.5103904,-0.044867754,0
-0.13914061,-4.8306041,-0.20972291,-0.47334462,-0.82384878,-0.31179792,0
-0.16556048,-3.7981071,-2.4560673,-0.47334462,-0.82384878,-0.31179792,0
-2.6736782,2.3315392,-4.1013288,-0.8587715,0.5103904,-0.044867754,0
1.8307552,2.8796504,2.9734454,0.47334462,0.82384878,0.31179792,0
4.1943626,0.81322193,3.7355855,0.47334462,0.82384878,0.31179792,0
0.023083031,-1.155924,-4.3125858,0.1961029,0.24652529,-0.94908845,0
0.74137211,4.7964749,-0.8040067,0.47334462,0.82384878,0.31179792,0
5.2159815,1.4521903,-1.1721774,0.8587715,-0.5103904,0.044867754,0
-2.2521715,-2.6979089,2.994314,-0.1961029,-0.24652529,0.94908845,0
-0.86219299,-3.4597497,-1.7804724,-0.47334462,-0.82384878,-0.31179792,0
-0.62029517,4.353303,2.5084667,0.47334462,0.82384878,0.31179792,0
2.1201344,2.1299784,4.471519,0.47334462,0.82384878,0.31179792,0
-3.3642995,0.96245623,-3.2001109,-0.8587715,0.5103904,-0.044867754,0
-1.4527555,-2.9776855,3.1671677,-0.1961029,-0.24652529,0.94908845,0
-2.8585379,2.5299561,3.643033,-0.8587715,0.5103904,-0.044867754,0
5.0690222,1.7225291,-0.65423208,0.8587715,-0.5103904,0.044867754,0
-0.73629284,-4.3261762,-0.16146597,-0.47334462,-0.82384878,-0.31179792,0
-1.832787,2.2996073,4.3970437,-0.1961029,-0.24652529,0.94908845,0
3.5463417,-0.96544206,1.5678819,0.8587715,-0.5103904,0.044867754,0
-5.029438,-1.5674644,2.848176,-0.1961029,-0.24652529,0.94908845,0
-1.2284493,-3.9330153,-0.18258271,-0.47334462,-0.82384878,-0.31179792,0
-2.8604984,1.8006179,0.60224831,-0.8587715,0.5103904,-0.044867754,0
-1.1856253,4.6163511,1.454486,-0.8587715,0.5103904,-0.044867754,0
-4.2332726,-0.86224544,2.9632864,-0.1961029,-0.24652529,0.94908845,0
3.6416826,2.7530761,-0.036928713,0.47334462,0.82384878,0.31179792,0
-0.72786498,-5.2399054,2.5069668,-0.1961029,-0.24652529,0.94908845,0
4.3758316,0.7447716,1.7091804,0.8587715,-0.5103904,0.044867754,0
-0.73229265,4.556632,2.4850781,0.47334462,0.82384878,0.31179792,0
-1.6356442,3.7949688,-3.369549,0.1961029,0.24652529,-0.94908845,0
-3.1620908,1.5738715,-2.4885635,-0.8587715,0.5103904,-0.044867754,0
1.403044,4.7737865,-2.6916628,0.1961029,0.24652529,-0.94908845,0
0.14425445,4.4631763,0.37653533,0.47334462,0.82384878,0.31179792,0
-0.78792214,3.7346678,4.1626105,0.47334462,0.82384878,0.31179792,0
-1.420312,4.3809857,2.598351,-0.8587715,0.5103904,-0.044867754,0
-4.4644341,-0.24590349,3.3594408,-0.1961029,-0.24652529,0.94908845,0
2.6436782,2.1333373,3.4553165,0.47334462,0.82384878,0.31179792,0
2.4649756,3.4298382,0.12438126,0.47334462,0.82384878,0.31179792,0
2.4682693,-2.2917676,0.73994964,0.8587715,-0.5103904,0.044867754,0
1.839298,-4.0768404,-1.7845808,0.8587715,-0.5103904,0.044867754,0
-1.4319991,1.8176612,-3.9451568,0.1961029,0.24652529,-0.94908845,0
4.9102583,1.3418911,-2.7004948,0.1961029,0.24652529,-0.94908845,0
2.8962932,1.7186564,-3.0022287,0.1961029,0.24652529,-0.94908845,0
-1.1799158,4.7400074,-0.48247534,-0.8587715,0.5103904,-0.044867754,0
1.3410118,1.202742,4.8939123,-0.1961029,-0.24652529,0.94908845,0
-0.86623561,5.4609838,-1.5571226,-0.8587715,0.5103904,-0.044867754,0
2.0183253,-3.0889139,1.7813699,0.8587715,-0.5103904,0.044867754,0
4.0964427,0.85704195,-3.1981039,0.1961029,0.24652529,-0.94908845,0
-1.2740967,-4.9769397,2.7230833,-0.1961029,-0.24652529,0.94908845,0
3.7147493,-0.84983611,1.0567522,0.8587715,-0.5103904,0.044867754,0
-4.7568378,-1.9507201,-0.63294995,-0.47334462,-0.82384878,-0.31179792,0
-4.0600882,-3.4206681,2.4920707,-0.1961029,-0.24652529,0.94908845,0
1.140342,4.5888672,-1.1184115,0.47334462,0.82384878,0.31179792,0
3.5446863,1.3736289,-2.9878016,0.1961029,0.24652529,-0.94908845,0
1.0705397,3.6759915,1.2048208,0.47334462,0.82384878,0.31179792,0
-1.4019229,-1.7550584,3.313915,-0.1961029,-0.24652529,0.94908845,0
-4.122221,-0.74510181,-3.8828874,-0.8587715,0.5103904,-0.044867754,0
-3.029778,1.9188524,-1.6566362,-0.8587715,0.5103904,-0.044867754,0
3.8835011,-0.13915372,-0.26976258,0.8587715,-0.5103904,0.044867754,0
2.6701574,-2.0964994,0.66887981,0.8587715,-0.5103904,0.044867754,0
4.4560184,0.2420181,-2.4308834,0.8587715,-0.5103904,0.044867754,0
3.1598077,1.5158067,3.9407628,0.47334462,0.82384878,0.31179792,0
5.1073604,1.6552233,0.26889592,0.8587715,-0.5103904,0.044867754,0
-1.4486251,3.8559077,4.5860829,0.47334462,0.82384878,0.31179792,0
2.4884837,-3.0707188,-2.5690746,0.8587715,-0.5103904,0.044867754,0
1.3644534,4.2388086,-2.6424241,0.1961029,0.24652529,-0.94908845,0
2.7555919,-2.2779572,-2.967937,0.8587715,-0.5103904,0.044867754,0
3.5483036,-0.79928756,4.2193937,0.8587715,-0.5103904,0.044867754,0
1.895,-3.9961851,-2.7171812,0.8587715,-0.5103904,0.044867754,0
4.0988545,-0.26917624,-2.5877838,0.8587715,-0.5103904,0.044867754,0
4.8255014,1.2091833,-0.48974359,0.8587715,-0.5103904,0.044867754,0
1.2797112,3.9546623,-2.9506936,0.1961029,0.24652529,-0.94908845,0
-0.36195767,-3.935544,3.0609558,-0.1961029,-0.24652529,0.94908845,0
-1.2665873,-3.4414191,-1.4278289,-0.47334462,-0.82384878,-0.31179792,0
1.3948293,1.0284338,-3.5145721,0.1961029,0.24652529,-0.94908845,0
-3.5141165,-3.0180886,0.44845796,-0.47334462,-0.82384878,-0.31179792,0
0.52525896,-4.1461005,3.1178229,-0.1961029,-0.24652529,0.94908845,0
-0.11790872,4.6870227,0.18290994,0.47334462,0.82384878,0.31179792,0
3.7731621,-0.42996573,0.96057808,0.8587715,-0.5103904,0.044867754,0
-3.9200666,0.3403033,-3.3863974,-0.8587715,0.5103904,-0.044867754,0
0.85651374,-3.4916749,-4.4586644,-0.47334462,-0.82384878,-0.31179792,0
-0.052349865,-1.9879315,3.8490801,-0.1961029,-0.24652529,0.94908845,0
-1.7816954,3.7592022,2.9629498,-0.8587715,0.5103904,-0.044867754,0
0.53994173,1.6974031,-3.8420398,0.1961029,0.24652529,-0.94908845,0
3.1384606,3.1915059,-0.68772626,0.47334462,0.82384878,0.31179792,0
-2.0187449,3.4498467,-0.58056998,-0.8587715,0.5103904,-0.044867754,0
1.1448016,1.748405,-3.5471706,0.1961029,0.24652529,-0.94908845,0
-0.98375988,-3.3637681,3.0815718,-0.1961029,-0.24652529,0.94908845,0
-4.7545614,-2.9775877,1.8444779,-0.47334462,-0.82384878,-0.31179792,0
1.859706,-3.4832094,2.0561373,0.8587715,-0.5103904,0.044867754,0
-3.8364797,0.33570325,-3.8508027,-0.8587715,0.5103904,-0.044867754,0
1.5862176,4.1859002,-0.42474902,0.47334462,0.82384878,0.31179792,0
-2.2948151,-2.5510786,-2.6817183,-0.47334462,-0.82384878,-0.31179792,0
-3.8112521,-1.1253599,-3.766876,-0.47334462,-0.82384878,-0.31179792,0
-4.1856441,0.2418201,1.5548723,-0.8587715,0.5103904,-0.044867754,0
0.88470036,1.9773685,-3.5642025,0.1961029,0.24652529,-0.94908845,0
3.8248007,0.10085201,5.0525723,0.8587715,-0.5103904,0.044867754,0
4.3403249,0.10110962,-0.81637204,0.8587715,-0.5103904,0.044867754,0
-1.0371858,4.8413901,1.5578704,0.47334462,0.82384878,0.31179792,0
-0.89960945,5.4317188,-2.604687,-0.8587715,0.5103904,-0.044867754,0
2.2481697,-2.8086967,-0.26783988,0.8587715,-0.5103904,0.044867754,0
-4.0858011,-0.23400998,-3.2948277,-0.8587715,0.5103904,-0.044867754,0
3.6991036,2.3556345,1.5661584,0.47334462,0.82384878,0.31179792,0
-2.0494621,-3.7075627,-0.40387148,-0.47334462,-0.82384878,-0.31179792,0
-1.2241895,4.6818795,-1.598387,-0.8587715,0.5103904,-0.044867754,0
3.5264769,-1.158269,-0.094654799,0.8587715,-0.5103904,0.044867754,0
-3.830307,0.060518265,-1.4319003,-0.8587715,0.5103904,-0.044867754,0
4.6682396,1.1479169,-1.1689364,0.8587715,-0.5103904,0.044867754,0
1.9727709,-3.2852659,2.7155585,0.8587715,-0.5103904,0.044867754,0
2.3165998,-3.2211347,0.42739961,0.8587715,-0.5103904,0.044867754,0
-4.1428709,-2.7718406,0.65690291,-0.47334462,-0.82384878,-0.31179792,0
2.9511728,-0.12424302,-3.6879268,0.1961029,0.24652529,-0.94908845,0
3.0243649,1.5814005,-3.3574638,0.1961029,0.24652529,-0.94908845,0
0.48817348,0.23527792,-3.8466132,0.1961029,0.24652529,-0.94908845,0
-0.025567293,-2.8400974,3.4346659,-0.1961029,-0.24652529,0.94908845,0
-4.0162196,-0.17416835,-3.1542883,-0.8587715,0.5103904,-0.044867754,0
-3.6158032,-1.4885236,2.8926742,-0.1961029,-0.24652529,0.94908845,0
1.7446262,2.6398337,3.3507721,0.47334462,0.82384878,0.31179792,0
-1.5853025,2.1160634,-3.9520607,0.1961029,0.24652529,-0.94908845,0
-3.843771,0.55108857,2.6376643,-0.8587715,0.5103904,-0.044867754,0
-2.4304388,2.4492846,-2.6123636,-0.8587715,0.5103904,-0.044867754,0
-0.62437367,-5.2745771,1.6840599,-0.47334462,-0.82384878,-0.31179792,0
1.4146721,2.8925486,2.4446635,0.47334462,0.82384878,0.31179792,0
-0.31851244,4.5893116,-2.8810356,0.1961029,0.24652529,-0.94908845,0
4.1101823,2.3377581,0.9810015,0.47334462,0.82384878,0.31179792,0
2.2906287,3.2750931,0.27604416,0.47334462,0.82384878,0.31179792,0
4.1380348,0.22496665,4.5412035,0.8587715,-0.5103904,0.044867754,0
2.4046538,-2.7347996,1.3658682,0.8587715,-0.5103904,0.044867754,0
-1.3439384,4.748107,2.468364,-0.8587715,0.5103904,-0.044867754,0
-3.695189,0.74711418,2.1832631,-0.8587715,0.5103904,-0.044867754,0
-3.9911108,0.41249156,2.4640903,-0.8587715,0.5103904,-0.044867754,0
2.96244,-2.2521534,-1.1216646,0.8587715,-0.5103904,0.044867754,0
-3.3579206,-0.22733492,-5.026865,0.1961029,0.24652529,-0.94908845,0
0.27677274,4.7250967,0.048480228,0.47334462,0.82384878,0.31179792,0
4.4607568,0.24981046,-1.4528638,0.8587715,-0.5103904,0.044867754,0
1.6331931,-3.4009526,3.6508794,0.8587715,-0.5103904,0.044867754,0
-2.7190418,1.6283286,-4.5157251,0.1961029,0.24652529,-0.94908845,0
0.97694463,-2.8959241,-4.5759649,0.1961029,0.24652529,-0.94908845,0
-3.8535595,-2.7603674,2.709959,-0.1961029,-0.24652529,0.94908845,0
4.0471087,3.1403184,-2.5929418,0.1961029,0.24652529,-0.94908845,0
0.96164703,3.0388856,3.8287716,0.47334462,0.82384878,0.31179792,0
-3.4193695,-1.4857991,-3.8175871,-0.47334462,-0.82384878,-0.31179792,0
-0.26180673,3.6423399,3.9223189,0.47334462,0.82384878,0.31179792,0
2.3040421,-0.96549618,-3.8382232,0.1961029,0.24652529,-0.94908845,0
-0.36978936,3.5032492,3.792938,0.47334462,0.82384878,0.31179792,0
0.81190586,2.261405,4.982975,-0.1961029,-0.24652529,0.94908845,0
-0.96334696,-2.6403987,3.3118162,-0.1961029,-0.24652529,0.94908845,0
2.5765307,-3.1280282,-2.4495385,0.8587715,-0.5103904,0.044867754,0
1.5084379,4.7925129,-2.2966192,0.47334462,0.82384878,0.31179792,0
-2.6148789,-3.640511,2.7860301,-0.1961029,-0.24652529,0.94908845,0
-1.2917714,4.8386278,1.9217637,-0.8587715,0.5103904,-0.044867754,0
-0.15371513,3.6790774,3.2094805,0.47334462,0.82384878,0.31179792,0
-2.364161,-0.17731297,3.783541,-0.1961029,-0.24652529,0.94908845,0
2.6325598,3.2222278,-2.7976246,0.1961029,0.24652529,-0.94908845,0
-1.9665666,-3.921443,-0.052490607,-0.47334462,-0.82384878,-0.31179792,0
-1.1572015,-2.4268816,-4.9117851,-0.47334462,-0.82384878,-0.31179792,0
2.2829955,1.1910682,5.0064206,-0.1961029,-0.24652529,0.94908845,0
2.5618851,-2.6006215,-4.2788181,0.1961029,0.24652529,-0.94908845,0
-2.9767611,-3.7213788,2.7554946,-0.1961029,-0.24652529,0.94908845,0
3.5115716,2.9204009,-0.54863447,0.47334462,0.82384878,0.31179792,0
0.72528362,-3.0855863,-5.0043645,0.1961029,0.24652529,-0.94908845,0
2.0133638,-3.6709895,-3.7294178,0.8587715,-0.5103904,0.044867754,0
-3.3575935,-2.939781,0.20485473,-0.47334462,-0.82384878,-0.31179792,0
0.2144978,-5.8469248,2.7895699,-0.47334462,-0.82384878,-0.31179792,0
1.8904344,-2.1210415,4.0211968,-0.1961029,-0.24652529,0.94908845,0
-0.63024008,-2.1341548,-4.7698603,0.1961029,0.24652529,-0.94908845,0
0.90834343,-5.3684883,2.4026802,0.8587715,-0.5103904,0.044867754,0
0.55277395,4.6157694,-0.4047884,0.47334462,0.82384878,0.31179792,0
-0.0056041479,3.4052234,-3.2318325,0.1961029,0.24652529,-0.94908845,0
3.5515499,2.9076443,-0.68844938,0.47334462,0.82384878,0.31179792,0
3.1052694,0.034950495,4.8211775,-0.1961029,-0.24652529,0.94908845,0
-4.0174942,-1.9549322,-1.2186451,-0.47334462,-0.82384878,-0.31179792,0
0.5429216,0.48004609,4.607347,-0.1961029,-0.24652529,0.94908845,0
-1.646827,-3.8537545,-0.58042765,-0.47334462,-0.82384878,-0.31179792,0
-0.1802665,4.2832403,1.3516654,0.47334462,0.82384878,0.31179792,0
2.8427699,-1.9110609,1.2351105,0.8587715,-0.5103904,0.044867754,0
3.0136638,-2.1617498,-1.4558429,0.8587715,-0.5103904,0.044867754,0
3.7829664,-0.95729589,-2.420332,0.8587715,-0.5103904,0.044867754,0
1.1411397,3.384058,2.5310628,0.47334462,0.82384878,0.31179792,0
1.5233198,-1.0894626,4.0966992,-0.1961029,-0.24652529,0.94908845,0
4.7885656,1.254844,2.690783,0.8587715,-0.5103904,0.044867754,0
-1.4647942,4.2893744,2.3142917,-0.8587715,0.5103904,-0.044867754,0
-0.70570624,5.0534368,0.23106976,0.47334462,0.82384878,0.31179792,0
2.60272,3.72368,-1.3618183,0.47334462,0.82384878,0.31179792,0
-0.66781044,-3.9213936,-1.1088262,-0.47334462,-0.82384878,-0.31179792,0
4.7672176,2.1691439,-0.024742961,0.47334462,0.82384878,0.31179792,0
-3.3513856,0.848593,-0.30142653,-0.8587715,0.5103904,-0.044867754,0
-2.5818548,-2.9357896,3.0758951,-0.1961029,-0.24652529,0.94908845,0
4.9512777,1.1748314,0.09206444,0.8587715,-0.5103904,0.044867754,0
-2.8645647,2.3082011,3.4705448,-0.8587715,0.5103904,-0.044867754,0
-4.2005391,0.33339834,2.088578,-0.8587715,0.5103904,-0.044867754,0
3.6873007,1.9168887,-3.047225,0.1961029,0.24652529,-0.94908845,0
1.754071,1.6496289,-3.2800927,0.1961029,0.24652529,-0.94908845,0
0.76558256,3.3616686,3.3916757,0.47334462,0.82384878,0.31179792,0
-1.3841205,-1.4642051,3.3431072,-0.1961029,-0.24652529,0.94908845,0
0.79466528,-0.39194757,-4.2186222,0.1961029,0.24652529,-0.94908845,0
4.8414102,1.0380867,-1.8194213,0.8587715,-0.5103904,0.044867754,0
2.1700249,-2.1633639,4.0683322,-0.1961029,-0.24652529,0.94908845,0
3.256798,0.398913,4.8484764,-0.1961029,-0.24652529,0.94908845,0
0.26221672,1.3097881,-3.6999781,0.1961029,0.24652529,-0.94908845,0
0.14302874,-4.4793043,3.2769489,-0.1961029,-0.24652529,0.94908845,0
-2.423733,-0.52567357,-4.9812784,0.1961029,0.24652529,-0.94908845,0
-0.3936297,2.2121627,-3.9138837,0.1961029,0.24652529,-0.94908845,0
-5.3776159,-2.4174635,2.6318378,-0.1961029,-0.24652529,0.94908845,0
0.85926414,-0.048302025,4.3111739,-0.1961029,-0.24652529,0.94908845,0
2.5221457,-2.4842639,0.19854048,0.8587715,-0.5103904,0.044867754,0
-2.5356774,0.39031094,-4.8320146,0.1961029,0.24652529,-0.94908845,0
-4.8160219,-1.4431962,-0.28803241,-0.8587715,0.5103904,-0.044867754,0
5.1851368,1.7891841,-2.7029443,0.1961029,0.24652529,-0.94908845,0
2.5348198,-0.41947699,-3.7087426,0.1961029,0.24652529,-0.94908845,0
2.0222261,-3.8035777,-3.6252675,0.8587715,-0.5103904,0.044867754,0
-2.7552466,2.776829,4.5443187,-0.1961029,-0.24652529,0.94908845,0
-4.6780839,-0.92249632,2.9152369,-0.1961029,-0.24652529,0.94908845,0
-0.99759245,-3.002872,-3.5116,-0.47334462,-0.82384878,-0.31179792,0
2.0669639,0.13406718,-3.8958485,0.1961029,0.24652529,-0.94908845,0
0.35765088,-2.2357085,3.8025355,-0.1961029,-0.24652529,0.94908845,0
-0.67340171,-0.800942,3.8384483,-0.1961029,-0.24652529,0.94908845,0
0.19244289,-5.1160359,0.41500151,-0.47334462,-0.82384878,-0.31179792,0
2.9352651,3.4283228,-2.5386851,0.1961029,0.24652529,-0.94908845,0
0.18567038,-1.9894726,-4.8381009,0.1961029,0.24652529,-0.94908845,0
-0.40896726,4.4679084,1.5954655,0.47334462,0.82384878,0.31179792,0
-4.2102718,0.17516088,1.0578163,-0.8587715,0.5103904,-0.044867754,0
3.2088947,-1.3989294,-3.101882,0.8587715,-0.5103904,0.044867754,0
-0.15048233,0.38428956,4.4132228,-0.1961029,-0.24652529,0.94908845,0
-2.3742821,-4.242703,2.0177848,-0.47334462,-0.82384878,-0.31179792,0
-3.7687526,-3.5947561,2.0807748,-0.47334462,-0.82384878,-0.31179792,0
-1.6472394,-4.921948,2.206352,-0.47334462,-0.82384878,-0.31179792,0
-0.62410629,-3.9652038,2.9142385,-0.1961029,-0.24652529,0.94908845,0
-0.31040025,3.4095187,4.0679569,0.47334462,0.82384878,0.31179792,0
0.80207205,-3.7694547,-4.621397,-0.47334462,-0.82384878,-0.31179792,0
1.5698137,-0.9493314,-4.1678147,0.1961029,0.24652529,-0.94908845,0
0.52281868,-5.5125976,1.1857057,-0.47334462,-0.82384878,-0.31179792,0
1.4560555,-3.8775039,3.3001192,-0.1961029,-0.24652529,0.94908845,0
-3.1962657,-0.90069389,3.4468577,-0.1961029,-0.24652529,0.94908845,0
-4.5354667,-3.0722373,2.0836537,-0.47334462,-0.82384878,-0.31179792,0
3.9067073,0.60589659,4.9645038,0.47334462,0.82384878,0.31179792,0
-1.6874781,4.273838,1.9469844,-0.8587715,0.5103904,-0.044867754,0
4.5656919,2.7450714,-1.6139618,0.47334462,0.82384878,0.31179792,0
-2.6644287,2.8322787,4.1243858,-0.8587715,0.5103904,-0.044867754,0
1.3598769,-4.7700968,-1.702997,0.8587715,-0.5103904,0.044867754,0
1.2797577,-0.072370172,-3.9600868,0.1961029,0.24652529,-0.94908845,0
0.45267478,-0.23472613,-4.3726826,0.1961029,0.24652529,-0.94908845,0
1.3821473,-4.214035,-3.7258558,-0.47334462,-0.82384878,-0.31179792,0
0.18554664,3.0468662,4.0309887,0.47334462,0.82384878,0.31179792,0
3.4999666,-0.89903307,0.73337954,0.8587715,-0.5103904,0.044867754,0
1.9863862,1.764153,4.8795629,-0.1961029,-0.24652529,0.94908845,0
0.12237373,-1.9888163,3.5610178,-0.1961029,-0.24652529,0.94908845,0
-2.3748772,2.2881427,-2.663933,-0.8587715,0.5103904,-0.044867754,0
2.6248522,-2.7687798,-2.6607769,0.8587715,-0.5103904,0.044867754,0
-4.3401122,-0.61554039,-0.3728635,-0.8587715,0.5103904,-0.044867754,0
-1.2679014,4.6104717,-2.6126819,-0.8587715,0.5103904,-0.044867754,0
-3.690733,-0.71563661,-4.9591413,0.1961029,0.24652529,-0.94908845,0
1.3902738,2.1709182,-3.3355682,0.1961029,0.24652529,-0.94908845,0
-0.21999979,3.7551708,3.4049869,0.47334462,0.82384878,0.31179792,0
-0.85922766,-3.7428908,3.1302168,-0.1961029,-0.24652529,0.94908845,0
-0.48529553,-1.8424494,-4.9568181,0.1961029,0.24652529,-0.94908845,0
-2.2049174,-1.9538956,-3.9841979,-0.47334462,-0.82384878,-0.31179792,0
-1.6077391,-1.650511,-5.0765018,0.1961029,0.24652529,-0.94908845,0
3.471694,-1.3467848,-3.7378294,0.1961029,0.24652529,-0.94908845,0
-3.4342299,-3.8269215,2.0333252,-0.47334462,-0.82384878,-0.31179792,0
1.7350128,-4.2600384,-2.9384162,0.8587715,-0.5103904,0.044867754,0
-3.3819962,0.58070254,-2.4421442,-0.8587715,0.5103904,-0.044867754,0
3.9045289,-0.51612496,1.7353778,0.8587715,-0.5103904,0.044867754,0
5.0199537,1.2822793,-2.9762425,0.8587715,-0.5103904,0.044867754,0
3.0852299,1.9037662,2.4838529,0.47334462,0.82384878,0.31179792,0
-4.2516394,-0.40594983,-0.7344718,-0.8587715,0.5103904,-0.044867754,0
3.8649592,1.8590584,-3.0519671,0.1961029,0.24652529,-0.94908845,0
-0.25928283,3.2080264,4.6867042,0.47334462,0.82384878,0.31179792,0
-1.6665184,4.1739454,3.391227,-0.8587715,0.5103904,-0.044867754,0
-1.5045853,-2.0905602,3.533057,-0.1961029,-0.24652529,0.94908845,0
-2.5430841,2.5712957,-3.2739599,-0.8587715,0.5103904,-0.044867754,0
3.1963277,2.7479331,-2.7760603,0.1961029,0.24652529,-0.94908845,0
-0.57335389,4.9806991,-0.043431744,0.47334462,0.82384878,0.31179792,0
2.9947476,4.0311756,-1.8884127,0.47334462,0.82384878,0.31179792,0
-1.386651,0.34465635,3.8098547,-0.1961029,-0.24652529,0.94908845,0
-2.5934832,2.3176899,-0.14568907,-0.8587715,0.5103904,-0.044867754,0
5.0882096,1.8173342,-1.1950976,0.8587715,-0.5103904,0.044867754,0
-3.6280036,-1.4802101,-3.3122096,-0.47334462,-0.82384878,-0.31179792,0
3.3850899,0.4532907,5.0567622,-0.1961029,-0.24652529,0.94908845,0
-4.0294676,-0.88811219,-3.9816079,-0.47334462,-0.82384878,-0.31179792,0
2.3082352,-3.042165,-3.8749447,0.8587715,-0.5103904,0.044867754,0
0.24312007,-2.4972789,-4.9843278,0.1961029,0.24652529,-0.94908845,0
-2.5685382,2.7828026,3.9486234,-0.8587715,0.5103904,-0.044867754,0
-2.5871053,-1.2132668,-5.0435643,0.1961029,0.24652529,-0.94908845,0
0.85535371,2.0063596,4.7477283,-0.1961029,-0.24652529,0.94908845,0
-2.6600721,2.4756231,-1.8121424,-0.8587715,0.5103904,-0.044867754,0
0.89230394,-2.6437209,3.8309438,-0.1961029,-0.24652529,0.94908845,0
-3.7685041,0.71961915,0.25350374,-0.8587715,0.5103904,-0.044867754,0
-3.0830951,2.2203782,4.2839699,-0.1961029,-0.24652529,0.94908845,0
-3.7574673,0.34553146,1.2977495,-0.8587715,0.5103904,-0.044867754,0
1.5864999,-3.6770473,3.7207999,0.8587715,-0.5103904,0.044867754,0
1.9690589,-0.096469879,-3.8135853,0.1961029,0.24652529,-0.94908845,0
-3.4582515,-3.5191069,2.0477934,-0.47334462,-0.82384878,-0.31179792,0
0.52448648,-0.83818442,3.9439392,-0.1961029,-0.24652529,0.94908845,0
0.60403425,-0.067141652,-4.0713735,0.1961029,0.24652529,-0.94908845,0
-4.7297478,-2.8997517,2.2882383,-0.47334462,-0.82384878,-0.31179792,0
1.3748775,-2.681505,-4.5550938,0.1961029,0.24652529,-0.94908845,0
2.6303177,1.5132339,-3.4793327,0.1961029,0.24652529,-0.94908845,0
-0.13517261,-4.7918253,-0.20510989,-0.47334462,-0.82384878,-0.31179792,0
3.013113,-1.9158027,-2.4714692,0.8587715,-0.5103904,0.044867754,0
3.6818581,3.3379221,-1.6412084,0.47334462,0.82384878,0.31179792,0
-1.7535181,-2.3179312,-4.2751336,-0.47334462,-0.82384878,-0.31179792,0
4.3755255,0.081091166,-0.68752366,0.8587715,-0.5103904,0.044867754,0
-1.4751959,4.3294873,4.1871009,0.47334462,0.82384878,0.31179792,0
4.4896288,0.60232127,-2.1555622,0.8587715,-0.5103904,0.044867754,0
-3.807282,0.079945326,-4.7587228,-0.8587715,0.5103904,-0.044867754,0
3.7250338,-0.79801035,1.8031037,0.8587715,-0.5103904,0.044867754,0
4.2786856,0.83488458,3.8750355,0.47334462,0.82384878,0.31179792,0
-2.8799043,2.3081677,2.6271188,-0.8587715,0.5103904,-0.044867754,0
-1.7603813,1.2117412,-4.2785015,0.1961029,0.24652529,-0.94908845,0
-3.123455,1.8812413,0.29299772,-0.8587715,0.5103904,-0.044867754,0
-0.21200967,-5.4411526,1.6116871,-0.47334462,-0.82384878,-0.31179792,0
-2.7978134,-4.0201898,1.6198289,-0.47334462,-0.82384878,-0.31179792,0
3.7825239,0.082857728,3.9044394,0.8587715,-0.5103904,0.044867754,0
-2.4953275,-0.062472939,3.5119779,-0.1961029,-0.24652529,0.94908845,0
1.1434041,3.016166,-3.2216213,0.1961029,0.24652529,-0.94908845,0
-0.42784834,4.7241478,1.4177206,0.47334462,0.82384878,0.31179792,0
-1.1414915,-0.1533671,3.9030235,-0.1961029,-0.24652529,0.94908845,0
0.73428011,4.765871,-0.62588644,0.47334462,0.82384878,0.31179792,0
-0.66661131,-0.21093851,4.1433029,-0.1961029,-0.24652529,0.94908845,0
1.3028984,2.2409925,-3.237654,0.1961029,0.24652529,-0.94908845,0
1.5679536,2.9040899,2.9593024,0.47334462,0.82384878,0.31179792,0
-2.393573,-4.1010504,2.5305092,-0.1961029,-0.24652529,0.94908845,0
1.3286334,2.0626023,4.72047,0.47334462,0.82384878,0.31179792,0
0.78620416,-3.4313576,3.5017359,-0.1961029,-0.24652529,0.94908845,0
