5.7542534,0.77753377,1.777987,0.57483399,0.68471175,0.44803548,0
-1.9677777,-2.4451826,2.4169722,-0.44692716,-0.19593436,0.87284929,0
-4.3046918,-3.2131455,0.61269236,-0.57483399,-0.68471175,-0.44803548,0
1.3789718,4.1426368,-2.1781847,0.44692716,0.19593436,-0.87284929,0
3.9093523,-3.0568132,-2.2193885,0.68543577,-0.70198262,0.19338652,0
1.7063086,3.9277596,-2.084497,0.44692716,0.19593436,-0.87284929,0
0.36057693,0.43036008,-3.9446821,0.44692716,0.19593436,-0.87284929,0
1.8204923,-4.7388878,-1.0263379,0.68543577,-0.70198262,0.19338652,0
1.1640183,0.73602366,-3.4164879,0.44692716,0.19593436,-0.87284929,0
3.172631,-1.1231725,-2.8651695,0.44692716,0.19593436,-0.87284929,0
-5.6085987,0.31461293,-2.6864915,-0.68543577,0.70198262,-0.19338652,0
-5.7092948,0.98887563,1.0810499,-0.44692716,-0.19593436,0.87284929,0
4.8313608,-1.6645586,-0.14325428,0.68543577,-0.70198262,0.19338652,0
-1.3646312,5.0629268,-0.91448832,-0.68543577,0.70198262,-0.19338652,0
1.1038669,3.9512265,2.7100916,0.57483399,0.68471175,0.44803548,0
3.2106943,3.9527392,-0.11005974,0.57483399,0.68471175,0.44803548,0
2.5495558,-3.4457769,2.477735,0.68543577,-0.70198262,0.19338652,0
-4.4805231,-2.5164404,-0.74709702,-0.57483399,-0.68471175,-0.44803548,0
-2.2763052,3.4660716,-1.8447554,-0.68543577,0.70198262,-0.19338652,0
3.6134119,0.17686963,5.4543853,0.57483399,0.68471175,0.44803548,0
1.9741697,-4.2863946,0.031877398,0.68543577,-0.70198262,0.19338652,0
3.6826138,0.95848656,4.2234054,0.57483399,0.68471175,0.44803548,0
-0.76909876,-4.3393431,2.72876,-0.44692716,-0.19593436,0.87284929,0
-0.84498775,-4.0817723,2.7538023,-0.44692716,-0.19593436,0.87284929,0
-2.6544409,3.4659486,-0.85712695,-0.68543577,0.70198262,-0.19338652,0
5.7711563,0.83096886,-1.0942771,0.44692716,0.19593436,-0.87284929,0
-2.7948129,-4.8561602,1.0499868,-0.57483399,-0.68471175,-0.44803548,0
-3.7126765,2.4764066,-0.6311084,-0.68543577,0.70198262,-0.19338652,0
-1.3917403,5.5178599,2.6095319,-0.68543577,0.70198262,-0.19338652,0
0.49241018,-5.633791,0.3967011,0.68543577,-0.70198262,0.19338652,0
4.5100307,-0.031214237,4.5466065,0.57483399,0.68471175,0.44803548,0
-3.6693091,2.7062724,-0.47242451,-0.68543577,0.70198262,-0.19338652,0
4.702796,-0.77248323,3.8341694,0.68543577,-0.70198262,0.19338652,0
-5.6735229,-0.99547672,-1.0786548,-0.57483399,-0.68471175,-0.44803548,0
-4.3714819,2.1761863,-0.16985989,-0.68543577,0.70198262,-0.19338652,0
-3.9990926,-2.6458626,-0.88359785,-0.57483399,-0.68471175,-0.44803548,0
3.1142097,4.1643486,-0.49115801,0.57483399,0.68471175,0.44803548,0
1.911931,-5.4570961,-4.2049217,-0.57483399,-0.68471175,-0.44803548,0
0.12016201,5.3144941,1.8799064,0.57483399,0.68471175,0.44803548,0
3.5084291,-3.7053435,-3.1140857,0.44692716,0.19593436,-0.87284929,0
3.0015836,-3.1554327,1.9949861,0.68543577,-0.70198262,0.19338652,0
0.092126966,1.2940719,4.4746957,-0.44692716,-0.19593436,0.87284929,0
1.8180243,2.3453124,-2.3417888,0.44692716,0.19593436,-0.87284929,0
-4.2994943,1.758661,-1.0228817,-0.68543577,0.70198262,-0.19338652,0
2.2762218,-5.3468075,-3.7317805,0.68543577,-0.70198262,0.19338652,0
-0.023244381,-3.513958,-4.442605,-0.57483399,-0.68471175,-0.44803548,0
6.1853023,0.40343291,1.050446,0.57483399,0.68471175,0.44803548,0
3.3711467,-3.2800503,-1.4826502,0.68543577,-0.70198262,0.19338652,0
2.4213095,5.0464063,-1.8439102,0.44692716,0.19593436,-0.87284929,0
3.7449899,3.445338,-1.4536672,0.44692716,0.19593436,-0.87284929,0
-3.9485798,1.3739903,-5.006453,-0.68543577,0.70198262,-0.19338652,0
-3.9191959,-2.3925216,-1.7507248,-0.57483399,-0.68471175,-0.44803548,0
-0.20686287,-0.10822964,-4.1541548,0.44692716,0.19593436,-0.87284929,0
0.1518712,-1.9006211,3.5716069,-0.44692716,-0.19593436,0.87284929,0
-6.7991924,-0.25559759,0.15587759,-0.68543577,0.70198262,-0.19338652,0
-0.58865786,-4.3924832,-2.2336171,-0.57483399,-0.68471175,-0.44803548,0
5.0460548,1.4835453,1.1058817,0.57483399,0.68471175,0.44803548,0
-0.99796104,5.7328649,2.2523189,0.57483399,0.68471175,0.44803548,0
0.75279033,3.1604292,3.9627087,0.57483399,0.68471175,0.44803548,0
-6.1744499,0.51944852,-0.0038805008,-0.68543577,0.70198262,-0.19338652,0
2.1616511,0.63046265,-2.6812782,0.44692716,0.19593436,-0.87284929,0
-4.507915,1.7641225,-1.8831947,-0.68543577,0.70198262,-0.19338652,0
-4.1921148,1.2759048,-2.7837446,-0.68543577,0.70198262,-0.19338652,0
-4.6100626,1.077273,-4.0350904,-0.68543577,0.70198262,-0.19338652,0
-3.004401,1.6541953,-5.271801,0.44692716,0.19593436,-0.87284929,0
0.39490223,-4.6523032,-3.0996342,-0.57483399,-0.68471175,-0.44803548,0
-2.533663,-1.3868649,2.3966022,-0.44692716,-0.19593436,0.87284929,0
1.230703,-1.4172428,4.4456196,-0.44692716,-0.19593436,0.87284929,0
1.9964862,-4.2903643,-3.761713,0.44692716,0.19593436,-0.87284929,0
-6.710166,-1.1345283,0.093018532,-0.57483399,-0.68471175,-0.44803548,0
-5.0911002,0.5752387,-2.3599634,-0.68543577,0.70198262,-0.19338652,0
-3.9293067,-0.91560864,1.8986893,-0.44692716,-0.19593436,0.87284929,0
1.1580385,4.3762188,1.70154,0.57483399,0.68471175,0.44803548,0
-4.7384582,1.4521407,-2.2039268,-0.68543577,0.70198262,-0.19338652,0
6.0058117,0.79247546,1.2625232,0.57483399,0.68471175,0.44803548,0
0.3108058,-1.704941,-4.2563295,0.44692716,0.19593436,-0.87284929,0
-2.3157017,2.4893143,3.3035951,-0.44692716,-0.19593436,0.87284929,0
4.230072,0.81826258,-1.5280958,0.44692716,0.19593436,-0.87284929,0
1.2812691,-4.5763254,1.4191513,0.68543577,-0.70198262,0.19338652,0
4.3154602,2.1333506,0.96517038,0.57483399,0.68471175,0.44803548,0
3.4041457,-2.001215,3.6370595,0.68543577,-0.70198262,0.19338652,0
-0.77898598,2.2467661,-3.8916802,0.44692716,0.19593436,-0.87284929,0
2.5257435,-3.6413832,1.3571445,0.68543577,-0.70198262,0.19338652,0
6.5131226,0.081010818,0.95946312,0.68543577,-0.70198262,0.19338652,0
2.0447235,-3.9903624,1.3019534,0.68543577,-0.70198262,0.19338652,0
2.1984591,3.6161196,-1.9788746,0.44692716,0.19593436,-0.87284929,0
1.2318125,-5.7409244,-0.99315286,0.68543577,-0.70198262,0.19338652,0
4.9316006,1.9056276,0.8035984,0.57483399,0.68471175,0.44803548,0
1.2656806,-1.4232454,4.3563504,-0.44692716,-0.19593436,0.87284929,0
3.881429,1.4191357,-1.917958,0.44692716,0.19593436,-0.87284929,0
3.8924248,2.914881,1.0206099,0.57483399,0.68471175,0.44803548,0
-2.5994933,-2.7587011,-2.6794138,-0.57483399,-0.68471175,-0.44803548,0
1.5990567,6.1727562,-1.5002153,0.57483399,0.68471175,0.44803548,0
4.7276139,2.3284574,0.66947031,0.57483399,0.68471175,0.44803548,0
0.46838403,5.5475492,0.92838907,0.57483399,0.68471175,0.44803548,0
7.0979152,0.79058313,0.17203236,0.57483399,0.68471175,0.44803548,0
3.5923524,-3.0580778,-0.20460653,0.68543577,-0.70198262,0.19338652,0
-5.060009,-2.6234119,0.7927742,-0.44692716,-0.19593436,0.87284929,0
7.0520048,0.57487988,-0.24329662,0.57483399,0.68471175,0.44803548,0
0.93489408,-1.572845,-3.7997727,0.44692716,0.19593436,-0.87284929,0
-2.5494111,-4.8831129,0.25471878,-0.57483399,-0.68471175,-0.44803548,0
-2.9748046,2.5015566,-2.854291,-0.68543577,0.70198262,-0.19338652,0
2.5774326,-3.4128101,-3.2760508,0.44692716,0.19593436,-0.87284929,0
4.3353038,-1.8843025,0.3128562,0.68543577,-0.70198262,0.19338652,0
2.8807225,-3.3980744,0.66215992,0.68543577,-0.70198262,0.19338652,0
4.1578445,-1.0865338,3.7307765,0.68543577,-0.70198262,0.19338652,0
-5.4353828,0.5778625,-2.0317192,-0.68543577,0.70198262,-0.19338652,0
5.9440937,-0.45358682,0.66208982,0.68543577,-0.70198262,0.19338652,0
-4.056356,0.98180413,-4.6295838,-0.68543577,0.70198262,-0.19338652,0
2.3618402,1.272207,-2.7415614,0.44692716,0.19593436,-0.87284929,0
5.2230616,-0.94928986,0.69495583,0.68543577,-0.70198262,0.19338652,0
1.4288818,1.2193244,-2.8165584,0.44692716,0.19593436,-0.87284929,0
1.7845954,4.9676156,-0.040926456,0.57483399,0.68471175,0.44803548,0
1.1883221,-4.1800919,3.8276005,-0.44692716,-0.19593436,0.87284929,0
-1.7120409,-3.1225772,-3.2704611,-0.57483399,-0.68471175,-0.44803548,0
-5.2945881,-0.33854562,-2.3399787,-0.57483399,-0.68471175,-0.44803548,0
3.2731462,-3.5963492,-0.64511114,0.68543577,-0.70198262,0.19338652,0
3.1069622,-2.817735,1.1367931,0.68543577,-0.70198262,0.19338652,0
1.4704874,5.0215697,0.15583181,0.57483399,0.68471175,0.44803548,0
2.4227912,-2.864635,4.6462126,-0.44692716,-0.19593436,0.87284929,0
-0.29888463,2.4647131,-3.5658886,0.44692716,0.19593436,-0.87284929,0
6.663672,0.77617991,0.30800915,0.57483399,0.68471175,0.44803548,0
-3.148021,-4.5793219,1.4622352,-0.44692716,-0.19593436,0.87284929,0
5.6658483,-1.1220765,-0.87578344,0.68543577,-0.70198262,0.19338652,0
-1.2684681,1.9227183,3.6244533,-0.44692716,-0.19593436,0.87284929,0
-4.7284575,-1.3478483,-2.2431335,-0.57483399,-0.68471175,-0.44803548,0
3.5355721,4.2907667,-0.7314353,0.57483399,0.68471175,0.44803548,0
4.1090722,1.3829826,2.3818231,0.57483399,0.68471175,0.44803548,0
0.1907506,-4.8815165,-3.2272894,-0.57483399,-0.68471175,-0.44803548,0
5.7285442,0.42835477,2.06388,0.57483399,0.68471175,0.44803548,0
2.8032854,-2.2068253,4.6373606,0.68543577,-0.70198262,0.19338652,0
1.8672194,-5.4656639,-3.457123,0.68543577,-0.70198262,0.19338652,0
-0.45861983,-3.7464802,-3.4233246,-0.57483399,-0.68471175,-0.44803548,0
-2.0132747,1.9281576,3.2108471,-0.44692716,-0.19593436,0.87284929,0
1.7363096,1.7220249,4.9155431,0.57483399,0.68471175,0.44803548,0
0.052284002,-1.5749331,-4.2502308,0.44692716,0.19593436,-0.87284929,0
5.7528744,0.059724331,2.6801319,0.57483399,0.68471175,0.44803548,0
-4.4722023,1.8915287,-1.239795,-0.68543577,0.70198262,-0.19338652,0
-1.6402471,3.0504417,3.7858126,-0.44692716,-0.19593436,0.87284929,0
2.8064914,-3.4882376,0.81371462,0.68543577,-0.70198262,0.19338652,0
6.0398769,-0.58551919,0.67065334,0.68543577,-0.70198262,0.19338652,0
-2.3040035,-3.2708631,-1.7185688,-0.57483399,-0.68471175,-0.44803548,0
-4.27951,2.6275301,1.8344338,-0.68543577,0.70198262,-0.19338652,0
1.54638,-5.5282145,-3.2911494,0.68543577,-0.70198262,0.19338652,0
3.2498374,3.5612369,-1.7693956,0.44692716,0.19593436,-0.87284929,0
-1.020142,-3.9554141,2.7087622,-0.44692716,-0.19593436,0.87284929,0
-6.5717888,-0.67823946,-0.2193718,-0.57483399,-0.68471175,-0.44803548,0
1.516268,4.8708668,-1.9548488,0.44692716,0.19593436,-0.87284929,0
-5.7588229,-0.72436094,0.72689629,-0.44692716,-0.19593436,0.87284929,0
0.54204082,-4.8098412,3.129653,-0.44692716,-0.19593436,0.87284929,0
0.81887579,6.7482977,-0.98998499,0.57483399,0.68471175,0.44803548,0
1.8635217,0.65068531,5.0446987,-0.44692716,-0.19593436,0.87284929,0
4.1278195,-0.94777513,5.2290645,0.68543577,-0.70198262,0.19338652,0
3.9659166,-1.1008849,5.377367,0.68543577,-0.70198262,0.19338652,0
2.139843,-5.3517761,-3.1183,0.68543577,-0.70198262,0.19338652,0
3.3777902,2.9878125,1.5842214,0.57483399,0.68471175,0.44803548,0
1.8913119,-2.4443798,4.5295038,-0.44692716,-0.19593436,0.87284929,0
-0.36085987,6.0498314,0.42159009,-0.68543577,0.70198262,-0.19338652,0
3.0832226,4.1850042,-1.281862,0.44692716,0.19593436,-0.87284929,0
3.326314,3.6277387,-1.6164184,0.44692716,0.19593436,-0.87284929,0
0.88354051,3.5255356,3.8779402,0.57483399,0.68471175,0.44803548,0
3.8207867,-1.3325092,4.2262936,0.68543577,-0.70198262,0.19338652,0
2.0496731,1.7805829,5.0052996,0.57483399,0.68471175,0.44803548,0
0.231318,-5.3731327,2.2141054,0.68543577,-0.70198262,0.19338652,0
-0.6147387,4.3684006,-3.2515931,0.44692716,0.19593436,-0.87284929,0
-5.1810308,1.0468175,-0.23342419,-0.68543577,0.70198262,-0.19338652,0
-3.1171894,3.7567799,1.7679806,-0.68543577,0.70198262,-0.19338652,0
-3.5574574,-0.52555013,-4.6542869,-0.57483399,-0.68471175,-0.44803548,0
3.2995255,2.7512524,1.9372792,0.57483399,0.68471175,0.44803548,0
2.2715211,1.6286027,4.7296886,0.57483399,0.68471175,0.44803548,0
3.6182828,2.6320798,1.5341816,0.57483399,0.68471175,0.44803548,0
-2.7320075,3.0759773,-2.0354109,-0.68543577,0.70198262,-0.19338652,0
4.4724579,-1.9830344,-0.019742727,0.68543577,-0.70198262,0.19338652,0
-1.2775815,-0.21044731,3.4319243,-0.44692716,-0.19593436,0.87284929,0
2.3117361,5.507081,-1.6811152,0.44692716,0.19593436,-0.87284929,0
-5.3080664,-1.0961006,0.98144102,-0.44692716,-0.19593436,0.87284929,0
0.91470242,-5.9450488,-2.0939512,0.68543577,-0.70198262,0.19338652,0
-3.447773,-1.2872653,-3.4006195,-0.57483399,-0.68471175,-0.44803548,0
-2.3492548,-2.7147527,2.389257,-0.44692716,-0.19593436,0.87284929,0
-4.9665737,0.37025452,1.4392022,-0.44692716,-0.19593436,0.87284929,0
3.2145259,-2.1010113,4.8104887,0.68543577,-0.70198262,0.19338652,0
2.2091541,-3.3855455,3.0537555,0.68543577,-0.70198262,0.19338652,0
-1.930433,-5.2890501,0.53704858,-0.57483399,-0.68471175,-0.44803548,0
-2.4153013,-1.5523207,-5.0097113,-0.57483399,-0.68471175,-0.44803548,0
2.5617604,4.6665344,-0.45659876,0.57483399,0.68471175,0.44803548,0
3.5745635,-3.4382873,-1.6622956,0.68543577,-0.70198262,0.19338652,0
-3.5879588,-0.75177383,2.1386006,-0.44692716,-0.19593436,0.87284929,0
-4.3686275,-1.5023786,1.2662818,-0.44692716,-0.19593436,0.87284929,0
-1.2132825,-4.5811448,-1.3081589,-0.57483399,-0.68471175,-0.44803548,0
4.522687,3.1647744,-0.57914591,0.57483399,0.68471175,0.44803548,0
-0.033897847,-0.36436033,3.7827613,-0.44692716,-0.19593436,0.87284929,0
3.6351032,-1.1513262,5.4002466,0.68543577,-0.70198262,0.19338652,0
-6.2906237,-1.8696265,0.55329466,-0.57483399,-0.68471175,-0.44803548,0
-0.22352552,5.8753366,-1.2129208,-0.68543577,0.70198262,-0.19338652,0
-0.37686729,-6.0706444,1.9519229,0.68543577,-0.70198262,0.19338652,0
1.9044838,3.7615421,2.0648942,0.57483399,0.68471175,0.44803548,0
-3.2743096,-3.6870711,-0.64802361,-0.57483399,-0.68471175,-0.44803548,0
-3.8826756,-0.57349586,-4.5459242,-0.57483399,-0.68471175,-0.44803548,0
2.4507957,-2.3674064,-3.3935905,0.44692716,0.19593436,-0.87284929,0
1.0918195,3.1133261,3.6702495,0.57483399,0.68471175,0.44803548,0
-1.8526392,4.2789326,-1.0339612,-0.68543577,0.70198262,-0.19338652,0
1.3922336,0.78260946,4.9055085,-0.44692716,-0.19593436,0.87284929,0
5.2089839,-1.4812455,-1.1633751,0.68543577,-0.70198262,0.19338652,0
-3.3102624,2.3297653,-2.8695199,-0.68543577,0.70198262,-0.19338652,0
-0.48560858,-6.4644413,1.0044928,0.68543577,-0.70198262,0.19338652,0
1.8889523,-5.4038787,-3.7269263,0.68543577,-0.70198262,0.19338652,0
0.65458012,-3.819495,3.6980529,-0.44692716,-0.19593436,0.87284929,0
7.2614198,0.58581638,-0.29364347,0.44692716,0.19593436,-0.87284929,0
4.983707,-0.87816882,2.3316836,0.68543577,-0.70198262,0.19338652,0
-3.290328,3.400569,-0.16532731,-0.68543577,0.70198262,-0.19338652,0
1.0852696,2.2723794,-2.943893,0.44692716,0.19593436,-0.87284929,0
-2.9244018,1.2190464,-5.2353926,0.44692716,0.19593436,-0.87284929,0
1.3792105,-5.554276,-1.1266918,0.68543577,-0.70198262,0.19338652,0
-0.28391933,4.6364956,3.737875,0.57483399,0.68471175,0.44803548,0
3.6652131,1.6482326,2.7021027,0.57483399,0.68471175,0.44803548,0
2.5639477,1.8365188,-2.4093468,0.44692716,0.19593436,-0.87284929,0
1.4530694,-1.9724946,-3.6620502,0.44692716,0.19593436,-0.87284929,0
-4.4982457,1.4131148,-2.6803064,-0.68543577,0.70198262,-0.19338652,0
2.1739593,-0.54221129,-2.828059,0.44692716,0.19593436,-0.87284929,0
-1.3135412,-5.873199,0.72620082,-0.57483399,-0.68471175,-0.44803548,0
-1.5665662,-0.71048069,-4.7473717,0.44692716,0.19593436,-0.87284929,0
-6.5598612,-0.066046596,-0.35619354,-0.68543577,0.70198262,-0.19338652,0
-6.6576576,-0.30600286,0.43918371,-0.44692716,-0.19593436,0.87284929,0
3.3155901,0.0076527596,5.6296639,-0.44692716,-0.19593436,0.87284929,0
3.4016221,-1.9889164,3.2095695,0.68543577,-0.70198262,0.19338652,0
4.1719489,-2.9403198,-2.3103821,0.44692716,0.19593436,-0.87284929,0
-3.4534078,2.158464,-3.6991839,-0.68543577,0.70198262,-0.19338652,0
0.67680693,-4.9335613,-3.3862021,-0.57483399,-0.68471175,-0.44803548,0
1.2572041,-4.3329911,2.6518617,0.68543577,-0.70198262,0.19338652,0
1.6441981,4.1880798,1.1780491,0.57483399,0.68471175,0.44803548,0
1.9276342,-5.3377666,-3.0783954,0.68543577,-0.70198262,0.19338652,0
-1.3242909,1.111758,-4.4432535,0.44692716,0.19593436,-0.87284929,0
-1.3697124,4.9638824,-0.45420229,-0.68543577,0.70198262,-0.19338652,0
4.3833265,-0.96254408,3.888227,0.68543577,-0.70198262,0.19338652,0
-3.429265,1.9553388,-4.1013346,-0.68543577,0.70198262,-0.19338652,0
6.0674477,-0.62409556,-0.20434761,0.68543577,-0.70198262,0.19338652,0
3.3596563,4.2539272,-0.70825315,0.57483399,0.68471175,0.44803548,0
-2.1522059,-5.6682019,1.2487805,-0.57483399,-0.68471175,-0.44803548,0
-5.652184,-1.8224192,0.73330498,-0.44692716,-0.19593436,0.87284929,0
1.4688549,-5.0109119,0.12958324,0.68543577,-0.70198262,0.19338652,0
3.5095117,2.7551017,1.7464533,0.57483399,0.68471175,0.44803548,0
0.73960161,-4.494741,3.3072274,0.68543577,-0.70198262,0.19338652,0
-3.0921879,3.872489,1.8214402,-0.68543577,0.70198262,-0.19338652,0
2.9298563,-4.6613331,-3.1134675,0.68543577,-0.70198262,0.19338652,0
0.63539505,-5.6194906,-2.3944173,-0.57483399,-0.68471175,-0.44803548,0
3.205338,0.043821812,5.6164432,0.57483399,0.68471175,0.44803548,0
5.5215082,1.220814,0.76233864,0.57483399,0.68471175,0.44803548,0
-0.54987526,5.8597031,0.65061212,-0.68543577,0.70198262,-0.19338652,0
3.6233592,-1.8837538,-2.4416289,0.44692716,0.19593436,-0.87284929,0
4.6411276,-0.97419393,4.2876134,0.68543577,-0.70198262,0.19338652,0
-2.0481982,-2.079412,2.517628,-0.44692716,-0.19593436,0.87284929,0
3.8864989,3.6505108,-0.097185612,0.57483399,0.68471175,0.44803548,0
1.0947313,-4.5622764,3.4581137,0.68543577,-0.70198262,0.19338652,0
-1.2244661,-3.4234426,-3.6787043,-0.57483399,-0.68471175,-0.44803548,0
1.4625906,4.5046711,-2.3912165,0.44692716,0.19593436,-0.87284929,0
-3.7703562,2.5309448,-0.88837814,-0.68543577,0.70198262,-0.19338652,0
2.233156,3.6926658,1.3020363,0.57483399,0.68471175,0.44803548,0
6.2128191,0.37566394,1.070096,0.57483399,0.68471175,0.44803548,0
5.0648618,-1.8707564,-1.7799424,0.44692716,0.19593436,-0.87284929,0
-3.1217446,2.5301731,-2.8690512,-0.68543577,0.70198262,-0.19338652,0
-6.2695613,0.084161282,-0.16144466,-0.68543577,0.70198262,-0.19338652,0
6.0076652,0.24769819,1.9178352,0.57483399,0.68471175,0.44803548,0
2.4028192,-3.7955461,1.194834,0.68543577,-0.70198262,0.19338652,0
-1.0130315,0.2055099,-4.6754699,0.44692716,0.19593436,-0.87284929,0
-1.4192977,-5.430923,2.0283771,-0.44692716,-0.19593436,0.87284929,0
4.8325305,0.38118386,-1.4059664,0.44692716,0.19593436,-0.87284929,0
-1.5848297,-0.61406279,-4.9715695,0.44692716,0.19593436,-0.87284929,0
4.8848076,0.71324015,2.4609857,0.57483399,0.68471175,0.44803548,0
-0.37607813,3.5395873,-3.483036,0.44692716,0.19593436,-0.87284929,0
2.5806985,-3.4682126,2.2253263,0.68543577,-0.70198262,0.19338652,0
0.93700671,-0.57570887,4.1537223,-0.44692716,-0.19593436,0.87284929,0
0.9706341,3.7764902,2.6831708,0.57483399,0.68471175,0.44803548,0
7.0060301,0.61280191,-0.24052334,0.68543577,-0.70198262,0.19338652,0
-1.6790609,3.9287605,-2.27826,-0.68543577,0.70198262,-0.19338652,0
2.0695486,-3.059262,3.8240466,0.68543577,-0.70198262,0.19338652,0
-0.33680642,0.98807597,4.2881961,-0.44692716,-0.19593436,0.87284929,0
4.3886333,2.7558451,-0.18254185,0.57483399,0.68471175,0.44803548,0
1.1741657,-5.065249,-3.7354369,-0.57483399,-0.68471175,-0.44803548,0
0.41540337,4.1975241,3.5210714,0.57483399,0.68471175,0.44803548,0
4.5261726,-0.87617111,3.5361624,0.68543577,-0.70198262,0.19338652,0
-2.9935405,-3.649344,1.5523992,-0.44692716,-0.19593436,0.87284929,0
-1.1489649,4.6449127,-1.3238415,-0.68543577,0.70198262,-0.19338652,0
-3.1457169,-4.2629452,0.85818887,-0.57483399,-0.68471175,-0.44803548,0
1.2121439,-5.3410888,-0.348104,0.68543577,-0.70198262,0.19338652,0
4.2522278,-0.73481154,5.3246794,0.68543577,-0.70198262,0.19338652,0
1.8142624,-4.4965463,-0.16914892,0.68543577,-0.70198262,0.19338652,0
-0.74477553,1.9162109,4.0084419,-0.44692716,-0.19593436,0.87284929,0
0.11582517,-0.039891958,-3.9210858,0.44692716,0.19593436,-0.87284929,0
-4.5411644,-1.1966087,1.5685953,-0.44692716,-0.19593436,0.87284929,0
1.8055968,4.2519197,1.3191457,0.57483399,0.68471175,0.44803548,0
-6.2285085,0.29181635,-0.63090611,-0.68543577,0.70198262,-0.19338652,0
-2.6369541,-0.86295938,-5.4123402,-0.57483399,-0.68471175,-0.44803548,0
5.5262666,-0.67690086,1.3497195,0.68543577,-0.70198262,0.19338652,0
1.3460419,3.9303746,-2.5274653,0.44692716,0.19593436,-0.87284929,0
-1.3296638,5.7038231,1.768189,-0.68543577,0.70198262,-0.19338652,0
-1.8980451,3.6909583,-4.1693468,-0.68543577,0.70198262,-0.19338652,0
5.3712254,-1.5411358,-1.0222709,0.68543577,-0.70198262,0.19338652,0
0.79982233,-5.2062783,2.4795189,0.68543577,-0.70198262,0.19338652,0
4.3106093,-1.1185198,3.2397738,0.68543577,-0.70198262,0.19338652,0
3.4788704,-1.6533549,5.3169918,0.68543577,-0.70198262,0.19338652,0
1.8779435,4.507483,-2.15763,0.44692716,0.19593436,-0.87284929,0
0.58832026,-5.4856839,2.0488591,0.68543577,-0.70198262,0.19338652,0
3.4542079,1.5708545,-1.8539464,0.44692716,0.19593436,-0.87284929,0
4.2730255,-0.67775321,5.1569934,0.57483399,0.68471175,0.44803548,0
1.4716873,-5.0128775,-4.3404913,0.44692716,0.19593436,-0.87284929,0
-4.2463422,2.9684949,2.1719558,-0.68543577,0.70198262,-0.19338652,0
4.9417653,-0.2907176,3.8702898,0.57483399,0.68471175,0.44803548,0
4.0612121,-1.4595716,3.1154058,0.68543577,-0.70198262,0.19338652,0
0.56227803,0.3677938,-3.8682814,0.44692716,0.19593436,-0.87284929,0
-0.56647837,-2.7247834,3.0257354,-0.44692716,-0.19593436,0.87284929,0
2.82972,0.93758965,5.1745577,0.57483399,0.68471175,0.44803548,0
-2.0639195,4.269712,0.026822865,-0.68543577,0.70198262,-0.19338652,0
4.9132023,2.1658666,0.81872702,0.57483399,0.68471175,0.44803548,0
-3.8387423,2.3060565,-1.3230076,-0.68543577,0.70198262,-0.19338652,0
-4.7576294,-2.0032754,1.2371972,-0.44692716,-0.19593436,0.87284929,0
1.3962274,-5.1075029,-0.39094186,0.68543577,-0.70198262,0.19338652,0
5.5259576,0.30986929,-1.068532,0.44692716,0.19593436,-0.87284929,0
-1.9356899,4.4848299,0.015650392,-0.68543577,0.70198262,-0.19338652,0
2.6388905,4.1432834,-0.034584999,0.57483399,0.68471175,0.44803548,0
0.11932087,-3.4501388,3.200104,-0.44692716,-0.19593436,0.87284929,0
3.2987123,-2.6624389,2.8945506,0.68543577,-0.70198262,0.19338652,0
2.6975532,-3.8748493,-1.3003663,0.68543577,-0.70198262,0.19338652,0
3.0276015,3.266036,1.3000102,0.57483399,0.68471175,0.44803548,0
0.45842886,-6.2208042,-0.64509916,0.68543577,-0.70198262,0.19338652,0
0.7751441,-0.33337593,4.1226468,-0.44692716,-0.19593436,0.87284929,0
-2.6882567,4.1501675,2.310833,-0.68543577,0.70198262,-0.19338652,0
0.80634499,6.3026066,-0.78286552,0.57483399,0.68471175,0.44803548,0
-0.52855349,4.930861,3.521862,0.57483399,0.68471175,0.44803548,0
0.26114255,1.4462209,-3.3363838,0.44692716,0.19593436,-0.87284929,0
2.7134027,-2.8941264,2.5600924,0.68543577,-0.70198262,0.19338652,0
-4.2334986,-1.1842942,-3.0290995,-0.57483399,-0.68471175,-0.44803548,0
-1.5744554,-3.1618338,-3.3011737,-0.57483399,-0.68471175,-0.44803548,0
3.7700005,-1.6621974,-2.278023,0.44692716,0.19593436,-0.87284929,0
2.9435239,1.8970499,-2.2219236,0.44692716,0.19593436,-0.87284929,0
2.1778026,-1.444994,-3.0316925,0.44692716,0.19593436,-0.87284929,0
-1.1238854,2.8702288,-4.1348476,0.44692716,0.19593436,-0.87284929,0
6.2068138,0.71702325,0.94764042,0.57483399,0.68471175,0.44803548,0
2.1658573,4.0874124,0.76950645,0.57483399,0.68471175,0.44803548,0
4.1844921,-1.6515048,2.5491886,0.68543577,-0.70198262,0.19338652,0
2.3839736,1.301409,-2.5013657,0.44692716,0.19593436,-0.87284929,0
5.2833714,-1.4689167,-1.1785553,0.68543577,-0.70198262,0.19338652,0
4.1301603,-1.8531147,1.0430021,0.68543577,-0.70198262,0.19338652,0
-1.3773098,-6.284215,1.8298874,-0.44692716,-0.19593436,0.87284929,0
-1.8740094,0.53864098,-4.7343378,0.44692716,0.19593436,-0.87284929,0
-0.75329685,-6.6319933,0.9074378,-0.57483399,-0.68471175,-0.44803548,0
-2.4356966,-2.89083,-2.4805808,-0.57483399,-0.68471175,-0.44803548,0
-2.7285509,-4.717032,1.0011289,-0.57483399,-0.68471175,-0.44803548,0
-1.0673761,5.0116825,-0.91807139,-0.68543577,0.70198262,-0.19338652,0
-3.3787689,2.3605945,-2.8268619,-0.68543577,0.70198262,-0.19338652,0
1.6483073,-5.3410234,-3.8349218,-0.57483399,-0.68471175,-0.44803548,0
2.4656796,4.8727398,-0.15879869,0.57483399,0.68471175,0.44803548,0
-4.5300689,-1.7859364,-1.5489864,-0.57483399,-0.68471175,-0.44803548,0
4.3386955,0.24195862,4.5449152,0.57483399,0.68471175,0.44803548,0
-0.25717592,-4.2081318,2.8424256,-0.44692716,-0.19593436,0.87284929,0
-1.5146458,3.1378877,-3.9970045,0.44692716,0.19593436,-0.87284929,0
0.23103976,-2.8301394,-4.3072052,0.44692716,0.19593436,-0.87284929,0
0.32743359,-5.0288754,-2.7620885,-0.57483399,-0.68471175,-0.44803548,0
-2.9375362,2.7539558,-2.2735703,-0.68543577,0.70198262,-0.19338652,0
-0.84837055,5.7062902,-0.41772509,-0.68543577,0.70198262,-0.19338652,0
-0.65138596,0.29323244,-4.3181257,0.44692716,0.19593436,-0.87284929,0
0.68155885,4.8898063,1.7281718,0.57483399,0.68471175,0.44803548,0
-2.3936665,3.0868094,-4.256669,-0.68543577,0.70198262,-0.19338652,0
1.8295488,-4.2148895,0.70195985,0.68543577,-0.70198262,0.19338652,0
-0.78335953,2.8808508,-3.8863893,0.44692716,0.19593436,-0.87284929,0
5.6538157,1.8419926,-0.044986725,0.57483399,0.68471175,0.44803548,0
-0.16395172,-0.024257421,3.8934624,-0.44692716,-0.19593436,0.87284929,0
2.4071386,3.5692225,-1.9669031,0.44692716,0.19593436,-0.87284929,0
-5.9153552,-1.7900302,0.50266361,-0.44692716,-0.19593436,0.87284929,0
-2.7264841,-3.0164907,-1.6837106,-0.57483399,-0.68471175,-0.44803548,0
2.9274387,-3.03052,2.1625032,0.68543577,-0.70198262,0.19338652,0
3.6671302,3.0403013,-1.484673,0.44692716,0.19593436,-0.87284929,0
-0.93264484,-5.8413124,-0.18187666,-0.57483399,-0.68471175,-0.44803548,0
2.0000648,-0.66021824,-2.9683118,0.44692716,0.19593436,-0.87284929,0
-4.5490799,-0.49187756,1.3498468,-0.44692716,-0.19593436,0.87284929,0
1.5952797,-0.23694134,-3.3773975,0.44692716,0.19593436,-0.87284929,0
-1.8819699,-0.96746349,-5.3748775,0.44692716,0.19593436,-0.87284929,0
-4.458746,1.931155,-0.64076614,-0.68543577,0.70198262,-0.19338652,0
2.7331882,-2.2966897,4.285778,0.68543577,-0.70198262,0.19338652,0
4.6308274,-0.21236372,4.6938205,0.57483399,0.68471175,0.44803548,0
2.8784876,-3.5532162,-0.54270148,0.68543577,-0.70198262,0.19338652,0
3.5038257,-1.2978938,5.4477549,-0.44692716,-0.19593436,0.87284929,0
-0.50744677,5.5196176,2.5028164,0.57483399,0.68471175,0.44803548,0
-0.91747093,4.8690467,-2.6613245,-0.68543577,0.70198262,-0.19338652,0
0.64375544,-4.0537801,3.6364465,-0.44692716,-0.19593436,0.87284929,0
3.5475464,1.5246657,2.7548041,0.57483399,0.68471175,0.44803548,0
-5.7460217,0.13765341,-2.6267257,-0.68543577,0.70198262,-0.19338652,0
1.3569744,0.77972746,-3.3511219,0.44692716,0.19593436,-0.87284929,0
0.30627012,-6.151402,-0.035583019,0.68543577,-0.70198262,0.19338652,0
1.0967398,-5.4668665,-3.4571924,-0.57483399,-0.68471175,-0.44803548,0
5.7598429,-0.70508277,-0.37681627,0.68543577,-0.70198262,0.19338652,0
-1.8399422,-2.5245898,-3.8493938,-0.57483399,-0.68471175,-0.44803548,0
-5.5612335,-2.3685663,0.26495647,-0.57483399,-0.68471175,-0.44803548,0
-2.2881665,2.0913095,3.448889,-0.44692716,-0.19593436,0.87284929,0
4.0851021,-0.36547709,-2.1323855,0.44692716,0.19593436,-0.87284929,0
4.9508028,1.1740752,1.8244534,0.57483399,0.68471175,0.44803548,0
-0.16394854,6.2002153,-0.90246034,-0.68543577,0.70198262,-0.19338652,0
1.4067142,6.3351412,-1.4857011,0.57483399,0.68471175,0.44803548,0
-5.2579422,-1.22238,-1.416379,-0.57483399,-0.68471175,-0.44803548,0
-4.1266465,1.932955,-1.4276931,-0.68543577,0.70198262,-0.19338652,0
2.0591626,-4.1059113,0.60459942,0.68543577,-0.70198262,0.19338652,0
-0.99653482,-5.4724579,-0.80110598,-0.57483399,-0.68471175,-0.44803548,0
0.29124618,-2.2792766,-4.5141654,0.44692716,0.19593436,-0.87284929,0
3.1997914,-1.2680144,-2.8679266,0.44692716,0.19593436,-0.87284929,0
6.2606688,0.19755715,1.5122104,0.57483399,0.68471175,0.44803548,0
1.3128176,2.9646542,3.990694,0.57483399,0.68471175,0.44803548,0
1.229825,1.2695763,-3.3094323,0.44692716,0.19593436,-0.87284929,0
3.1798422,4.1151934,-0.51457524,0.57483399,0.68471175,0.44803548,0
-0.13905573,-6.2120929,0.55579519,0.68543577,-0.70198262,0.19338652,0
-1.5274942,-2.3413818,-4.334826,-0.57483399,-0.68471175,-0.44803548,0
-5.9632897,0.70961547,-0.023364544,-0.68543577,0.70198262,-0.19338652,0
0.20345736,-5.1243625,-2.5982311,-0.57483399,-0.68471175,-0.44803548,0
2.448782,2.8738101,-1.9334937,0.44692716,0.19593436,-0.87284929,0
1.6943086,-0.62170649,-3.1460288,0.44692716,0.19593436,-0.87284929,0
-1.7760934,-3.6442611,2.4544468,-0.44692716,-0.19593436,0.87284929,0
-2.2791464,-1.468339,-5.1174412,-0.57483399,-0.68471175,-0.44803548,0
-3.2246392,-3.7066097,1.3116693,-0.44692716,-0.19593436,0.87284929,0
-3.6392527,3.4021466,2.6169887,-0.68543577,0.70198262,-0.19338652,0
-0.76095748,-0.72254062,-4.4262042,0.44692716,0.19593436,-0.87284929,0
-1.972548,1.3490434,3.4914186,-0.44692716,-0.19593436,0.87284929,0
5.6796551,-0.45235205,0.56237984,0.68543577,-0.70198262,0.19338652,0
-4.2999659,0.55307937,-5.7646794,-0.57483399,-0.68471175,-0.44803548,0
-2.6937163,-4.9027467,1.5440369,-0.44692716,-0.19593436,0.87284929,0
5.5644312,-0.084974945,2.8371992,0.57483399,0.68471175,0.44803548,0
-3.4121008,-2.5521107,-1.7699642,-0.57483399,-0.68471175,-0.44803548,0
-1.948601,2.0582666,3.3794603,-0.44692716,-0.19593436,0.87284929,0
3.1934659,2.6666951,1.4857559,0.57483399,0.68471175,0.44803548,0
-1.7264318,4.8443494,0.48497021,-0.68543577,0.70198262,-0.19338652,0
-1.9148539,-3.0184925,-3.331728,-0.57483399,-0.68471175,-0.44803548,0
1.8211541,3.8885524,1.9770536,0.57483399,0.68471175,0.44803548,0
-2.2175159,5.5149493,3.9199829,-0.68543577,0.70198262,-0.19338652,0
-0.38158703,5.5782061,-0.80231714,-0.68543577,0.70198262,-0.19338652,0
3.1312213,-4.0794163,-2.0631649,0.68543577,-0.70198262,0.19338652,0
-2.0280199,3.9769435,-1.870123,-0.68543577,0.70198262,-0.19338652,0
-4.2771082,2.1223865,0.60705769,-0.68543577,0.70198262,-0.19338652,0
-4.5707397,-0.33364463,1.5342387,-0.44692716,-0.19593436,0.87284929,0
3.5189171,-2.6848214,-2.66223,0.44692716,0.19593436,-0.87284929,0
5.5540085,1.4737066,1.0212026,0.57483399,0.68471175,0.44803548,0
-5.1578684,1.0179023,-1.1087995,-0.68543577,0.70198262,-0.19338652,0
1.0395861,-0.61741638,-3.5894587,0.44692716,0.19593436,-0.87284929,0
-3.9159307,-0.60212374,2.0970898,-0.44692716,-0.19593436,0.87284929,0
0.0089659691,-6.2156038,-0.64681149,-0.57483399,-0.68471175,-0.44803548,0
-4.2887239,1.5358112,-2.410316,-0.68543577,0.70198262,-0.19338652,0
-2.569828,0.085145235,2.9164844,-0.44692716,-0.19593436,0.87284929,0
4.3991232,2.9594326,0.046255112,0.57483399,0.68471175,0.44803548,0
1.6954081,6.1695004,-1.6323767,0.44692716,0.19593436,-0.87284929,0
-3.4722042,-4.2055097,1.0817854,-0.57483399,-0.68471175,-0.44803548,0
1.3918989,5.616672,-0.25818753,0.57483399,0.68471175,0.44803548,0
-1.7088871,4.5171328,4.2653623,-0.44692716,-0.19593436,0.87284929,0
4.3056431,-2.5761564,-2.3680792,0.44692716,0.19593436,-0.87284929,0
-3.4794817,1.9647915,-3.8802762,-0.68543577,0.70198262,-0.19338652,0
-3.3550358,3.5691624,1.3514475,-0.68543577,0.70198262,-0.19338652,0
-0.24229121,-0.88744187,3.6667354,-0.44692716,-0.19593436,0.87284929,0
-1.3569345,2.7225823,-4.239841,0.44692716,0.19593436,-0.87284929,0
0.088432789,-5.7252488,1.6157789,0.68543577,-0.70198262,0.19338652,0
-6.107265,-1.4621319,-0.37550545,-0.57483399,-0.68471175,-0.44803548,0
-2.535234,4.6492796,3.7203529,-0.44692716,-0.19593436,0.87284929,0
3.0571856,2.6367147,2.5160022,0.57483399,0.68471175,0.44803548,0
1.5550933,-4.6594715,-4.1259136,0.44692716,0.19593436,-0.87284929,0
-5.4234548,0.57128793,-2.1551795,-0.68543577,0.70198262,-0.19338652,0
-0.12561703,5.6642547,-1.2979883,-0.68543577,0.70198262,-0.19338652,0
-1.507103,-0.71396852,3.2129669,-0.44692716,-0.19593436,0.87284929,0
2.7688723,-3.2089591,1.3482883,0.68543577,-0.70198262,0.19338652,0
1.9734712,-4.11515,0.93268669,0.68543577,-0.70198262,0.19338652,0
4.7862349,-0.1111865,4.061965,0.57483399,0.68471175,0.44803548,0
-2.2056155,4.2710934,-0.56369734,-0.68543577,0.70198262,-0.19338652,0
5.6968346,-0.0045553446,2.3397522,0.68543577,-0.70198262,0.19338652,0
-2.0032327,2.1833513,-4.6127481,0.44692716,0.19593436,-0.87284929,0
-3.0935233,-4.2199392,0.39933729,-0.57483399,-0.68471175,-0.44803548,0
3.2612929,-2.9981222,0.37581754,0.68543577,-0.70198262,0.19338652,0
-3.7812824,2.1666908,-2.154098,-0.68543577,0.70198262,-0.19338652,0
2.1960721,-4.9974785,-1.8896456,0.68543577,-0.70198262,0.19338652,0
2.6175175,3.114429,2.2921863,0.57483399,0.68471175,0.44803548,0
-4.1916113,2.1621907,2.3430934,-0.44692716,-0.19593436,0.87284929,0
-2.3475432,4.6804523,3.7847619,-0.44692716,-0.19593436,0.87284929,0
-2.6443758,2.9423866,-3.8166895,-0.68543577,0.70198262,-0.19338652,0
-2.1478682,-2.1350451,-3.8987684,-0.57483399,-0.68471175,-0.44803548,0
-6.6300845,0.24021769,0.36492825,-0.68543577,0.70198262,-0.19338652,0
-2.8937337,2.3337684,-4.3956461,-0.68543577,0.70198262,-0.19338652,0
4.3864374,1.0699037,-1.4059283,0.44692716,0.19593436,-0.87284929,0
4.2507386,2.5491967,0.95325756,0.57483399,0.68471175,0.44803548,0
0.055560589,-4.6281214,-3.0122695,-0.57483399,-0.68471175,-0.44803548,0
1.2534059,0.59097886,-3.170053,0.44692716,0.19593436,-0.87284929,0
2.6329,-0.78431988,-2.9445558,0.44692716,0.19593436,-0.87284929,0
-3.5544219,2.2398832,-3.3667228,-0.68543577,0.70198262,-0.19338652,0
-3.2996097,3.9088423,2.6185265,-0.68543577,0.70198262,-0.19338652,0
3.3600044,-3.5021093,-1.3131896,0.68543577,-0.70198262,0.19338652,0
-3.4256277,-3.6681168,-0.09150219,-0.57483399,-0.68471175,-0.44803548,0
-0.08155489,-5.8959141,1.84422,0.68543577,-0.70198262,0.19338652,0
3.8841348,0.37660384,-1.7804817,0.44692716,0.19593436,-0.87284929,0
5.6666536,-0.74035168,-0.53206944,0.68543577,-0.70198262,0.19338652,0
-0.067321777,-6.3183007,1.5604581,0.68543577,-0.70198262,0.19338652,0
3.2308564,4.0063601,0.026059151,0.57483399,0.68471175,0.44803548,0
4.3031197,0.36922359,3.6283507,0.57483399,0.68471175,0.44803548,0
-1.6170492,3.742732,3.974103,-0.44692716,-0.19593436,0.87284929,0
3.942642,-1.5740964,3.2307012,0.68543577,-0.70198262,0.19338652,0
-4.1373482,-0.54950571,1.6535612,-0.44692716,-0.19593436,0.87284929,0
-1.4362986,-2.7622733,-4.3369532,-0.57483399,-0.68471175,-0.44803548,0
1.6888227,5.6906948,-1.7220402,0.44692716,0.19593436,-0.87284929,0
1.0801864,-4.6124048,2.787899,0.68543577,-0.70198262,0.19338652,0
3.3501163,-3.2176833,-1.211803,0.68543577,-0.70198262,0.19338652,0
1.872942,-4.1950588,1.8330445,0.68543577,-0.70198262,0.19338652,0
-6.1032476,0.58992696,0.5009377,-0.68543577,0.70198262,-0.19338652,0
3.2179625,-0.52505279,5.5144725,-0.44692716,-0.19593436,0.87284929,0
-5.5815363,-0.82588255,-1.7989044,-0.57483399,-0.68471175,-0.44803548,0
-0.33687925,-5.8260651,-1.0875335,-0.57483399,-0.68471175,-0.44803548,0
-0.21997881,1.9790244,4.1647277,-0.44692716,-0.19593436,0.87284929,0
-3.6534753,-3.4329846,0.22083521,-0.57483399,-0.68471175,-0.44803548,0
-2.0147347,4.7255373,0.57483435,-0.68543577,0.70198262,-0.19338652,0
0.70279503,-5.3156333,-2.3779464,-0.57483399,-0.68471175,-0.44803548,0
6.0254002,1.1431946,-0.84227085,0.44692716,0.19593436,-0.87284929,0
-1.9239655,-2.7746866,-3.4230776,-0.57483399,-0.68471175,-0.44803548,0
1.5382757,0.89723754,4.8797226,-0.44692716,-0.19593436,0.87284929,0
2.6637335,-3.5350623,1.4895664,0.68543577,-0.70198262,0.19338652,0
-0.25697899,-5.6213417,-1.0843098,-0.57483399,-0.68471175,-0.44803548,0
1.3675435,-0.18696427,-3.5562973,0.44692716,0.19593436,-0.87284929,0
0.18560743,-6.2995133,-0.52700281,0.68543577,-0.70198262,0.19338652,0
-5.2880063,-2.5165632,0.31286716,-0.57483399,-0.68471175,-0.44803548,0
-4.3967147,-2.3497484,-0.66716623,-0.57483399,-0.68471175,-0.44803548,0
-4.1376843,2.5781729,2.397018,-0.44692716,-0.19593436,0.87284929,0
3.3021719,1.2720457,-1.8821163,0.44692716,0.19593436,-0.87284929,0
5.5554047,0.59208357,1.9289546,0.57483399,0.68471175,0.44803548,0
-0.66795492,4.7767973,-2.7764025,-0.68543577,0.70198262,-0.19338652,0
-3.7644544,-1.5460162,-2.8157549,-0.57483399,-0.68471175,-0.44803548,0
-0.27380085,-5.5320344,-0.8538928,-0.57483399,-0.68471175,-0.44803548,0
0.61614585,-2.4002061,3.9753942,-0.44692716,-0.19593436,0.87284929,0
-1.7650576,-2.8911119,-3.2872529,-0.57483399,-0.68471175,-0.44803548,0
-5.6239042,-0.78594857,-1.764647,-0.57483399,-0.68471175,-0.44803548,0
-3.6571121,2.7236674,2.9422295,-0.44692716,-0.19593436,0.87284929,0
4.9116082,-1.3218732,1.7854493,0.68543577,-0.70198262,0.19338652,0
4.0344219,0.082075596,-1.8308052,0.44692716,0.19593436,-0.87284929,0
-2.1780293,-1.8579524,-4.5858731,-0.57483399,-0.68471175,-0.44803548,0
0.79754376,-4.0698371,3.3423326,-0.44692716,-0.19593436,0.87284929,0
-3.0100501,-2.4455571,-2.5462713,-0.57483399,-0.68471175,-0.44803548,0
-0.95294857,5.2122936,-0.23311925,-0.68543577,0.70198262,-0.19338652,0
0.91010332,6.6901975,-1.0457256,0.57483399,0.68471175,0.44803548,0
0.92940402,6.1754751,-0.39209175,0.57483399,0.68471175,0.44803548,0
0.93587482,-1.1604745,4.4533119,-0.44692716,-0.19593436,0.87284929,0
-2.397984,-2.8875136,2.261982,-0.44692716,-0.19593436,0.87284929,0
2.0411801,-1.3988373,4.8363161,-0.44692716,-0.19593436,0.87284929,0
-1.7365429,-2.0801518,-4.6958203,-0.57483399,-0.68471175,-0.44803548,0
-3.9167171,2.962213,1.2967622,-0.68543577,0.70198262,-0.19338652,0
-3.3640437,-1.8071138,-3.0584736,-0.57483399,-0.68471175,-0.44803548,0
0.2013092,6.3392873,-0.077231407,-0.68543577,0.70198262,-0.19338652,0
-1.3959603,4.456933,-2.9643435,-0.68543577,0.70198262,-0.19338652,0
-0.97688389,5.1994658,-1.5479077,-0.68543577,0.70198262,-0.19338652,0
4.8858981,1.1864603,1.7749472,0.57483399,0.68471175,0.44803548,0
-2.5458279,3.9000547,-0.63164872,-0.68543577,0.70198262,-0.19338652,0
-4.1805396,0.74945521,-5.4959526,-0.68543577,0.70198262,-0.19338652,0
1.7992368,-5.5073247,-2.0984552,0.68543577,-0.70198262,0.19338652,0
-2.5683715,-1.9245166,2.3672371,-0.44692716,-0.19593436,0.87284929,0
-4.379457,-2.5379493,-0.96854877,-0.57483399,-0.68471175,-0.44803548,0
3.7340326,-2.9351931,0.22391748,0.68543577,-0.70198262,0.19338652,0
-1.0997109,3.4079876,4.372858,-0.44692716,-0.19593436,0.87284929,0
2.1536102,5.2565398,-0.72720361,0.57483399,0.68471175,0.44803548,0
4.0111818,3.7913213,-0.6452508,0.57483399,0.68471175,0.44803548,0
-5.0635309,-0.99173737,1.0688987,-0.44692716,-0.19593436,0.87284929,0
-5.5622072,0.39989546,-2.4577694,-0.68543577,0.70198262,-0.19338652,0
-1.4094758,5.4668474,3.7105854,0.57483399,0.68471175,0.44803548,0
5.6119947,-0.13219427,2.0193734,0.68543577,-0.70198262,0.19338652,0
5.3183498,-1.574605,-0.97187054,0.68543577,-0.70198262,0.19338652,0
0.37213719,1.5201402,-3.6528707,0.44692716,0.19593436,-0.87284929,0
0.27707958,-5.3915367,2.3263628,0.68543577,-0.70198262,0.19338652,0
2.5252395,2.2948132,-2.1892812,0.44692716,0.19593436,-0.87284929,0
4.9828548,-1.015911,2.024899,0.68543577,-0.70198262,0.19338652,0
-3.893065,-0.36970973,-4.5369864,-0.57483399,-0.68471175,-0.44803548,0
-5.1401634,-1.5796609,-0.68957663,-0.57483399,-0.68471175,-0.44803548,0
-0.92743301,5.0179777,3.1978705,0.57483399,0.68471175,0.44803548,0
3.6584153,-2.7833242,-0.031894684,0.68543577,-0.70198262,0.19338652,0
-3.8755999,2.7649055,0.90876484,-0.68543577,0.70198262,-0.19338652,0
-5.5432253,0.23821044,1.2114339,-0.44692716,-0.19593436,0.87284929,0
-2.287509,1.4120591,-4.9895134,0.44692716,0.19593436,-0.87284929,0
-4.4847469,0.40987325,-4.886692,-0.57483399,-0.68471175,-0.44803548,0
-2.8420739,-4.6930037,0.41373777,-0.57483399,-0.68471175,-0.44803548,0
-1.630723,-5.9935322,0.96773481,-0.57483399,-0.68471175,-0.44803548,0
-0.33782881,0.48321509,-4.1637201,0.44692716,0.19593436,-0.87284929,0
-1.8117852,5.1331315,1.970614,-0.68543577,0.70198262,-0.19338652,0
2.0432429,-4.4087162,-3.8270733,0.44692716,0.19593436,-0.87284929,0
3.8368526,-1.5647603,3.3745062,0.68543577,-0.70198262,0.19338652,0
4.2843437,0.077181101,-1.618902,0.44692716,0.19593436,-0.87284929,0
5.3966222,-1.6090357,-1.2581989,0.68543577,-0.70198262,0.19338652,0
0.79156089,-1.431088,4.0269551,-0.44692716,-0.19593436,0.87284929,0
4.0366335,-3.17313,-2.5293705,0.44692716,0.19593436,-0.87284929,0
-2.0076299,4.4005566,3.8730478,-0.44692716,-0.19593436,0.87284929,0
-3.5472398,-4.0460987,0.99498415,-0.57483399,-0.68471175,-0.44803548,0
-1.4490592,3.4530244,4.2278843,-0.44692716,-0.19593436,0.87284929,0
1.1318436,-5.7604308,-1.5368598,0.68543577,-0.70198262,0.19338652,0
3.2979517,-3.4504356,-1.0266099,0.68543577,-0.70198262,0.19338652,0
0.94664741,-1.1488776,-3.9747739,0.44692716,0.19593436,-0.87284929,0
-3.7559435,-2.2417116,1.5642658,-0.44692716,-0.19593436,0.87284929,0
-6.1771955,0.25640976,-0.68670082,-0.68543577,0.70198262,-0.19338652,0
2.0651226,-4.1576991,1.3565745,0.68543577,-0.70198262,0.19338652,0
-0.44621837,1.2775545,-3.8410146,0.44692716,0.19593436,-0.87284929,0
4.9327745,-0.88880438,1.5781875,0.68543577,-0.70198262,0.19338652,0
-4.3691516,1.7909836,-0.79469013,-0.68543577,0.70198262,-0.19338652,0
0.55933428,-2.2888148,3.6312318,-0.44692716,-0.19593436,0.87284929,0
6.0141897,1.4086654,-0.57243347,0.44692716,0.19593436,-0.87284929,0
2.2486272,-3.7330308,2.2134838,0.68543577,-0.70198262,0.19338652,0
-3.5297394,2.6589618,2.6131384,-0.44692716,-0.19593436,0.87284929,0
1.1800804,-2.5340648,-4.0127525,0.44692716,0.19593436,-0.87284929,0
0.55837679,6.1110787,-0.069963694,0.57483399,0.68471175,0.44803548,0
1.2999995,-1.4009664,-3.5146189,0.44692716,0.19593436,-0.87284929,0
0.00628829,3.8207717,-2.9773493,0.44692716,0.19593436,-0.87284929,0
-6.9105811,-0.33941293,-0.88939095,-0.68543577,0.70198262,-0.19338652,0
1.6003408,3.781657,-2.4676054,0.44692716,0.19593436,-0.87284929,0
0.018707275,-5.0556078,2.7619689,-0.44692716,-0.19593436,0.87284929,0
1.639611,-1.0928245,4.5492997,-0.44692716,-0.19593436,0.87284929,0
-0.77479029,4.8974519,-2.204998,-0.68543577,0.70198262,-0.19338652,0
-0.25359702,-5.4530325,-1.813221,-0.57483399,-0.68471175,-0.44803548,0
-1.5541879,-3.0928769,-3.3180447,-0.57483399,-0.68471175,-0.44803548,0
-1.7041764,-3.6126189,-2.1655364,-0.57483399,-0.68471175,-0.44803548,0
-1.7037168,3.7033246,-2.9287329,-0.68543577,0.70198262,-0.19338652,0
-0.63531977,-2.3906453,-4.9602623,0.44692716,0.19593436,-0.87284929,0
-5.1347404,0.32795835,-4.2135763,-0.57483399,-0.68471175,-0.44803548,0
-0.12384605,0.72805309,3.9289627,-0.44692716,-0.19593436,0.87284929,0
5.1692739,-0.24347019,-1.2145147,0.44692716,0.19593436,-0.87284929,0
-3.0522351,0.31427622,-5.7181129,0.44692716,0.19593436,-0.87284929,0
5.5982065,-0.17728448,2.9449029,0.68543577,-0.70198262,0.19338652,0
-2.4575071,-2.6372759,-3.2837815,-0.57483399,-0.68471175,-0.44803548,0
4.6135464,0.91990709,2.8524771,0.57483399,0.68471175,0.44803548,0
-3.9011369,-1.9950621,-2.0059619,-0.57483399,-0.68471175,-0.44803548,0
-0.34517002,-5.7707658,-0.67122006,-0.57483399,-0.68471175,-0.44803548,0
-3.6869462,-0.14385748,-4.8109694,-0.57483399,-0.68471175,-0.44803548,0
-4.9935679,1.6689714,-0.30483484,-0.68543577,0.70198262,-0.19338652,0
-1.7132912,4.6715274,0.14739156,-0.68543577,0.70198262,-0.19338652,0
4.1314039,-3.1166692,-1.9109316,0.68543577,-0.70198262,0.19338652,0
2.0118856,5.4207196,-0.60525966,0.57483399,0.68471175,0.44803548,0
3.030606,1.0424416,4.6290541,0.57483399,0.68471175,0.44803548,0
-2.3117263,2.1150711,-4.8755541,0.44692716,0.19593436,-0.87284929,0
1.5458362,3.4673815,-2.2166262,0.44692716,0.19593436,-0.87284929,0
-2.0551095,4.2111769,-1.6543289,-0.68543577,0.70198262,-0.19338652,0
-0.80791235,6.04949,1.4018097,-0.68543577,0.70198262,-0.19338652,0
6.5804119,0.34638453,0.24903345,0.68543577,-0.70198262,0.19338652,0
2.346879,4.5256124,0.034615517,0.57483399,0.68471175,0.44803548,0
1.6662426,-1.4512112,4.4462023,-0.44692716,-0.19593436,0.87284929,0
6.2502594,1.2680521,-0.16337681,0.57483399,0.68471175,0.44803548,0
1.1581824,4.1256123,-2.4319601,0.44692716,0.19593436,-0.87284929,0
-0.40855193,-3.623723,3.14118,-0.44692716,-0.19593436,0.87284929,0
-2.7677536,-2.6691644,-2.3502893,-0.57483399,-0.68471175,-0.44803548,0
3.0523086,3.2331917,1.3556566,0.57483399,0.68471175,0.44803548,0
-3.7894201,3.2725387,1.5885937,-0.68543577,0.70198262,-0.19338652,0
2.5847807,2.0206249,3.5045824,0.57483399,0.68471175,0.44803548,0
-1.6971447,-2.1051197,-4.2187963,-0.57483399,-0.68471175,-0.44803548,0
-1.0767148,-1.7168822,2.8711035,-0.44692716,-0.19593436,0.87284929,0
5.8896904,0.80877697,1.4329438,0.57483399,0.68471175,0.44803548,0
-1.0656731,-4.7348061,-1.5624733,-0.57483399,-0.68471175,-0.44803548,0
-4.1706772,-3.8230875,1.0575638,-0.57483399,-0.68471175,-0.44803548,0
0.72456205,3.4345071,3.6289544,0.57483399,0.68471175,0.44803548,0
5.362947,-0.91818869,1.8377995,0.68543577,-0.70198262,0.19338652,0
0.66900873,5.1541433,-2.4686749,0.44692716,0.19593436,-0.87284929,0
-6.5682445,-0.11599004,-0.964571,-0.68543577,0.70198262,-0.19338652,0
-3.9475985,3.078891,2.0709772,-0.68543577,0.70198262,-0.19338652,0
-1.2504945,4.7602234,-0.93368304,-0.68543577,0.70198262,-0.19338652,0
3.3691278,-3.4448168,-0.38419378,0.68543577,-0.70198262,0.19338652,0
1.1393971,-4.2955894,3.8559947,-0.44692716,-0.19593436,0.87284929,0
-1.8685188,4.8467665,1.8845549,-0.68543577,0.70198262,-0.19338652,0
-1.8885304,-3.0549376,-3.1617785,-0.57483399,-0.68471175,-0.44803548,0
-5.4032631,-0.6900956,-2.1341743,-0.57483399,-0.68471175,-0.44803548,0
-1.0116775,-6.1914892,0.30957031,-0.57483399,-0.68471175,-0.44803548,0
-0.37217402,-2.7115784,-4.9446383,0.44692716,0.19593436,-0.87284929,0
-2.4843879,3.1309965,3.242672,-0.44692716,-0.19593436,0.87284929,0
-3.4547431,1.6182008,-4.6247091,-0.68543577,0.70198262,-0.19338652,0
-0.98784256,-4.2430239,-2.5075297,-0.57483399,-0.68471175,-0.44803548,0
2.3666525,-4.733366,-1.7469341,0.68543577,-0.70198262,0.19338652,0
-4.8422565,-0.93996757,-2.1370869,-0.57483399,-0.68471175,-0.44803548,0
-0.10113835,2.7147257,4.5016608,-0.44692716,-0.19593436,0.87284929,0
-2.0978537,-5.0749826,1.8104299,-0.44692716,-0.19593436,0.87284929,0
-2.0764086,-3.0884826,-2.2962976,-0.57483399,-0.68471175,-0.44803548,0
1.4706676,5.7155304,-0.41629887,0.57483399,0.68471175,0.44803548,0
-2.3576026,4.8038926,1.7891989,-0.68543577,0.70198262,-0.19338652,0
1.333353,0.34124613,-3.4264324,0.44692716,0.19593436,-0.87284929,0
1.7564492,3.347419,2.3094659,0.57483399,0.68471175,0.44803548,0
3.2897379,-2.3001657,2.3798027,0.68543577,-0.70198262,0.19338652,0
6.390254,0.20736217,0.65241337,0.68543577,-0.70198262,0.19338652,0
4.235076,-2.3970296,-0.11892354,0.68543577,-0.70198262,0.19338652,0
-3.9496303,-2.2507274,-1.2786713,-0.57483399,-0.68471175,-0.44803548,0
-4.8435192,0.30991626,-4.6846876,-0.57483399,-0.68471175,-0.44803548,0
-0.61375821,0.70031524,3.8844919,-0.44692716,-0.19593436,0.87284929,0
-0.53006929,-0.39099193,3.743526,-0.44692716,-0.19593436,0.87284929,0
-0.68866122,-0.10732412,3.4918466,-0.44692716,-0.19593436,0.87284929,0
3.7658501,-2.1351705,-2.7693782,0.44692716,0.19593436,-0.87284929,0
4.9882622,-0.0031689405,3.6609735,0.57483399,0.68471175,0.44803548,0
-7.0601234,-0.58635271,0.14851379,-0.44692716,-0.19593436,0.87284929,0
-4.9792747,-1.1993829,1.0523572,-0.44692716,-0.19593436,0.87284929,0
-5.3914871,1.7558627,1.6001596,-0.44692716,-0.19593436,0.87284929,0
1.4245181,-4.0846357,3.6661513,0.68543577,-0.70198262,0.19338652,0
0.45894837,1.7681619,-3.3537548,0.44692716,0.19593436,-0.87284929,0
-1.9086478,-6.1550102,1.5571413,-0.57483399,-0.68471175,-0.44803548,0
-3.1716747,-2.262023,-2.3695154,-0.57483399,-0.68471175,-0.44803548,0
-6.176558,-0.30265075,-2.0362039,-0.57483399,-0.68471175,-0.44803548,0
-1.8090665,-1.0067761,-4.9454293,0.44692716,0.19593436,-0.87284929,0
-2.5455217,1.7703118,2.9410317,-0.44692716,-0.19593436,0.87284929,0
4.3166132,3.4411006,-0.34691715,0.57483399,0.68471175,0.44803548,0
1.2128673,-6.0180659,-2.0577664,-0.57483399,-0.68471175,-0.44803548,0
6.268775,-0.17192137,-0.080383301,0.68543577,-0.70198262,0.19338652,0
-3.1904535,2.6925316,-2.3957422,-0.68543577,0.70198262,-0.19338652,0
-2.7170792,3.8064814,-0.11671108,-0.68543577,0.70198262,-0.19338652,0
3.228548,-3.9148459,-2.1789274,0.68543577,-0.70198262,0.19338652,0
1.0859246,-4.9874725,2.1641033,0.68543577,-0.70198262,0.19338652,0
3.9246011,-2.6647449,0.099676847,0.68543577,-0.70198262,0.19338652,0
3.0437961,-3.0450151,-3.2193217,0.44692716,0.19593436,-0.87284929,0
-1.4713995,3.5798645,-4.006392,0.44692716,0.19593436,-0.87284929,0
5.3089848,0.5030399,2.7918382,0.57483399,0.68471175,0.44803548,0
