4.1763887,0.49380803,3.2797341,0.033394933,0.37111402,0.92798656,0
0.77515423,-3.8768086,-2.2664487,-0.033394933,-0.37111402,-0.92798656,0
-2.4062998,2.548702,2.8598123,0.033394933,0.37111402,0.92798656,0
1.2033877,-2.1063633,3.5216379,0.48605025,-0.81733906,0.30937335,0
1.3162599,4.653594,-1.4818802,-0.48605025,0.81733906,-0.30937335,0
4.7913275,-2.2954819,-2.1882195,0.48605025,-0.81733906,0.30937335,0
-4.6166258,-0.69512248,-3.300529,-0.033394933,-0.37111402,-0.92798656,0
3.3074667,4.1070499,-2.3542886,0.87329245,0.44071668,-0.20767498,0
-4.3970494,-1.1415503,2.876009,-0.87329245,-0.44071668,0.20767498,0
-0.90464926,-5.4332104,-1.4050593,0.48605025,-0.81733906,0.30937335,0
-3.9845386,-1.5752969,4.6918764,-0.87329245,-0.44071668,0.20767498,0
-5.6627121,1.0106719,0.66845322,-0.48605025,0.81733906,-0.30937335,0
-1.1430519,-0.057222366,-3.8869953,-0.033394933,-0.37111402,-0.92798656,0
2.2154179,-1.6392629,2.8963621,0.48605025,-0.81733906,0.30937335,0
3.2826638,3.2809563,2.4969523,0.033394933,0.37111402,0.92798656,0
-4.9306188,2.4785938,3.165976,0.033394933,0.37111402,0.92798656,0
5.8395896,-0.34402132,0.088519573,0.87329245,0.44071668,-0.20767498,0
2.4403586,3.8970609,-4.9087009,0.87329245,0.44071668,-0.20767498,0
-3.7757082,-2.0039325,4.6211128,0.033394933,0.37111402,0.92798656,0
-0.6947521,3.8591979,2.3513241,0.033394933,0.37111402,0.92798656,0
-2.6738496,2.2739973,-1.6791613,-0.48605025,0.81733906,-0.30937335,0
-5.681716,-0.091185331,-0.2594614,-0.87329245,-0.44071668,0.20767498,0
-3.2239499,-3.656014,2.2222941,-0.87329245,-0.44071668,0.20767498,0
2.7813287,3.602093,-4.551125,0.87329245,0.44071668,-0.20767498,0
-5.1934214,-1.6457124,-0.37948895,-0.87329245,-0.44071668,0.20767498,0
-5.0136943,-1.195534,0.37190008,-0.87329245,-0.44071668,0.20767498,0
-0.51127481,1.1117125,3.5371711,0.033394933,0.37111402,0.92798656,0
0.55486107,-2.9699128,2.6138315,0.48605025,-0.81733906,0.30937335,0
-0.72777247,1.0048065,3.4093523,0.033394933,0.37111402,0.92798656,0
-0.4651022,1.3409321,3.1147163,0.033394933,0.37111402,0.92798656,0
-3.438802,-5.0509424,-1.5631685,-0.033394933,-0.37111402,-0.92798656,0
-1.3579211,-4.3965359,1.7268836,0.48605025,-0.81733906,0.30937335,0
4.3716416,-1.4831582,1.0021524,0.48605025,-0.81733906,0.30937335,0
-3.9031012,-1.9910097,3.6681447,-0.87329245,-0.44071668,0.20767498,0
3.7901878,0.55377769,-4.0894828,-0.033394933,-0.37111402,-0.92798656,0
-5.0260849,-1.1947105,-0.55582905,-0.87329245,-0.44071668,0.20767498,0
-4.3278351,-2.649025,0.83595848,-0.87329245,-0.44071668,0.20767498,0
-5.1671972,0.39996529,2.460793,-0.87329245,-0.44071668,0.20767498,0
-4.3150425,-2.7493606,-0.77660942,-0.87329245,-0.44071668,0.20767498,0
0.11884499,-2.9725413,-2.6038754,-0.033394933,-0.37111402,-0.92798656,0
4.1428065,-0.52853429,3.7324662,0.48605025,-0.81733906,0.30937335,0
2.3133304,-2.0614924,1.9427142,0.48605025,-0.81733906,0.30937335,0
0.92204452,-3.1829591,1.1707468,0.48605025,-0.81733906,0.30937335,0
4.8803859,-1.5488822,-0.87734556,0.48605025,-0.81733906,0.30937335,0
2.622931,-2.4117093,1.1591792,0.48605025,-0.81733906,0.30937335,0
-2.8500915,-5.0033245,-1.6843207,-0.033394933,-0.37111402,-0.92798656,0
-3.840342,2.391983,0.74368286,-0.48605025,0.81733906,-0.30937335,0
2.8720951,1.6815889,2.8138027,0.033394933,0.37111402,0.92798656,0
2.0879774,0.94453526,-4.2187285,-0.033394933,-0.37111402,-0.92798656,0
-3.9060104,-4.2399282,-1.176358,-0.87329245,-0.44071668,0.20767498,0
-0.60379934,4.1081724,0.96413422,-0.48605025,0.81733906,-0.30937335,0
-2.923805,-3.8953936,4.0288839,-0.87329245,-0.44071668,0.20767498,0
2.3855019,-0.59289455,4.0834537,0.033394933,0.37111402,0.92798656,0
-5.9438267,0.18729055,-1.2176719,-0.87329245,-0.44071668,0.20767498,0
4.6635389,0.82380366,-3.1025071,0.87329245,0.44071668,-0.20767498,0
4.618784,1.7802018,-0.68627262,0.87329245,0.44071668,-0.20767498,0
0.17993712,-0.1198709,3.7089963,0.033394933,0.37111402,0.92798656,0
-1.8298044,-1.913296,-2.9202316,-0.033394933,-0.37111402,-0.92798656,0
-4.5836973,0.4396084,-3.2683592,-0.48605025,0.81733906,-0.30937335,0
2.500973,-2.8844497,-0.58493209,0.48605025,-0.81733906,0.30937335,0
-4.9009681,-1.1877671,0.017495155,-0.87329245,-0.44071668,0.20767498,0
3.2388954,3.4638698,-3.1579335,0.87329245,0.44071668,-0.20767498,0
3.1489308,2.9801378,-4.6916518,0.87329245,0.44071668,-0.20767498,0
3.0741966,-0.85243058,3.8666704,0.48605025,-0.81733906,0.30937335,0
-3.7629216,-3.5612946,0.40908384,-0.87329245,-0.44071668,0.20767498,0
-2.1433475,-1.6653775,-3.0056834,-0.033394933,-0.37111402,-0.92798656,0
1.215199,5.3424978,1.2977231,-0.48605025,0.81733906,-0.30937335,0
-2.3624098,0.13408422,-3.8619161,-0.033394933,-0.37111402,-0.92798656,0
3.5733573,4.8529739,1.0175285,0.87329245,0.44071668,-0.20767498,0
3.3636117,0.89999771,-4.4084549,-0.033394933,-0.37111402,-0.92798656,0
0.29637593,2.63276,2.7528381,0.033394933,0.37111402,0.92798656,0
-3.2993608,-0.33548498,4.1140156,0.033394933,0.37111402,0.92798656,0
-3.8335912,-2.185045,2.4874382,-0.87329245,-0.44071668,0.20767498,0
3.5800138,-1.6068844,0.81280971,0.48605025,-0.81733906,0.30937335,0
3.7390835,3.9760489,1.0061173,0.87329245,0.44071668,-0.20767498,0
2.6392853,0.56545603,3.5297766,0.033394933,0.37111402,0.92798656,0
-3.0386312,-3.491075,3.8449464,-0.87329245,-0.44071668,0.20767498,0
2.0673704,3.7707202,-3.9872155,-0.48605025,0.81733906,-0.30937335,0
1.6645291,1.5693126,3.0452986,0.033394933,0.37111402,0.92798656,0
4.5782185,-2.3407915,-2.9703979,-0.033394933,-0.37111402,-0.92798656,0
-3.1282973,-4.7305074,0.047575474,-0.87329245,-0.44071668,0.20767498,0
3.5940642,2.1334794,-4.3868504,0.87329245,0.44071668,-0.20767498,0
3.0169106,-2.5164943,0.34053683,0.48605025,-0.81733906,0.30937335,0
-0.2096175,0.6324017,3.3554776,0.033394933,0.37111402,0.92798656,0
4.6030703,0.54441786,3.603111,0.033394933,0.37111402,0.92798656,0
-5.5568438,0.36422706,0.66557217,-0.87329245,-0.44071668,0.20767498,0
4.8188038,1.8610406,-0.28906775,0.87329245,0.44071668,-0.20767498,0
-1.3481326,-4.781065,0.84526491,0.48605025,-0.81733906,0.30937335,0
-6.0328484,1.7134466,2.1800942,-0.48605025,0.81733906,-0.30937335,0
-0.64336348,-2.8570731,4.6642861,0.48605025,-0.81733906,0.30937335,0
-1.5000503,-5.3713369,-0.63731897,0.48605025,-0.81733906,0.30937335,0
-4.4992533,0.23841238,3.633934,0.033394933,0.37111402,0.92798656,0
-1.0537457,3.3108137,2.3953516,0.033394933,0.37111402,0.92798656,0
3.6163721,4.7854347,0.92794943,0.87329245,0.44071668,-0.20767498,0
-3.9479725,-2.1255417,2.5191903,-0.87329245,-0.44071668,0.20767498,0
1.55635,5.5658846,1.5216272,0.033394933,0.37111402,0.92798656,0
5.5742307,-1.7118793,-3.3678632,0.87329245,0.44071668,-0.20767498,0
5.8141727,0.49321869,2.0957708,0.87329245,0.44071668,-0.20767498,0
5.291111,-0.68089324,0.97812414,0.48605025,-0.81733906,0.30937335,0
2.6730318,6.049365,1.4506795,0.033394933,0.37111402,0.92798656,0
1.7750478,3.796098,-4.2314281,-0.48605025,0.81733906,-0.30937335,0
0.61851835,-0.92791986,-3.4151402,-0.033394933,-0.37111402,-0.92798656,0
4.6833901,-0.64679003,1.8278909,0.48605025,-0.81733906,0.30937335,0
-1.7483697,2.4560626,-2.5713904,-0.48605025,0.81733906,-0.30937335,0
5.2208118,1.5607316,0.8421073,0.87329245,0.44071668,-0.20767498,0
1.0754414,3.1577075,-4.3209133,-0.48605025,0.81733906,-0.30937335,0
1.9422692,0.68622446,-4.0853825,-0.033394933,-0.37111402,-0.92798656,0
4.0589209,1.3358831,-4.1939774,0.87329245,0.44071668,-0.20767498,0
4.1067553,-2.1999996,-0.65123034,0.48605025,-0.81733906,0.30937335,0
5.8526206,-0.32332766,0.94893599,0.48605025,-0.81733906,0.30937335,0
-0.74010187,-2.5333514,-2.6777973,-0.033394933,-0.37111402,-0.92798656,0
0.34785748,3.4794388,-2.4917212,-0.48605025,0.81733906,-0.30937335,0
3.565167,4.3981919,0.80708361,0.87329245,0.44071668,-0.20767498,0
-1.3520055,2.9969645,-1.9108707,-0.48605025,0.81733906,-0.30937335,0
-5.0139246,-1.3833675,0.092676163,-0.87329245,-0.44071668,0.20767498,0
1.6181071,5.2712708,0.2278372,-0.48605025,0.81733906,-0.30937335,0
1.3674371,4.6406412,-0.84827924,-0.48605025,0.81733906,-0.30937335,0
-3.0433934,1.1737089,3.3779941,0.033394933,0.37111402,0.92798656,0
-2.6865535,0.86169958,3.5855844,0.033394933,0.37111402,0.92798656,0
1.0237536,-2.0962946,-3.1809111,-0.033394933,-0.37111402,-0.92798656,0
0.93561745,2.9657853,-5.0460415,-0.033394933,-0.37111402,-0.92798656,0
2.4596858,-1.8597453,3.1694567,0.48605025,-0.81733906,0.30937335,0
0.013010979,-3.3880644,2.0865057,0.48605025,-0.81733906,0.30937335,0
-1.859911,-1.1702145,-3.1237972,-0.033394933,-0.37111402,-0.92798656,0
3.7953153,2.6879959,-2.1419587,0.87329245,0.44071668,-0.20767498,0
-2.9079399,3.1458073,1.0306277,-0.48605025,0.81733906,-0.30937335,0
0.48922282,2.4361496,2.8408861,0.033394933,0.37111402,0.92798656,0
-3.1949897,-4.8813705,0.6501801,-0.87329245,-0.44071668,0.20767498,0
4.4163332,2.2737892,2.5268726,0.033394933,0.37111402,0.92798656,0
-2.1718214,-0.71823776,-3.2552252,-0.033394933,-0.37111402,-0.92798656,0
-5.9777298,-0.45689178,-2.2162127,-0.87329245,-0.44071668,0.20767498,0
-0.54964209,-3.4860334,2.6464162,0.48605025,-0.81733906,0.30937335,0
-2.7512946,-6.0590105,-1.336329,-0.033394933,-0.37111402,-0.92798656,0
-1.9764998,-1.1258316,4.3565273,0.033394933,0.37111402,0.92798656,0
2.4440026,4.0050955,-5.1981721,-0.48605025,0.81733906,-0.30937335,0
1.6800358,4.455503,1.8265644,0.033394933,0.37111402,0.92798656,0
-1.0355933,-2.4587922,-2.8919954,-0.033394933,-0.37111402,-0.92798656,0
1.5015755,-2.9136796,1.6973369,0.48605025,-0.81733906,0.30937335,0
5.0064311,-0.13220072,-3.6723318,0.87329245,0.44071668,-0.20767498,0
-5.6560998,0.62993932,1.7143331,-0.87329245,-0.44071668,0.20767498,0
-3.3080134,-4.5798006,0.36503124,-0.87329245,-0.44071668,0.20767498,0
3.4304683,4.4609442,2.0767634,0.033394933,0.37111402,0.92798656,0
0.14657068,2.68326,-3.8378823,-0.48605025,0.81733906,-0.30937335,0
-0.59711051,-0.38283014,3.945931,0.033394933,0.37111402,0.92798656,0
-1.5299917,3.9236746,2.234962,0.033394933,0.37111402,0.92798656,0
-0.47285461,0.61789083,-3.8516536,-0.033394933,-0.37111402,-0.92798656,0
-4.5186148,-0.23197031,3.7358518,-0.87329245,-0.44071668,0.20767498,0
-1.9732437,-5.2291079,0.80279255,0.48605025,-0.81733906,0.30937335,0
-0.2433486,2.8350871,-3.7187033,-0.48605025,0.81733906,-0.30937335,0
-4.3463259,-3.0871463,-0.98601675,-0.87329245,-0.44071668,0.20767498,0
-3.0162649,1.9760487,-1.7024782,-0.48605025,0.81733906,-0.30937335,0
4.7096682,-0.3325884,2.4521856,0.48605025,-0.81733906,0.30937335,0
2.2751679,5.7173977,1.3027486,0.033394933,0.37111402,0.92798656,0
-1.2972249,-1.0849656,-3.3548884,-0.033394933,-0.37111402,-0.92798656,0
3.8820627,4.0340781,0.75880861,0.87329245,0.44071668,-0.20767498,0
1.7604918,5.0209575,-0.70596933,-0.48605025,0.81733906,-0.30937335,0
-3.7025018,-3.4447548,-2.3000572,-0.033394933,-0.37111402,-0.92798656,0
5.1256151,0.39549398,-1.8395114,0.87329245,0.44071668,-0.20767498,0
-2.8343191,0.96724486,3.5721109,0.033394933,0.37111402,0.92798656,0
-5.953311,-0.15001076,-1.7248392,-0.87329245,-0.44071668,0.20767498,0
-2.2843306,2.3443809,-1.3196884,-0.48605025,0.81733906,-0.30937335,0
-1.2281532,0.52691936,3.7976155,0.033394933,0.37111402,0.92798656,0
5.8235683,-1.8578143,-3.1657953,0.87329245,0.44071668,-0.20767498,0
-3.5887611,-2.1271815,4.1843624,-0.87329245,-0.44071668,0.20767498,0
-0.87156725,2.4753332,-4.006485,-0.48605025,0.81733906,-0.30937335,0
-0.99264365,-2.0870357,-2.7691593,-0.033394933,-0.37111402,-0.92798656,0
-3.8313217,-2.4892838,2.4079204,-0.87329245,-0.44071668,0.20767498,0
-0.16917372,2.3796315,-4.2238021,-0.48605025,0.81733906,-0.30937335,0
-3.7282798,-4.2304678,-1.940017,-0.033394933,-0.37111402,-0.92798656,0
5.0850368,-0.1079607,-2.4329743,0.87329245,0.44071668,-0.20767498,0
0.18903494,4.9326739,0.83586758,-0.48605025,0.81733906,-0.30937335,0
5.1686954,-2.2164264,-3.1467528,0.48605025,-0.81733906,0.30937335,0
-3.9668045,-4.409339,-1.8884358,-0.033394933,-0.37111402,-0.92798656,0
3.1073895,4.9653187,-0.082756042,0.87329245,0.44071668,-0.20767498,0
1.6279471,-0.35698771,3.9751248,0.033394933,0.37111402,0.92798656,0
1.7375603,-1.7078168,-3.2403829,-0.033394933,-0.37111402,-0.92798656,0
1.4629937,-0.68125033,-3.6183279,-0.033394933,-0.37111402,-0.92798656,0
-2.7627606,0.024237394,-3.8764203,-0.033394933,-0.37111402,-0.92798656,0
2.9436836,5.2512779,-1.1461291,0.87329245,0.44071668,-0.20767498,0
2.7601094,6.1343594,0.421772,-0.48605025,0.81733906,-0.30937335,0
-4.1543036,-1.9943181,-2.6731365,-0.033394933,-0.37111402,-0.92798656,0
1.5154819,4.5459714,-1.4081577,-0.48605025,0.81733906,-0.30937335,0
-2.0402904,-4.0740747,3.6477656,0.48605025,-0.81733906,0.30937335,0
4.9510808,0.22508478,-3.6598849,0.87329245,0.44071668,-0.20767498,0
4.3044033,1.0334442,3.3171589,0.033394933,0.37111402,0.92798656,0
-0.29255104,2.5992575,-4.1866693,-0.48605025,0.81733906,-0.30937335,0
3.3814602,2.4481964,-4.2983818,0.87329245,0.44071668,-0.20767498,0
-5.4078264,0.32086003,-1.6201682,-0.48605025,0.81733906,-0.30937335,0
3.2292233,0.55930758,3.2925568,0.033394933,0.37111402,0.92798656,0
6.0832472,0.43090197,3.2011847,0.48605025,-0.81733906,0.30937335,0
3.9076612,1.8795825,3.0692451,0.033394933,0.37111402,0.92798656,0
-0.2807641,4.8980403,2.0069299,0.033394933,0.37111402,0.92798656,0
5.893054,0.99753493,2.3516665,0.87329245,0.44071668,-0.20767498,0
2.144984,4.9940958,-1.000344,-0.48605025,0.81733906,-0.30937335,0
-3.4549868,-0.36537838,4.1510906,0.033394933,0.37111402,0.92798656,0
5.6634593,-1.5755434,-2.7362752,0.87329245,0.44071668,-0.20767498,0
-3.6069748,-0.80369949,4.0501127,0.033394933,0.37111402,0.92798656,0
-2.2137814,-3.4205346,5.4326515,0.033394933,0.37111402,0.92798656,0
-4.037219,-4.1668339,-1.9541554,-0.033394933,-0.37111402,-0.92798656,0
-0.81249285,3.1684778,-1.6726454,-0.48605025,0.81733906,-0.30937335,0
0.94485378,-1.9504864,4.5189104,0.033394933,0.37111402,0.92798656,0
1.9346089,2.963608,-4.8168139,-0.033394933,-0.37111402,-0.92798656,0
3.4059119,2.0027852,-4.5813212,0.87329245,0.44071668,-0.20767498,0
-4.8912754,-1.1765732,0.19034719,-0.87329245,-0.44071668,0.20767498,0
-0.54190707,0.29528356,3.8447847,0.033394933,0.37111402,0.92798656,0
2.910933,-1.8131723,-3.0807738,-0.033394933,-0.37111402,-0.92798656,0
-1.9394977,-4.6878595,-1.7484109,-0.033394933,-0.37111402,-0.92798656,0
5.3371892,1.4265945,2.0344648,0.87329245,0.44071668,-0.20767498,0
1.4389756,4.725687,-0.74982893,-0.48605025,0.81733906,-0.30937335,0
-1.0262561,-3.9276004,2.4973862,0.48605025,-0.81733906,0.30937335,0
-3.4786081,-3.8018267,0.43632126,-0.87329245,-0.44071668,0.20767498,0
-4.5725822,-2.7171807,-1.5390148,-0.87329245,-0.44071668,0.20767498,0
-5.9625988,-0.21479078,-2.4717188,-0.48605025,0.81733906,-0.30937335,0
1.1369858,-2.4996524,2.9577134,0.48605025,-0.81733906,0.30937335,0
2.5459294,-0.14138865,3.8137541,0.033394933,0.37111402,0.92798656,0
-4.097147,0.33311868,-3.5492749,-0.033394933,-0.37111402,-0.92798656,0
5.3993888,0.80796623,-0.3208065,0.87329245,0.44071668,-0.20767498,0
-3.5961394,-1.8121181,4.402297,-0.87329245,-0.44071668,0.20767498,0
4.7649579,1.9751408,-0.0013504028,0.87329245,0.44071668,-0.20767498,0
0.075323582,3.0512717,-3.5593688,-0.48605025,0.81733906,-0.30937335,0
-0.3989675,-0.78348923,3.950844,0.033394933,0.37111402,0.92798656,0
2.4329116,-3.7703061,-2.1124389,0.48605025,-0.81733906,0.30937335,0
-0.45084715,1.7619832,-4.3188605,-0.033394933,-0.37111402,-0.92798656,0
-4.0428772,-1.5199697,3.3731937,-0.87329245,-0.44071668,0.20767498,0
2.0140805,4.8498187,-2.0423751,-0.48605025,0.81733906,-0.30937335,0
3.8769372,4.4131327,0.64055538,0.87329245,0.44071668,-0.20767498,0
-3.1277604,-5.1354885,-1.6420722,-0.033394933,-0.37111402,-0.92798656,0
-1.6488924,-4.6261458,1.7839123,0.48605025,-0.81733906,0.30937335,0
-3.936517,-2.9366276,0.57846117,-0.87329245,-0.44071668,0.20767498,0
2.8191531,4.540638,-2.6751993,0.87329245,0.44071668,-0.20767498,0
-0.24812269,-2.6218987,4.3924866,0.48605025,-0.81733906,0.30937335,0
4.7913895,2.7345226,2.1652431,0.87329245,0.44071668,-0.20767498,0
-4.7546272,-0.75494266,2.792902,-0.87329245,-0.44071668,0.20767498,0
0.82356036,4.641839,1.9272736,0.033394933,0.37111402,0.92798656,0
2.3048577,-1.0134945,4.0512066,0.033394933,0.37111402,0.92798656,0
-1.5101802,-3.120239,-2.6177733,-0.033394933,-0.37111402,-0.92798656,0
-5.7254248,-0.5918864,-2.1934462,-0.87329245,-0.44071668,0.20767498,0
3.0019581,-1.5688124,2.698215,0.48605025,-0.81733906,0.30937335,0
-0.31492436,3.6380515,2.2167428,0.033394933,0.37111402,0.92798656,0
-0.63065529,-4.0612135,1.4746876,0.48605025,-0.81733906,0.30937335,0
4.6933527,-0.25616789,-3.7189975,-0.033394933,-0.37111402,-0.92798656,0
-4.8300624,2.0577407,2.9488487,0.033394933,0.37111402,0.92798656,0
-4.6189456,-1.2737103,1.9554152,-0.87329245,-0.44071668,0.20767498,0
-3.0359018,2.5309265,-0.48808193,-0.48605025,0.81733906,-0.30937335,0
-5.144455,-0.83437252,-3.2588229,-0.033394933,-0.37111402,-0.92798656,0
0.78034043,-1.8140953,-3.0404243,-0.033394933,-0.37111402,-0.92798656,0
-1.9053214,-2.1012805,-2.8175871,-0.033394933,-0.37111402,-0.92798656,0
2.552345,5.5415392,-1.0700004,-0.48605025,0.81733906,-0.30937335,0
0.71057463,-2.6250348,3.0685287,0.48605025,-0.81733906,0.30937335,0
-4.0352368,2.6540253,2.2497697,-0.48605025,0.81733906,-0.30937335,0
4.7861848,0.39046526,-3.4473433,0.87329245,0.44071668,-0.20767498,0
-0.89066553,-3.7507639,2.4628141,0.48605025,-0.81733906,0.30937335,0
1.5227602,-4.2319765,-1.7928759,0.48605025,-0.81733906,0.30937335,0
2.2007599,-0.46505189,3.9956582,0.033394933,0.37111402,0.92798656,0
-0.2955718,-2.3600998,4.6624594,0.033394933,0.37111402,0.92798656,0
6.080883,0.40640128,2.5916781,0.48605025,-0.81733906,0.30937335,0
-2.3471875,-4.9013448,1.9870825,0.48605025,-0.81733906,0.30937335,0
3.8345146,0.34149742,-4.0152216,-0.033394933,-0.37111402,-0.92798656,0
-4.4122343,-0.82555437,3.4927559,-0.87329245,-0.44071668,0.20767498,0
3.6598344,3.5067003,-0.30550909,0.87329245,0.44071668,-0.20767498,0
-2.876667,-2.9930072,4.7064514,-0.87329245,-0.44071668,0.20767498,0
-3.2943053,-3.8208632,1.6277475,-0.87329245,-0.44071668,0.20767498,0
-1.0900126,-5.1402292,-0.85507756,0.48605025,-0.81733906,0.30937335,0
-1.6428505,0.85058212,3.6256952,0.033394933,0.37111402,0.92798656,0
-3.984308,-1.6023068,3.9562304,-0.87329245,-0.44071668,0.20767498,0
3.5431035,3.8818181,-0.85574436,0.87329245,0.44071668,-0.20767498,0
2.89958,-3.500195,-1.9279225,0.48605025,-0.81733906,0.30937335,0
1.5384054,-2.3466346,3.3375955,0.48605025,-0.81733906,0.30937335,0
-2.5246978,-3.8366122,4.8431587,-0.87329245,-0.44071668,0.20767498,0
-2.5407486,-1.0152955,4.0737777,0.033394933,0.37111402,0.92798656,0
-5.2191963,-1.9243128,-1.7001662,-0.87329245,-0.44071668,0.20767498,0
-1.5333823,3.5347004,2.6150751,0.033394933,0.37111402,0.92798656,0
-2.4188323,2.1363723,3.1297512,0.033394933,0.37111402,0.92798656,0
3.2825279,3.3812461,2.3624349,0.033394933,0.37111402,0.92798656,0
3.1755641,-3.311682,-2.5116909,0.48605025,-0.81733906,0.30937335,0
-2.9122145,-4.6266217,1.5104191,-0.87329245,-0.44071668,0.20767498,0
-0.34301329,3.5737886,-1.9529804,-0.48605025,0.81733906,-0.30937335,0
-5.629014,-0.60200202,-0.31161976,-0.87329245,-0.44071668,0.20767498,0
2.9647021,5.2856579,-0.20698047,0.87329245,0.44071668,-0.20767498,0
-2.4218402,1.2655277,-4.137548,-0.48605025,0.81733906,-0.30937335,0
3.0189157,3.2661016,2.4427953,0.033394933,0.37111402,0.92798656,0
5.5769782,1.1735567,1.4434962,0.87329245,0.44071668,-0.20767498,0
-4.7222795,-1.3342761,0.95886374,-0.87329245,-0.44071668,0.20767498,0
-2.779912,-4.6443334,3.0509498,-0.87329245,-0.44071668,0.20767498,0
-1.7172954,-0.43003702,4.1524196,0.033394933,0.37111402,0.92798656,0
0.20409369,-4.7214527,-1.4988945,0.48605025,-0.81733906,0.30937335,0
-0.7678225,-4.706089,-2.0154147,-0.033394933,-0.37111402,-0.92798656,0
-5.680934,-1.0561268,-2.1085081,-0.87329245,-0.44071668,0.20767498,0
-1.2595801,2.4207592,-2.7145495,-0.48605025,0.81733906,-0.30937335,0
-1.2558477,3.2960777,2.6053231,0.033394933,0.37111402,0.92798656,0
-0.90785539,0.2883997,3.8673012,0.033394933,0.37111402,0.92798656,0
-4.8607922,1.9699221,1.8158064,-0.48605025,0.81733906,-0.30937335,0
-5.1692371,2.4308751,2.7793412,-0.48605025,0.81733906,-0.30937335,0
-4.7481585,-1.8349193,-0.14980268,-0.87329245,-0.44071668,0.20767498,0
1.8673134,-2.8355188,0.81143439,0.48605025,-0.81733906,0.30937335,0
0.52622497,4.1257524,2.236495,0.033394933,0.37111402,0.92798656,0
-5.3132982,-0.60980952,-0.40289402,-0.87329245,-0.44071668,0.20767498,0
2.1640801,2.4990695,-4.7705364,-0.033394933,-0.37111402,-0.92798656,0
5.8231621,-0.78494048,-0.90401697,0.87329245,0.44071668,-0.20767498,0
5.739706,0.47448495,1.9036016,0.87329245,0.44071668,-0.20767498,0
2.1240742,4.8530149,-1.7191255,-0.48605025,0.81733906,-0.30937335,0
2.0393124,-0.76912832,4.023541,0.033394933,0.37111402,0.92798656,0
-1.9716585,1.9738582,-2.6670594,-0.48605025,0.81733906,-0.30937335,0
-4.3106556,0.25685871,-3.7776406,-0.48605025,0.81733906,-0.30937335,0
0.051288366,-4.4561429,-0.60432494,0.48605025,-0.81733906,0.30937335,0
-4.0375137,-3.0197039,1.1824784,-0.87329245,-0.44071668,0.20767498,0
-2.9684496,3.0520439,0.98521733,-0.48605025,0.81733906,-0.30937335,0
3.8752608,1.8287709,-3.4140317,0.87329245,0.44071668,-0.20767498,0
-3.7349925,2.6115682,1.6416359,-0.48605025,0.81733906,-0.30937335,0
-0.39879894,2.5477595,-4.4552269,-0.48605025,0.81733906,-0.30937335,0
2.5601192,-2.2185981,-2.8716476,-0.033394933,-0.37111402,-0.92798656,0
-3.9014444,0.76658821,-3.6350985,-0.48605025,0.81733906,-0.30937335,0
-5.6130805,0.61268544,-1.385983,-0.48605025,0.81733906,-0.30937335,0
3.7362955,-2.0106208,0.26404667,0.48605025,-0.81733906,0.30937335,0
-2.3658385,-5.2421312,1.0824504,0.48605025,-0.81733906,0.30937335,0
4.3921099,0.33524799,3.4206755,0.033394933,0.37111402,0.92798656,0
-0.66824102,1.3039401,-4.1563854,-0.033394933,-0.37111402,-0.92798656,0
-4.5586567,-1.4077859,2.7437601,-0.87329245,-0.44071668,0.20767498,0
-0.084825993,1.5843439,3.3328922,0.033394933,0.37111402,0.92798656,0
-0.11628914,4.4843125,0.76877975,-0.48605025,0.81733906,-0.30937335,0
2.3943615,4.6816092,-3.2320628,-0.48605025,0.81733906,-0.30937335,0
-3.9186397,-0.19947577,-3.6563625,-0.033394933,-0.37111402,-0.92798656,0
1.9403443,-3.8757334,-1.6827391,0.48605025,-0.81733906,0.30937335,0
-2.0403032,3.0851326,-0.40668249,-0.48605025,0.81733906,-0.30937335,0
-2.1385336,-2.3016045,-2.5857584,-0.033394933,-0.37111402,-0.92798656,0
-2.5171628,-3.4988027,5.3491468,-0.87329245,-0.44071668,0.20767498,0
-4.0652795,-2.1300752,3.3028798,-0.87329245,-0.44071668,0.20767498,0
-1.7354875,-3.3520648,4.7864532,0.48605025,-0.81733906,0.30937335,0
1.0911691,-0.20342469,-3.7590106,-0.033394933,-0.37111402,-0.92798656,0
-3.2875223,-2.2691996,-2.8079538,-0.033394933,-0.37111402,-0.92798656,0
-1.8803489,-5.4460182,-1.4211354,-0.033394933,-0.37111402,-0.92798656,0
-5.1383977,-0.74645948,0.05615139,-0.87329245,-0.44071668,0.20767498,0
4.8254824,2.2704024,1.7435994,0.87329245,0.44071668,-0.20767498,0
0.36890125,1.6541696,-4.6212673,-0.033394933,-0.37111402,-0.92798656,0
-5.2675629,-0.36699295,1.9771981,-0.87329245,-0.44071668,0.20767498,0
-3.0165431,-5.2884884,-0.53941607,-0.87329245,-0.44071668,0.20767498,0
2.8891027,-0.35314584,3.7204914,0.033394933,0.37111402,0.92798656,0
-3.934406,-0.07209301,4.1470823,0.033394933,0.37111402,0.92798656,0
-3.0382752,-3.4872136,-2.2703812,-0.033394933,-0.37111402,-0.92798656,0
4.725378,1.9481462,2.7240474,0.033394933,0.37111402,0.92798656,0
4.756566,1.8832932,0.2709837,0.87329245,0.44071668,-0.20767498,0
-2.1276293,3.2814631,2.6332588,0.033394933,0.37111402,0.92798656,0
-0.50814772,-4.0508966,0.99360389,0.48605025,-0.81733906,0.30937335,0
-5.381331,-0.36738348,1.3551221,-0.87329245,-0.44071668,0.20767498,0
-5.4617672,-0.46594167,-0.27327442,-0.87329245,-0.44071668,0.20767498,0
-1.8880367,-4.6116009,2.0307152,0.48605025,-0.81733906,0.30937335,0
2.9802315,-2.5112925,0.29900908,0.48605025,-0.81733906,0.30937335,0
-3.0755873,-3.2387877,3.5705125,-0.87329245,-0.44071668,0.20767498,0
2.8387022,-3.1257365,-2.7169363,-0.033394933,-0.37111402,-0.92798656,0
-4.9664927,-0.25183058,1.8954372,-0.87329245,-0.44071668,0.20767498,0
-2.1279902,3.8672943,2.3224902,0.033394933,0.37111402,0.92798656,0
3.859906,2.7445717,2.6143615,0.033394933,0.37111402,0.92798656,0
0.21074849,2.2451282,3.0236602,0.033394933,0.37111402,0.92798656,0
-0.31584311,3.1507676,-2.5382624,-0.48605025,0.81733906,-0.30937335,0
-4.8832855,-0.70842528,1.5563173,-0.87329245,-0.44071668,0.20767498,0
1.2106889,4.0014896,2.028913,0.033394933,0.37111402,0.92798656,0
4.456986,2.5786643,0.33410645,0.87329245,0.44071668,-0.20767498,0
-3.7979689,-0.59714031,4.1532435,0.033394933,0.37111402,0.92798656,0
-3.9184704,-3.5283918,-0.24520874,-0.87329245,-0.44071668,0.20767498,0
-0.51234657,-2.4792852,-2.749825,-0.033394933,-0.37111402,-0.92798656,0
0.73868918,2.0406628,2.750628,0.033394933,0.37111402,0.92798656,0
-0.21368885,-4.647141,-1.705852,-0.033394933,-0.37111402,-0.92798656,0
-2.7253919,-4.7861099,-1.9671685,-0.033394933,-0.37111402,-0.92798656,0
-5.9741435,0.49437821,-0.86416483,-0.48605025,0.81733906,-0.30937335,0
-0.044956207,-3.9293637,0.66111761,0.48605025,-0.81733906,0.30937335,0
-2.446245,1.8230575,-2.184201,-0.48605025,0.81733906,-0.30937335,0
-5.2884808,-0.35580564,1.0216408,-0.87329245,-0.44071668,0.20767498,0
4.7467871,2.579999,0.85027122,0.87329245,0.44071668,-0.20767498,0
-2.586035,-0.80510545,4.0105133,0.033394933,0.37111402,0.92798656,0
3.8988416,3.0358655,2.3001289,0.033394933,0.37111402,0.92798656,0
-3.8838811,-1.2327965,-2.9581666,-0.033394933,-0.37111402,-0.92798656,0
0.52224445,-2.6430621,4.0044675,0.48605025,-0.81733906,0.30937335,0
3.0814617,-3.253387,-1.9879508,0.48605025,-0.81733906,0.30937335,0
-5.1523075,-2.6627436,-2.4891071,-0.87329245,-0.44071668,0.20767498,0
-0.10528946,3.3299839,2.4803443,0.033394933,0.37111402,0.92798656,0
-1.0907516,2.5840452,-3.177484,-0.48605025,0.81733906,-0.30937335,0
3.2503965,3.9902539,-2.1754656,0.87329245,0.44071668,-0.20767498,0
1.8591731,2.9782045,2.7227681,0.033394933,0.37111402,0.92798656,0
1.2380595,-0.87382865,4.0583639,0.033394933,0.37111402,0.92798656,0
4.7044058,1.2458997,-0.84711409,0.87329245,0.44071668,-0.20767498,0
3.4915164,3.1714299,-2.8194046,0.87329245,0.44071668,-0.20767498,0
-5.9297094,0.050383329,-0.45252132,-0.87329245,-0.44071668,0.20767498,0
5.6543159,-0.41491628,1.1799517,0.48605025,-0.81733906,0.30937335,0
-4.2874641,-2.5241036,-2.4474275,-0.033394933,-0.37111402,-0.92798656,0
3.9802945,-1.1643462,-3.5637248,-0.033394933,-0.37111402,-0.92798656,0
3.462326,-3.1886792,-2.6816013,-0.033394933,-0.37111402,-0.92798656,0
-3.3145688,-4.3909221,-0.014604568,-0.87329245,-0.44071668,0.20767498,0
-0.72584391,3.1149189,-2.3102803,-0.48605025,0.81733906,-0.30937335,0
1.7241237,-2.9320903,0.51252651,0.48605025,-0.81733906,0.30937335,0
-0.049310684,4.6392946,1.4848628,-0.48605025,0.81733906,-0.30937335,0
3.8158865,-0.54672813,-3.5483539,-0.033394933,-0.37111402,-0.92798656,0
-1.4263743,3.6610155,2.3309379,0.033394933,0.37111402,0.92798656,0
-3.2591848,1.6575042,-2.3554382,-0.48605025,0.81733906,-0.30937335,0
3.3989115,4.3663096,0.23313046,0.87329245,0.44071668,-0.20767498,0
-2.0142512,-3.8967621,4.3088121,0.48605025,-0.81733906,0.30937335,0
-2.9253545,-4.7598829,2.039346,-0.87329245,-0.44071668,0.20767498,0
-0.5960927,-2.3389685,4.6933622,0.033394933,0.37111402,0.92798656,0
3.0053022,1.9059939,-4.5765829,-0.033394933,-0.37111402,-0.92798656,0
2.7274089,2.5792501,2.7967632,0.033394933,0.37111402,0.92798656,0
3.7847762,1.8249016,-3.5879078,0.87329245,0.44071668,-0.20767498,0
-0.93140626,-4.8249993,0.45569313,0.48605025,-0.81733906,0.30937335,0
-1.2146502,-3.1506591,4.6124811,0.48605025,-0.81733906,0.30937335,0
-2.2519403,-0.96114802,-3.1339564,-0.033394933,-0.37111402,-0.92798656,0
-0.10093427,0.75735307,3.5955579,0.033394933,0.37111402,0.92798656,0
2.0572157,4.1977277,-3.7029657,-0.48605025,0.81733906,-0.30937335,0
4.6952887,1.0458562,-2.536386,0.87329245,0.44071668,-0.20767498,0
-0.54648685,2.3786366,-3.9310479,-0.48605025,0.81733906,-0.30937335,0
-1.9630015,-2.0896118,4.7030487,0.033394933,0.37111402,0.92798656,0
-1.3979645,3.8305666,2.1302047,0.033394933,0.37111402,0.92798656,0
-0.58290339,-0.26169825,-3.7126203,-0.033394933,-0.37111402,-0.92798656,0
5.5463791,0.63260216,0.9589386,0.87329245,0.44071668,-0.20767498,0
4.6964569,1.1305604,-1.3472624,0.87329245,0.44071668,-0.20767498,0
-4.3907061,-2.063838,0.34959841,-0.87329245,-0.44071668,0.20767498,0
1.7530608,2.8876855,-4.9701309,-0.033394933,-0.37111402,-0.92798656,0
4.3478093,2.4016385,0.2074666,0.87329245,0.44071668,-0.20767498,0
-1.1783037,-2.294637,4.578187,0.033394933,0.37111402,0.92798656,0
0.99220586,4.9684601,0.81263304,-0.48605025,0.81733906,-0.30937335,0
-2.2121475,-5.7480197,-0.61309481,0.48605025,-0.81733906,0.30937335,0
3.336926,0.70627224,3.4851017,0.033394933,0.37111402,0.92798656,0
1.9795707,3.1033494,2.2584605,0.033394933,0.37111402,0.92798656,0
-3.2147684,-1.4637926,-3.2583003,-0.033394933,-0.37111402,-0.92798656,0
-3.7589133,2.5390539,1.0585513,-0.48605025,0.81733906,-0.30937335,0
3.1096606,-0.44387102,3.9412098,0.033394933,0.37111402,0.92798656,0
4.8441925,2.8791208,2.6161098,0.033394933,0.37111402,0.92798656,0
-0.74843323,0.71453667,3.5986772,0.033394933,0.37111402,0.92798656,0
-4.9123597,2.2916126,2.8217702,-0.48605025,0.81733906,-0.30937335,0
2.0243082,4.4569659,-3.1724558,-0.48605025,0.81733906,-0.30937335,0
3.9554398,0.81605542,3.2679808,0.033394933,0.37111402,0.92798656,0
3.7189584,0.46256161,-4.191855,-0.033394933,-0.37111402,-0.92798656,0
-3.9074438,-3.3509827,-0.36827564,-0.87329245,-0.44071668,0.20767498,0
5.2984614,1.8768036,2.3848715,0.87329245,0.44071668,-0.20767498,0
3.8866901,0.0057566166,3.8042541,0.033394933,0.37111402,0.92798656,0
5.2194557,2.1375482,2.5834174,0.87329245,0.44071668,-0.20767498,0
5.4301224,1.3331598,2.2871637,0.87329245,0.44071668,-0.20767498,0
4.201715,2.7020073,-1.1723714,0.87329245,0.44071668,-0.20767498,0
-2.5769024,-3.903084,4.8460507,0.48605025,-0.81733906,0.30937335,0
1.7332523,-3.5130014,-1.0844892,0.48605025,-0.81733906,0.30937335,0
3.3583961,-2.7952781,-1.4546146,0.48605025,-0.81733906,0.30937335,0
-0.99621391,-4.9795117,-0.74714237,0.48605025,-0.81733906,0.30937335,0
3.2222924,0.98900032,3.0460281,0.033394933,0.37111402,0.92798656,0
-0.5403657,-3.5668983,3.0374115,0.48605025,-0.81733906,0.30937335,0
3.1344676,-0.31074142,-3.8741524,-0.033394933,-0.37111402,-0.92798656,0
1.7086272,4.486659,1.8771384,0.033394933,0.37111402,0.92798656,0
4.4747581,1.0970986,-2.138742,0.87329245,0.44071668,-0.20767498,0
-0.74860859,-3.2580318,-2.3246093,-0.033394933,-0.37111402,-0.92798656,0
-2.0523143,-3.4025221,5.1225729,0.033394933,0.37111402,0.92798656,0
1.2795248,3.2824664,-4.8962126,-0.48605025,0.81733906,-0.30937335,0
2.2907343,5.8504534,1.3023891,0.033394933,0.37111402,0.92798656,0
0.91070533,4.3500905,2.0097809,0.033394933,0.37111402,0.92798656,0
-4.1940851,-3.5693035,-0.27096701,-0.87329245,-0.44071668,0.20767498,0
-2.119292,-5.9202681,-1.4567893,-0.033394933,-0.37111402,-0.92798656,0
5.8907108,-0.32485437,-0.45234251,0.87329245,0.44071668,-0.20767498,0
-3.0651865,-4.0627618,3.3063426,-0.87329245,-0.44071668,0.20767498,0
2.2530165,5.1583638,-1.8170979,-0.48605025,0.81733906,-0.30937335,0
2.0756707,5.7077856,0.82599235,-0.48605025,0.81733906,-0.30937335,0
4.5134463,3.2389061,2.3861511,0.87329245,0.44071668,-0.20767498,0
-3.6630998,2.7939367,2.1809444,-0.48605025,0.81733906,-0.30937335,0
-4.3906727,0.20383596,3.8523026,0.033394933,0.37111402,0.92798656,0
4.4584255,-0.78971136,1.8825498,0.48605025,-0.81733906,0.30937335,0
2.5420239,5.2787414,-0.90435147,-0.48605025,0.81733906,-0.30937335,0
1.6159296,-3.7961411,-0.72791088,0.48605025,-0.81733906,0.30937335,0
-1.0626051,-2.6280262,-2.6367342,-0.033394933,-0.37111402,-0.92798656,0
3.6516047,-1.7232631,0.95575142,0.48605025,-0.81733906,0.30937335,0
2.250493,3.8583851,-4.8621054,-0.48605025,0.81733906,-0.30937335,0
-3.0871758,-5.2752466,0.49802279,-0.87329245,-0.44071668,0.20767498,0
0.020813942,-0.21070123,3.8181624,0.033394933,0.37111402,0.92798656,0
3.9430373,2.8493547,-2.3699908,0.87329245,0.44071668,-0.20767498,0
3.7186313,3.6141241,-1.3424478,0.87329245,0.44071668,-0.20767498,0
4.7470136,0.36941373,3.5572166,0.033394933,0.37111402,0.92798656,0
2.1429369,-0.41169715,-3.8386939,-0.033394933,-0.37111402,-0.92798656,0
-3.3604143,-0.27231455,-3.7252142,-0.033394933,-0.37111402,-0.92798656,0
-5.2735553,-0.96483922,-0.29140568,-0.87329245,-0.44071668,0.20767498,0
3.0183663,3.8728213,-3.2295592,0.87329245,0.44071668,-0.20767498,0
0.035491109,3.5946112,2.4983809,0.033394933,0.37111402,0.92798656,0
1.1136937,4.479455,-1.222229,-0.48605025,0.81733906,-0.30937335,0
-4.9842319,0.0061590672,2.3970203,-0.87329245,-0.44071668,0.20767498,0
3.1308339,4.6145778,-0.91538787,0.87329245,0.44071668,-0.20767498,0
-5.2193561,-1.8476398,-0.86920929,-0.87329245,-0.44071668,0.20767498,0
4.8974566,2.5332627,1.4425793,0.87329245,0.44071668,-0.20767498,0
-3.4733143,-3.9450309,0.38474226,-0.87329245,-0.44071668,0.20767498,0
5.612299,0.77192616,0.40477562,0.87329245,0.44071668,-0.20767498,0
3.1063969,0.79683733,3.1297574,0.033394933,0.37111402,0.92798656,0
-2.1190894,-0.84216928,4.3743801,0.033394933,0.37111402,0.92798656,0
-3.0338502,-4.0333314,3.3814938,-0.87329245,-0.44071668,0.20767498,0
0.91066408,-2.003835,4.2516818,0.48605025,-0.81733906,0.30937335,0
-3.2322791,2.4770482,0.65698862,-0.48605025,0.81733906,-0.30937335,0
-1.9710865,0.95146012,-4.2618303,-0.033394933,-0.37111402,-0.92798656,0
-4.7046022,-0.53828812,2.6783605,-0.87329245,-0.44071668,0.20767498,0
-3.7466989,-2.2361221,3.2781086,-0.87329245,-0.44071668,0.20767498,0
-4.3435411,-2.0324273,1.5942731,-0.87329245,-0.44071668,0.20767498,0
-4.2473269,2.11432,2.9211316,0.033394933,0.37111402,0.92798656,0
0.5264585,-0.41834021,3.7575784,0.033394933,0.37111402,0.92798656,0
-2.7440376,-0.13624859,3.7426205,0.033394933,0.37111402,0.92798656,0
-6.1848154,-0.94914311,-3.1106319,-0.87329245,-0.44071668,0.20767498,0
1.2140665,-1.7781892,-3.0864151,-0.033394933,-0.37111402,-0.92798656,0
1.2386174,4.5415039,1.9344828,0.033394933,0.37111402,0.92798656,0
-4.8030987,0.94100952,-0.65337324,-0.48605025,0.81733906,-0.30937335,0
0.75745821,4.2822018,-1.4669034,-0.48605025,0.81733906,-0.30937335,0
-4.3324909,-1.3409259,3.2105894,-0.87329245,-0.44071668,0.20767498,0
0.47222757,3.8369021,-1.2937807,-0.48605025,0.81733906,-0.30937335,0
-4.4301567,2.3397388,1.6740699,-0.48605025,0.81733906,-0.30937335,0
4.7211576,0.86790085,-3.1693029,0.87329245,0.44071668,-0.20767498,0
-1.992424,1.306361,-4.1458669,-0.033394933,-0.37111402,-0.92798656,0
-2.7731409,-5.7483387,-0.39406896,-0.87329245,-0.44071668,0.20767498,0
-2.9356546,0.0019111633,-3.5048113,-0.033394933,-0.37111402,-0.92798656,0
-4.4655199,0.96623611,3.4862337,0.033394933,0.37111402,0.92798656,0
-3.2805367,3.1241779,1.6490979,-0.48605025,0.81733906,-0.30937335,0
1.7643501,-0.98804855,-3.6004407,-0.033394933,-0.37111402,-0.92798656,0
-1.1782073,2.0215516,2.8026059,0.033394933,0.37111402,0.92798656,0
0.14479113,4.316937,0.35519731,-0.48605025,0.81733906,-0.30937335,0
-0.29428959,-4.560153,-2.1314189,-0.033394933,-0.37111402,-0.92798656,0
-5.3614297,-0.7339859,0.82405567,-0.87329245,-0.44071668,0.20767498,0
-3.6947036,-3.242439,1.4211636,-0.87329245,-0.44071668,0.20767498,0
-1.5143987,-0.12688279,3.8244882,0.033394933,0.37111402,0.92798656,0
-1.8166666,-5.5273991,-0.28210092,0.48605025,-0.81733906,0.30937335,0
-4.900794,-1.3836145,0.46174479,-0.87329245,-0.44071668,0.20767498,0
-0.12288952,-3.9441481,1.1216713,0.48605025,-0.81733906,0.30937335,0
4.4949841,1.3106391,-2.8958354,0.87329245,0.44071668,-0.20767498,0
-1.4575689,-5.4011812,-1.4031919,-0.033394933,-0.37111402,-0.92798656,0
4.10461,2.9791465,0.45689869,0.87329245,0.44071668,-0.20767498,0
0.092570543,4.5559015,0.89609802,-0.48605025,0.81733906,-0.30937335,0
-0.50218844,-5.2054186,-1.0910358,0.48605025,-0.81733906,0.30937335,0
1.4336095,3.1835825,-4.6819062,-0.48605025,0.81733906,-0.30937335,0
3.5098171,3.3484464,-1.8304722,0.87329245,0.44071668,-0.20767498,0
5.0202351,-0.17154568,3.2161775,0.48605025,-0.81733906,0.30937335,0
2.7486238,-2.7505949,-2.8399847,-0.033394933,-0.37111402,-0.92798656,0
-2.9550486,-3.5427356,4.2697191,-0.87329245,-0.44071668,0.20767498,0
1.5134315,-0.89415646,3.9720693,0.033394933,0.37111402,0.92798656,0
5.4091492,-0.34659815,-1.2108159,0.87329245,0.44071668,-0.20767498,0
-5.9548559,1.356144,1.8726535,-0.48605025,0.81733906,-0.30937335,0
0.94488072,-3.2819414,0.82404256,0.48605025,-0.81733906,0.30937335,0
4.801856,-2.0190446,-1.4964914,0.48605025,-0.81733906,0.30937335,0
-0.83658409,-3.654947,3.1251273,0.48605025,-0.81733906,0.30937335,0
2.9550629,-1.7898145,2.1306257,0.48605025,-0.81733906,0.30937335,0
5.2226019,1.4378672,0.40819502,0.87329245,0.44071668,-0.20767498,0
-4.9687409,-1.9232156,-1.2028155,-0.87329245,-0.44071668,0.20767498,0
4.7402253,-2.3238168,-3.0283046,-0.033394933,-0.37111402,-0.92798656,0
1.5443382,3.9446161,-2.7490587,-0.48605025,0.81733906,-0.30937335,0
-1.6014762,3.2232997,0.17679214,-0.48605025,0.81733906,-0.30937335,0
1.2447922,1.8007175,3.1765275,0.033394933,0.37111402,0.92798656,0
5.3963223,-0.56016719,1.1955094,0.48605025,-0.81733906,0.30937335,0
-2.3778327,2.8630428,0.41442871,-0.48605025,0.81733906,-0.30937335,0
5.0582685,0.44335198,-2.673223,0.87329245,0.44071668,-0.20767498,0
3.0265033,4.9256721,-1.2755747,0.87329245,0.44071668,-0.20767498,0
5.6811142,-1.2858288,-2.0808964,0.87329245,0.44071668,-0.20767498,0
-2.9348884,-3.965271,3.3253744,-0.87329245,-0.44071668,0.20767498,0
-4.190639,2.73739,2.6062717,-0.48605025,0.81733906,-0.30937335,0
-4.1634173,-0.90939951,4.3611951,0.033394933,0.37111402,0.92798656,0
3.749675,2.5888982,-2.608151,0.87329245,0.44071668,-0.20767498,0
5.6745768,-0.45580101,-0.45066833,0.87329245,0.44071668,-0.20767498,0
5.2474365,0.22901106,-2.3238087,0.87329245,0.44071668,-0.20767498,0
1.8473887,2.7772529,-5.0153894,-0.033394933,-0.37111402,-0.92798656,0
-1.1945274,3.1761396,-0.45578605,-0.48605025,0.81733906,-0.30937335,0
3.5578027,3.1727667,2.3884301,0.033394933,0.37111402,0.92798656,0
-4.6591845,0.76725173,-2.1095262,-0.48605025,0.81733906,-0.30937335,0
-2.9380522,-2.9257517,4.8279915,-0.87329245,-0.44071668,0.20767498,0
-6.0588408,1.167146,1.7947044,-0.87329245,-0.44071668,0.20767498,0
-3.6816938,-2.3492873,2.9252503,-0.87329245,-0.44071668,0.20767498,0
-2.7363272,3.2436938,1.5201445,-0.48605025,0.81733906,-0.30937335,0
-4.3471723,-1.0896944,-3.2180216,-0.033394933,-0.37111402,-0.92798656,0
5.4746447,-0.15600443,-0.85347319,0.87329245,0.44071668,-0.20767498,0
-0.84932661,-3.2216618,4.6636314,0.48605025,-0.81733906,0.30937335,0
2.9040568,0.58025503,-3.9392529,-0.033394933,-0.37111402,-0.92798656,0
-3.2465961,-3.060308,-2.6335268,-0.033394933,-0.37111402,-0.92798656,0
0.23907211,2.5019193,2.7508576,0.033394933,0.37111402,0.92798656,0
-5.2143664,2.44678,2.7608857,-0.48605025,0.81733906,-0.30937335,0
-3.88621,1.0648026,3.6295011,0.033394933,0.37111402,0.92798656,0
-0.05047369,-2.0819037,4.3998537,0.033394933,0.37111402,0.92798656,0
0.76294947,1.5004158,-4.602777,-0.033394933,-0.37111402,-0.92798656,0
1.0388341,-4.2399888,-1.4586176,0.48605025,-0.81733906,0.30937335,0
1.5051129,5.3633294,0.45873785,-0.48605025,0.81733906,-0.30937335,0
-5.9775186,-0.62016416,-3.0935097,-0.87329245,-0.44071668,0.20767498,0
4.7085886,-0.89046669,-3.3977442,-0.033394933,-0.37111402,-0.92798656,0
2.9354217,5.659368,-0.33877587,0.87329245,0.44071668,-0.20767498,0
2.0476344,5.7666378,1.2637334,-0.48605025,0.81733906,-0.30937335,0
-1.9315038,-3.6884696,4.1820054,0.48605025,-0.81733906,0.30937335,0
5.7637014,0.58906394,2.1131473,0.87329245,0.44071668,-0.20767498,0
3.9167798,2.2699766,-2.3305488,0.87329245,0.44071668,-0.20767498,0
-3.2557833,1.3273845,3.4096265,0.033394933,0.37111402,0.92798656,0
5.1917877,0.32575035,-1.9887347,0.87329245,0.44071668,-0.20767498,0
1.6443815,0.59942162,3.3097031,0.033394933,0.37111402,0.92798656,0
-3.4129233,-4.7707148,-1.3358893,-0.87329245,-0.44071668,0.20767498,0
-1.4418249,2.9838765,-1.6387088,-0.48605025,0.81733906,-0.30937335,0
-3.6244421,-2.6568859,3.3285012,-0.87329245,-0.44071668,0.20767498,0
-0.18302727,3.9197054,-1.2247884,-0.48605025,0.81733906,-0.30937335,0
-3.0920691,2.3257465,0.027841806,-0.48605025,0.81733906,-0.30937335,0
0.026488304,1.9515095,-4.6189704,-0.033394933,-0.37111402,-0.92798656,0
-5.5677748,0.33594441,0.52025557,-0.87329245,-0.44071668,0.20767498,0
-5.852973,-0.69784367,-1.5332947,-0.87329245,-0.44071668,0.20767498,0
3.2115541,5.1641884,-0.037946939,0.87329245,0.44071668,-0.20767498,0
4.6385503,1.4542406,-1.8633995,0.87329245,0.44071668,-0.20767498,0
3.2104919,-1.2452757,3.1516366,0.48605025,-0.81733906,0.30937335,0
3.6255755,-0.42729759,-3.8604658,-0.033394933,-0.37111402,-0.92798656,0
1.680727,-0.99514055,4.2401342,0.033394933,0.37111402,0.92798656,0
-0.59951377,4.1590796,2.2520471,0.033394933,0.37111402,0.92798656,0
2.473099,3.6482363,2.3840437,0.033394933,0.37111402,0.92798656,0
0.821805,-3.096658,1.6769592,0.48605025,-0.81733906,0.30937335,0
4.2840667,2.4766107,2.5825231,0.033394933,0.37111402,0.92798656,0
4.6022735,0.69399762,-2.3724866,0.87329245,0.44071668,-0.20767498,0
2.4537954,3.9405053,-5.3185978,-0.48605025,0.81733906,-0.30937335,0
1.038075,-4.082624,-0.63916749,0.48605025,-0.81733906,0.30937335,0
4.8597112,-1.5630279,0.12970877,0.48605025,-0.81733906,0.30937335,0
-1.510138,-3.9564252,3.1789131,0.48605025,-0.81733906,0.30937335,0
3.7461934,-0.44012022,-3.5413139,-0.033394933,-0.37111402,-0.92798656,0
-1.911726,2.3720436,-2.6351116,-0.48605025,0.81733906,-0.30937335,0
3.9268599,3.3334789,2.3712814,0.033394933,0.37111402,0.92798656,0
5.1691227,-1.6464622,-0.90899229,0.48605025,-0.81733906,0.30937335,0
3.0350864,5.5229864,-0.46546125,0.87329245,0.44071668,-0.20767498,0
-3.8694689,1.0096039,-2.6825778,-0.48605025,0.81733906,-0.30937335,0
1.281167,-3.6405711,-2.5534718,-0.033394933,-0.37111402,-0.92798656,0
-3.1089649,-0.75580585,-3.1656663,-0.033394933,-0.37111402,-0.92798656,0
4.6440206,1.0847063,-2.4669976,0.87329245,0.44071668,-0.20767498,0
3.3569961,3.9380269,-0.8370204,0.87329245,0.44071668,-0.20767498,0
-5.0051565,-1.8134058,-0.68502045,-0.87329245,-0.44071668,0.20767498,0
5.1477981,1.09041,-0.27479839,0.87329245,0.44071668,-0.20767498,0
5.7300487,-0.66553044,-1.0311704,0.87329245,0.44071668,-0.20767498,0
0.33139992,2.1360507,-4.6378908,-0.033394933,-0.37111402,-0.92798656,0
-1.3464551,-4.9858112,-1.7661216,-0.033394933,-0.37111402,-0.92798656,0
1.8657203,1.3421485,-4.4815001,-0.033394933,-0.37111402,-0.92798656,0
-3.0569034,1.1534346,-4.0389738,-0.48605025,0.81733906,-0.30937335,0
-1.2340739,-3.4326489,-2.3591416,-0.033394933,-0.37111402,-0.92798656,0
-1.7663319,3.2572098,-0.48787427,-0.48605025,0.81733906,-0.30937335,0
-1.8916094,-5.8641529,-1.3230191,-0.033394933,-0.37111402,-0.92798656,0
-3.667501,-4.2971125,-0.40559626,-0.87329245,-0.44071668,0.20767498,0
-0.57925105,-0.4347055,-3.5266767,-0.033394933,-0.37111402,-0.92798656,0
-2.6290359,-2.7804821,4.779911,0.033394933,0.37111402,0.92798656,0
-1.4371879,-5.0601912,0.031277299,0.48605025,-0.81733906,0.30937335,0
-4.5284915,1.6008909,-0.29753017,-0.48605025,0.81733906,-0.30937335,0
-5.888032,1.6689839,2.3640208,-0.48605025,0.81733906,-0.30937335,0
2.1173453,3.7863622,-4.5691223,-0.48605025,0.81733906,-0.30937335,0
-3.8984747,-2.1114495,2.7288299,-0.87329245,-0.44071668,0.20767498,0
5.4689689,-1.4969602,-3.2853122,-0.033394933,-0.37111402,-0.92798656,0
5.087388,1.8266851,0.53612995,0.87329245,0.44071668,-0.20767498,0
2.4209008,1.3888299,3.2837973,0.033394933,0.37111402,0.92798656,0
-2.6823001,2.1109066,2.9215944,0.033394933,0.37111402,0.92798656,0
5.1715961,-1.0623606,0.28620863,0.48605025,-0.81733906,0.30937335,0
3.4010482,3.4691126,2.2853775,0.033394933,0.37111402,0.92798656,0
2.9455273,1.545579,-4.7031136,-0.033394933,-0.37111402,-0.92798656,0
0.63246441,-1.4295361,4.1825705,0.033394933,0.37111402,0.92798656,0
-3.6229813,-0.33271265,4.1861267,0.033394933,0.37111402,0.92798656,0
4.7537289,-0.77104425,1.6976628,0.48605025,-0.81733906,0.30937335,0
-3.1059649,-1.993067,-2.6799748,-0.033394933,-0.37111402,-0.92798656,0
-0.38075534,-1.9637074,-2.927995,-0.033394933,-0.37111402,-0.92798656,0
-0.037606955,-0.29833198,-3.6950502,-0.033394933,-0.37111402,-0.92798656,0
-1.6713352,-3.2745652,-2.3763211,-0.033394933,-0.37111402,-0.92798656,0
1.0472054,3.8538861,-3.2484529,-0.48605025,0.81733906,-0.30937335,0
3.8375678,-2.287087,-0.96512556,0.48605025,-0.81733906,0.30937335,0
-1.9912903,-4.6069603,1.8256476,0.48605025,-0.81733906,0.30937335,0
-3.2950702,1.5926288,-2.3896601,-0.48605025,0.81733906,-0.30937335,0
-2.6336436,-2.5343673,5.0166721,0.033394933,0.37111402,0.92798656,0
1.9524384,2.4475052,-4.732151,-0.033394933,-0.37111402,-0.92798656,0
5.3570971,1.689855,3.0489128,0.033394933,0.37111402,0.92798656,0
-3.1342328,-4.8312225,-1.9060833,-0.033394933,-0.37111402,-0.92798656,0
2.9479218,-2.5560133,-0.028179169,0.48605025,-0.81733906,0.30937335,0
-2.8947139,3.0008235,1.5019088,-0.48605025,0.81733906,-0.30937335,0
-5.0579028,-2.3065939,-2.5197654,-0.87329245,-0.44071668,0.20767498,0
1.9087052,4.537138,-2.200639,-0.48605025,0.81733906,-0.30937335,0
4.1660857,3.5677094,1.8517215,0.87329245,0.44071668,-0.20767498,0
-2.0223475,1.7464243,-2.985574,-0.48605025,0.81733906,-0.30937335,0
-1.0919547,0.69793391,-4.1963334,-0.033394933,-0.37111402,-0.92798656,0
5.2758803,0.15102917,2.9577134,0.48605025,-0.81733906,0.30937335,0
1.5050516,3.3760602,-4.7418237,-0.48605025,0.81733906,-0.30937335,0
1.8570944,1.5020901,3.0812428,0.033394933,0.37111402,0.92798656,0
1.8105083,2.6288393,-4.6895595,-0.033394933,-0.37111402,-0.92798656,0
-0.73068702,-3.1208677,-2.3140507,-0.033394933,-0.37111402,-0.92798656,0
-2.1880567,-0.51634967,-3.4319117,-0.033394933,-0.37111402,-0.92798656,0
-5.8492675,0.041828871,-1.9026871,-0.48605025,0.81733906,-0.30937335,0
2.3593197,5.402338,1.3691224,0.033394933,0.37111402,0.92798656,0
-4.1133175,1.461171,-1.2721472,-0.48605025,0.81733906,-0.30937335,0
-0.46193564,1.5481884,3.1818883,0.033394933,0.37111402,0.92798656,0
-5.0619707,-1.7875684,-1.5498505,-0.87329245,-0.44071668,0.20767498,0
5.1297317,2.5891931,2.6191015,0.87329245,0.44071668,-0.20767498,0
-3.4594464,-3.1962068,2.256743,-0.87329245,-0.44071668,0.20767498,0
-2.2556932,-4.1903682,-1.8109814,-0.033394933,-0.37111402,-0.92798656,0
5.5086231,1.361962,2.1720233,0.87329245,0.44071668,-0.20767498,0
-5.3303781,-1.446017,-2.2540116,-0.87329245,-0.44071668,0.20767498,0
-3.777333,1.6853466,-0.75645375,-0.48605025,0.81733906,-0.30937335,0
-2.201844,1.2245142,3.317826,0.033394933,0.37111402,0.92798656,0
4.5086346,3.691577,1.9085,0.87329245,0.44071668,-0.20767498,0
-1.4719453,-4.4042788,1.6413434,0.48605025,-0.81733906,0.30937335,0
3.0449371,5.3393373,-0.61957479,0.87329245,0.44071668,-0.20767498,0
-3.3675623,0.13047743,-3.7952149,-0.033394933,-0.37111402,-0.92798656,0
4.7530084,1.9323884,0.69701052,0.87329245,0.44071668,-0.20767498,0
1.5510755,-0.836761,-3.6838107,-0.033394933,-0.37111402,-0.92798656,0
-2.1128736,-3.6160259,5.0645418,0.48605025,-0.81733906,0.30937335,0
1.8617353,-1.9958123,3.5784593,0.48605025,-0.81733906,0.30937335,0
-3.9974761,-1.5096292,4.5220299,-0.87329245,-0.44071668,0.20767498,0
4.6391397,2.1325159,-0.29977131,0.87329245,0.44071668,-0.20767498,0
-1.9990582,-3.8114648,3.7803829,0.48605025,-0.81733906,0.30937335,0
3.8491716,2.0932517,-4.0887866,0.87329245,0.44071668,-0.20767498,0
0.42828321,4.2729511,-0.91963381,-0.48605025,0.81733906,-0.30937335,0
-3.30685,2.6411169,0.59037662,-0.48605025,0.81733906,-0.30937335,0
2.2887459,1.9642184,2.9411278,0.033394933,0.37111402,0.92798656,0
3.0261497,5.0605268,0.23281026,0.87329245,0.44071668,-0.20767498,0
3.6743293,-2.0493984,0.048190594,0.48605025,-0.81733906,0.30937335,0
5.5948839,-0.11795449,-0.23532057,0.87329245,0.44071668,-0.20767498,0
-4.1924205,-0.87857389,3.683805,-0.87329245,-0.44071668,0.20767498,0
0.45610642,-0.71207809,4.1647453,0.033394933,0.37111402,0.92798656,0
5.207118,-0.04650867,3.5186272,0.033394933,0.37111402,0.92798656,0
