4.9674945,-0.88429797,-1.0174785,0.76741493,-0.50025362,-0.40102407,0
5.6776428,-0.54698229,0.20267487,0.76741493,-0.50025362,-0.40102407,0
2.2599497,-0.62319946,-5.5794897,-0.4353382,0.052625656,-0.89872742,0
-2.8773828,6.084753,-2.2965016,-0.76741493,0.50025362,0.40102407,0
-5.3003502,-2.9257808,-2.1813605,-0.4353382,0.052625656,-0.89872742,0
3.9738975,3.8911452,1.0274062,0.47069594,0.86427808,-0.17739356,0
-1.9068569,-0.37844253,-3.3937807,-0.4353382,0.052625656,-0.89872742,0
-2.8372931,-4.2136192,-0.6181922,-0.47069594,-0.86427808,0.17739356,0
6.5413847,2.3476455,-0.02041626,0.47069594,0.86427808,-0.17739356,0
-0.16361809,-1.2748597,-4.652802,-0.4353382,0.052625656,-0.89872742,0
1.2702508,-5.4562607,-1.9327956,0.76741493,-0.50025362,-0.40102407,0
-4.7190447,-0.84198904,3.3659005,-0.76741493,0.50025362,0.40102407,0
-4.3539901,1.9729185,0.18465847,-0.76741493,0.50025362,0.40102407,0
-0.73463345,6.6398964,1.6102467,0.47069594,0.86427808,-0.17739356,0
-6.2073965,-2.9610729,-1.6644363,-0.47069594,-0.86427808,0.17739356,0
1.8152461,-2.51775,-4.1397109,0.76741493,-0.50025362,-0.40102407,0
-1.0481179,1.2463639,5.0300498,0.4353382,-0.052625656,0.89872742,0
-4.5803618,0.37509906,1.6739507,-0.76741493,0.50025362,0.40102407,0
1.8997234,5.2127228,3.011621,0.47069594,0.86427808,-0.17739356,0
-0.14411974,-4.9511557,3.993886,-0.47069594,-0.86427808,0.17739356,0
-3.6543493,2.1888595,1.5495673,-0.76741493,0.50025362,0.40102407,0
-0.7658031,-5.4531355,-4.2645369,-0.4353382,0.052625656,-0.89872742,0
4.0466094,4.2241468,2.7419136,0.47069594,0.86427808,-0.17739356,0
2.5099843,3.9745226,-1.3833561,0.47069594,0.86427808,-0.17739356,0
-3.5019975,2.2889907,-2.4317083,-0.4353382,0.052625656,-0.89872742,0
1.1268034,-6.465107,0.58570671,-0.47069594,-0.86427808,0.17739356,0
0.36334515,-4.9641862,-4.5878959,0.76741493,-0.50025362,-0.40102407,0
-4.3541346,1.4862475,-2.471869,-0.4353382,0.052625656,-0.89872742,0
1.2930083,-0.5335772,-5.2875652,-0.4353382,0.052625656,-0.89872742,0
1.0013294,-4.8961906,-3.0416422,0.76741493,-0.50025362,-0.40102407,0
-3.6801753,-0.69438982,5.066021,-0.76741493,0.50025362,0.40102407,0
6.3015056,0.20856857,1.3061142,0.4353382,-0.052625656,0.89872742,0
2.2889915,-1.8317819,-4.8523126,0.76741493,-0.50025362,-0.40102407,0
3.7679167,-0.88101053,-3.4027741,0.76741493,-0.50025362,-0.40102407,0
-2.8242564,-4.9538598,-3.1582055,-0.47069594,-0.86427808,0.17739356,0
-1.1108463,5.8657446,-1.5880241,0.47069594,0.86427808,-0.17739356,0
3.2304306,-6.0556064,2.4088163,0.76741493,-0.50025362,-0.40102407,0
-3.9469676,1.6139891,1.7852888,-0.76741493,0.50025362,0.40102407,0
5.7620058,2.506423,-1.5770607,0.47069594,0.86427808,-0.17739356,0
-2.9013855,-4.5832176,-1.1563129,-0.47069594,-0.86427808,0.17739356,0
-1.595994,-3.5857048,5.0218925,0.4353382,-0.052625656,0.89872742,0
-0.29734063,-6.1034198,-1.4463482,-0.47069594,-0.86427808,0.17739356,0
-2.2143679,1.2007399,-3.4188735,-0.4353382,0.052625656,-0.89872742,0
-4.5695076,0.45787817,1.4786847,-0.76741493,0.50025362,0.40102407,0
1.0601244,4.0233426,4.132,0.4353382,-0.052625656,0.89872742,0
2.828125,-2.5171933,-2.7580917,0.76741493,-0.50025362,-0.40102407,0
-4.1093659,-1.0672579,4.3471909,-0.76741493,0.50025362,0.40102407,0
-0.75361729,5.9815197,-1.096549,0.47069594,0.86427808,-0.17739356,0
-1.7266326,6.0628638,0.2298429,-0.76741493,0.50025362,0.40102407,0
0.014106333,-4.5286012,4.2310824,0.4353382,-0.052625656,0.89872742,0
-0.42548037,4.6727962,4.8899479,0.4353382,-0.052625656,0.89872742,0
2.8842647,3.1729534,-4.5448976,0.47069594,0.86427808,-0.17739356,0
-4.7133522,-2.7631335,-2.3484538,-0.4353382,0.052625656,-0.89872742,0
2.1784697,4.5876169,-1.0035,0.47069594,0.86427808,-0.17739356,0
-0.015346408,-0.58239222,4.2977719,0.4353382,-0.052625656,0.89872742,0
5.8190403,1.8056314,-1.9592113,0.76741493,-0.50025362,-0.40102407,0
0.1224097,0.17851925,-4.5928259,-0.4353382,0.052625656,-0.89872742,0
-0.99935651,2.2508607,5.2221403,0.4353382,-0.052625656,0.89872742,0
-3.7977276,2.7918477,0.20724562,-0.76741493,0.50025362,0.40102407,0
-2.0866654,-5.2378254,-2.5000925,-0.47069594,-0.86427808,0.17739356,0
7.1825676,1.1418211,1.0506451,0.76741493,-0.50025362,-0.40102407,0
2.0159283,-0.062537193,-5.4577551,-0.4353382,0.052625656,-0.89872742,0
2.0130696,-6.3046618,2.2666359,-0.47069594,-0.86427808,0.17739356,0
-5.3796458,-1.7593498,3.1489544,-0.76741493,0.50025362,0.40102407,0
1.1033206,6.0647459,4.2536354,0.4353382,-0.052625656,0.89872742,0
6.8220716,0.86198878,0.63075995,0.76741493,-0.50025362,-0.40102407,0
4.0180354,0.55586815,-4.3187542,0.76741493,-0.50025362,-0.40102407,0
-5.9530158,0.73068428,-1.3246772,-0.76741493,0.50025362,0.40102407,0
-0.18554807,2.8695037,4.6786056,0.4353382,-0.052625656,0.89872742,0
-4.1714582,1.5987664,1.4671699,-0.76741493,0.50025362,0.40102407,0
6.4960403,0.060117006,1.1249208,0.76741493,-0.50025362,-0.40102407,0
4.1978211,-2.9655375,2.2453945,0.4353382,-0.052625656,0.89872742,0
-6.3872051,-1.7486298,-1.6257739,-0.4353382,0.052625656,-0.89872742,0
6.1590757,1.4745858,1.3988957,0.4353382,-0.052625656,0.89872742,0
-0.82314825,4.1857939,4.1733427,-0.76741493,0.50025362,0.40102407,0
1.4218216,-3.8971756,-3.2272711,0.76741493,-0.50025362,-0.40102407,0
-0.74677801,4.0210605,4.8042316,-0.76741493,0.50025362,0.40102407,0
1.1809899,-4.4916553,3.8159828,0.4353382,-0.052625656,0.89872742,0
-0.29257023,-0.5597682,4.3738036,0.4353382,-0.052625656,0.89872742,0
-1.8657317,0.74695015,5.2546258,0.4353382,-0.052625656,0.89872742,0
-1.6372073,-5.0662956,-1.8928661,-0.47069594,-0.86427808,0.17739356,0
-2.060245,6.0600252,-0.20142126,-0.76741493,0.50025362,0.40102407,0
1.6222286,-4.6006179,-1.9478269,0.76741493,-0.50025362,-0.40102407,0
2.0982802,3.9977183,3.551038,0.4353382,-0.052625656,0.89872742,0
6.215539,1.0762782,1.6048243,0.4353382,-0.052625656,0.89872742,0
3.2206445,-3.6556091,-0.29289746,0.76741493,-0.50025362,-0.40102407,0
5.7289662,0.75633264,-1.1161993,0.76741493,-0.50025362,-0.40102407,0
3.5751412,2.5969932,-5.3012819,0.47069594,0.86427808,-0.17739356,0
2.0108876,1.929513,-5.214499,-0.4353382,0.052625656,-0.89872742,0
-4.8826618,-0.96213412,-2.2756803,-0.4353382,0.052625656,-0.89872742,0
1.3817954,5.0751157,0.34636354,0.47069594,0.86427808,-0.17739356,0
-0.38816953,-6.3190398,-3.4130001,-0.47069594,-0.86427808,0.17739356,0
-4.6224923,2.3125668,-0.85519165,-0.76741493,0.50025362,0.40102407,0
1.1292616,2.6492944,4.0634017,0.4353382,-0.052625656,0.89872742,0
2.2380373,-4.1991429,3.2568955,0.4353382,-0.052625656,0.89872742,0
0.11168718,-4.5008092,4.0977521,0.4353382,-0.052625656,0.89872742,0
-1.6705036,1.1731591,5.2395554,0.4353382,-0.052625656,0.89872742,0
1.2399572,-3.7506647,3.630775,0.4353382,-0.052625656,0.89872742,0
5.694644,0.0073525906,-0.096409321,0.76741493,-0.50025362,-0.40102407,0
2.9143863,-2.1891465,-3.0553095,0.76741493,-0.50025362,-0.40102407,0
3.6810884,0.037207603,-3.9307356,0.76741493,-0.50025362,-0.40102407,0
-4.3862505,-1.1781549,4.4485817,-0.76741493,0.50025362,0.40102407,0
3.9640586,3.6841664,0.81375265,0.47069594,0.86427808,-0.17739356,0
-4.0754852,-1.5850248,5.6196012,-0.76741493,0.50025362,0.40102407,0
-4.4436231,0.84206343,-2.3932137,-0.4353382,0.052625656,-0.89872742,0
-1.8849339,2.2514944,4.8990641,-0.76741493,0.50025362,0.40102407,0
-1.6140847,3.0368474,4.7327299,-0.76741493,0.50025362,0.40102407,0
2.4871652,-2.6384909,2.958374,0.4353382,-0.052625656,0.89872742,0
3.737361,2.9407694,-4.6120162,0.47069594,0.86427808,-0.17739356,0
-3.8737636,3.0807073,-2.4417806,-0.4353382,0.052625656,-0.89872742,0
1.1347442,0.83460069,-4.8087177,-0.4353382,0.052625656,-0.89872742,0
3.2795448,-3.5293031,-0.96371925,0.76741493,-0.50025362,-0.40102407,0
-0.56060052,5.6849298,-1.7836814,0.47069594,0.86427808,-0.17739356,0
4.0640965,-1.0771053,2.4689641,0.4353382,-0.052625656,0.89872742,0
1.27425,-3.8659823,-4.2760501,0.76741493,-0.50025362,-0.40102407,0
5.5576358,3.148514,1.3713188,0.47069594,0.86427808,-0.17739356,0
-4.4224205,0.90243292,1.6001045,-0.76741493,0.50025362,0.40102407,0
4.1481991,-1.3933735,-1.4424735,0.76741493,-0.50025362,-0.40102407,0
1.9381969,1.314801,3.5138707,0.4353382,-0.052625656,0.89872742,0
-0.76629853,6.1195526,-0.34860945,0.47069594,0.86427808,-0.17739356,0
1.4554658,-6.279089,1.0770125,-0.47069594,-0.86427808,0.17739356,0
-1.6988711,6.2606707,-2.4417319,0.47069594,0.86427808,-0.17739356,0
-0.41021991,5.294508,-2.5780797,0.47069594,0.86427808,-0.17739356,0
3.7741375,0.62494016,2.8441088,0.4353382,-0.052625656,0.89872742,0
-2.5920105,5.5534682,-3.0026147,-0.4353382,0.052625656,-0.89872742,0
2.9650307,3.1486454,-5.605763,0.47069594,0.86427808,-0.17739356,0
-1.8702388,3.4824495,2.9175198,-0.76741493,0.50025362,0.40102407,0
3.9159732,-0.63694334,-2.5423598,0.76741493,-0.50025362,-0.40102407,0
0.89344615,4.8652663,-1.5986238,0.47069594,0.86427808,-0.17739356,0
-1.0663462,5.9589148,-1.7267308,0.47069594,0.86427808,-0.17739356,0
-2.7922363,-3.8084211,1.9166846,-0.47069594,-0.86427808,0.17739356,0
-5.9590797,1.1684408,-1.6755624,-0.4353382,0.052625656,-0.89872742,0
-2.860106,1.1495993,4.4475303,-0.76741493,0.50025362,0.40102407,0
-2.5471883,-3.4638999,3.6511092,-0.47069594,-0.86427808,0.17739356,0
1.9431581,-6.5610247,0.85417175,-0.47069594,-0.86427808,0.17739356,0
0.12809896,-6.3160734,-1.7978544,-0.47069594,-0.86427808,0.17739356,0
-2.9090624,0.080714464,5.4368644,-0.76741493,0.50025362,0.40102407,0
-2.0165372,-1.078301,5.3522453,0.4353382,-0.052625656,0.89872742,0
4.8912659,-0.58543229,1.8828821,0.4353382,-0.052625656,0.89872742,0
1.326798,4.1070061,-4.6856184,-0.4353382,0.052625656,-0.89872742,0
-2.2573171,2.9930573,3.1306465,-0.76741493,0.50025362,0.40102407,0
-1.4071873,-5.7945728,-2.7571712,-0.47069594,-0.86427808,0.17739356,0
-3.0087595,5.502532,-2.5800259,-0.4353382,0.052625656,-0.89872742,0
0.71113944,0.28587699,4.0787992,0.4353382,-0.052625656,0.89872742,0
-0.6921916,-5.8724155,-4.4867525,-0.4353382,0.052625656,-0.89872742,0
2.4085474,4.601594,0.015667439,0.47069594,0.86427808,-0.17739356,0
1.9700384,5.1406856,3.9435546,0.4353382,-0.052625656,0.89872742,0
2.4729481,-2.3608651,-3.4442687,0.76741493,-0.50025362,-0.40102407,0
0.56478679,2.6036663,-4.5460949,-0.4353382,0.052625656,-0.89872742,0
3.4339676,-4.1541657,0.1083194,0.76741493,-0.50025362,-0.40102407,0
-3.106204,-1.4184582,-2.8699079,-0.4353382,0.052625656,-0.89872742,0
0.74438322,-4.1099706,3.6473527,0.4353382,-0.052625656,0.89872742,0
-0.65998554,5.4465265,-2.3492203,0.47069594,0.86427808,-0.17739356,0
-0.64635426,-1.0683973,-4.085597,-0.4353382,0.052625656,-0.89872742,0
-3.0068221,3.3981323,-2.6243014,-0.4353382,0.052625656,-0.89872742,0
-1.547235,6.3535662,-2.3864222,0.47069594,0.86427808,-0.17739356,0
-5.2168736,-2.8265738,0.82137299,-0.47069594,-0.86427808,0.17739356,0
4.2654157,2.4239368,-5.0808954,0.47069594,0.86427808,-0.17739356,0
6.4909816,0.50529718,0.99289966,0.76741493,-0.50025362,-0.40102407,0
4.6420403,-3.3967552,2.1999316,0.4353382,-0.052625656,0.89872742,0
-0.59168243,-2.8840756,4.5941887,0.4353382,-0.052625656,0.89872742,0
-0.18914795,5.8597264,-0.35079002,0.47069594,0.86427808,-0.17739356,0
2.6855438,0.64958525,3.3816085,0.4353382,-0.052625656,0.89872742,0
-3.5427828,-4.2961397,-3.0514517,-0.4353382,0.052625656,-0.89872742,0
-4.706048,1.3735182,0.44059944,-0.76741493,0.50025362,0.40102407,0
6.8775282,1.6094909,1.1283476,0.4353382,-0.052625656,0.89872742,0
1.2445701,4.6868277,-2.0686092,0.47069594,0.86427808,-0.17739356,0
-2.4379959,6.6730013,-2.1536689,-0.76741493,0.50025362,0.40102407,0
-1.2583914,0.038957119,4.9748402,0.4353382,-0.052625656,0.89872742,0
0.30322385,-5.003634,3.8426557,-0.47069594,-0.86427808,0.17739356,0
3.6539788,4.0145626,1.7736638,0.47069594,0.86427808,-0.17739356,0
0.94078887,3.2230387,4.2670398,0.4353382,-0.052625656,0.89872742,0
6.1037722,2.0908961,1.5159745,0.4353382,-0.052625656,0.89872742,0
-3.7447495,-4.3854122,-2.7054093,-0.47069594,-0.86427808,0.17739356,0
3.1167717,-0.71821141,-4.3599634,0.76741493,-0.50025362,-0.40102407,0
4.1588774,3.9078565,2.3247228,0.47069594,0.86427808,-0.17739356,0
-3.2414112,-3.1786184,-3.0425601,-0.4353382,0.052625656,-0.89872742,0
4.21173,1.8907838,-5.0669446,0.76741493,-0.50025362,-0.40102407,0
5.1071987,2.7160854,-0.95790434,0.47069594,0.86427808,-0.17739356,0
2.0545785,4.565237,-0.88702965,0.47069594,0.86427808,-0.17739356,0
-2.7764647,-4.4955316,-1.9469123,-0.47069594,-0.86427808,0.17739356,0
0.75132251,-2.8556366,-5.1285172,-0.4353382,0.052625656,-0.89872742,0
1.8400021,-5.4055176,3.0760274,0.4353382,-0.052625656,0.89872742,0
5.6115441,2.712606,1.841558,0.4353382,-0.052625656,0.89872742,0
4.8900323,-2.1783729,0.77878135,0.76741493,-0.50025362,-0.40102407,0
0.30117878,4.5180087,-4.5305338,-0.4353382,0.052625656,-0.89872742,0
-3.6406188,3.147872,-2.360014,-0.4353382,0.052625656,-0.89872742,0
3.449472,4.2688708,2.6746457,0.47069594,0.86427808,-0.17739356,0
4.0262918,3.0855825,-2.9967208,0.47069594,0.86427808,-0.17739356,0
-3.1761289,2.0559554,-2.9381311,-0.4353382,0.052625656,-0.89872742,0
-2.1287374,-4.6446748,-3.6805,-0.4353382,0.052625656,-0.89872742,0
-1.65148,-3.5803735,4.8899546,0.4353382,-0.052625656,0.89872742,0
1.4977679,4.7253079,-1.5631657,0.47069594,0.86427808,-0.17739356,0
5.1720281,3.2668476,1.0009103,0.47069594,0.86427808,-0.17739356,0
-3.3883867,-3.7094727,0.85424519,-0.47069594,-0.86427808,0.17739356,0
-0.056781232,3.6643388,-4.0957217,-0.4353382,0.052625656,-0.89872742,0
-4.5513206,-3.085578,-2.6258173,-0.4353382,0.052625656,-0.89872742,0
-2.6813726,5.2605438,0.017763615,-0.76741493,0.50025362,0.40102407,0
-2.6358829,-1.5380311,5.6688795,0.4353382,-0.052625656,0.89872742,0
-6.755013,-1.9976486,0.61898041,-0.47069594,-0.86427808,0.17739356,0
0.50564575,4.4569268,-4.6001587,-0.4353382,0.052625656,-0.89872742,0
-5.2225418,0.36112761,-1.8395847,-0.4353382,0.052625656,-0.89872742,0
0.8788228,0.63721037,-4.9636478,-0.4353382,0.052625656,-0.89872742,0
-3.8763323,-0.88785458,5.1411066,-0.76741493,0.50025362,0.40102407,0
-2.0415916,3.954206,2.396069,-0.76741493,0.50025362,0.40102407,0
2.275352,-4.9880352,-0.19011927,0.76741493,-0.50025362,-0.40102407,0
-2.4555025,-2.8347278,-3.6085751,-0.4353382,0.052625656,-0.89872742,0
-0.22328568,-6.0583034,-4.5060687,0.76741493,-0.50025362,-0.40102407,0
2.2448554,3.7367363,-4.1603837,0.47069594,0.86427808,-0.17739356,0
-2.4012549,-2.8057823,-3.2737577,-0.4353382,0.052625656,-0.89872742,0
-2.4626935,-1.4150848,5.7079611,0.4353382,-0.052625656,0.89872742,0
2.9623046,-3.5027051,-1.4331943,0.76741493,-0.50025362,-0.40102407,0
-2.1607318,1.6135107,4.7043996,-0.76741493,0.50025362,0.40102407,0
-3.7620087,2.6847029,0.72988445,-0.76741493,0.50025362,0.40102407,0
4.2234659,2.2513146,-6.1278362,0.76741493,-0.50025362,-0.40102407,0
-1.2675362,-4.5306921,2.5405192,-0.47069594,-0.86427808,0.17739356,0
0.85651445,-5.4727263,-2.9554195,0.76741493,-0.50025362,-0.40102407,0
1.7089853,0.73384523,3.7569611,0.4353382,-0.052625656,0.89872742,0
-2.8739319,6.2761178,-1.642694,-0.76741493,0.50025362,0.40102407,0
-3.4912484,-3.0810759,3.5864873,-0.47069594,-0.86427808,0.17739356,0
-6.7219386,-2.2902708,-0.32050371,-0.47069594,-0.86427808,0.17739356,0
4.6127539,-2.1815631,0.73407662,0.76741493,-0.50025362,-0.40102407,0
-0.63089824,2.4902492,4.7428002,0.4353382,-0.052625656,0.89872742,0
-2.7011971,-0.25520635,-3.1412489,-0.4353382,0.052625656,-0.89872742,0
6.6252146,2.4643838,0.32633305,0.47069594,0.86427808,-0.17739356,0
2.9459038,2.2313871,-5.8370185,-0.4353382,0.052625656,-0.89872742,0
2.187227,0.38883448,-5.2649884,-0.4353382,0.052625656,-0.89872742,0
3.1681671,4.5666056,1.4756796,0.47069594,0.86427808,-0.17739356,0
3.0389493,3.639452,-1.3682084,0.47069594,0.86427808,-0.17739356,0
1.8451285,4.1531925,-3.7434344,0.47069594,0.86427808,-0.17739356,0
4.5809455,1.2684467,-3.6067362,0.76741493,-0.50025362,-0.40102407,0
-2.0272775,-2.1869226,-3.7857881,-0.4353382,0.052625656,-0.89872742,0
-2.1471796,4.5295558,-3.3067732,-0.4353382,0.052625656,-0.89872742,0
-1.5514927,5.4552813,-3.2202625,-0.4353382,0.052625656,-0.89872742,0
-5.6601033,1.871011,-1.6235273,-0.76741493,0.50025362,0.40102407,0
1.1823268,-3.6015384,-4.438252,0.76741493,-0.50025362,-0.40102407,0
-1.6305771,4.9021549,-3.4740813,-0.4353382,0.052625656,-0.89872742,0
-2.0809515,-3.695972,3.6577411,-0.47069594,-0.86427808,0.17739356,0
-3.7065845,4.2287164,-2.3787439,-0.4353382,0.052625656,-0.89872742,0
4.1669121,-0.49601984,2.2067921,0.4353382,-0.052625656,0.89872742,0
-2.7921429,-3.5392878,3.0316434,-0.47069594,-0.86427808,0.17739356,0
5.0349917,-2.2889917,1.5470183,0.76741493,-0.50025362,-0.40102407,0
-4.7018571,1.6402303,0.26530087,-0.76741493,0.50025362,0.40102407,0
-6.0897374,-0.23458028,-0.37812543,-0.76741493,0.50025362,0.40102407,0
5.006732,3.2777834,2.0825403,0.47069594,0.86427808,-0.17739356,0
-2.8819671,4.5725732,0.34589005,-0.76741493,0.50025362,0.40102407,0
3.7356901,3.1795194,2.728313,0.4353382,-0.052625656,0.89872742,0
3.0662355,-5.571229,2.7049661,0.4353382,-0.052625656,0.89872742,0
2.9585543,-0.79120171,-4.3643751,0.76741493,-0.50025362,-0.40102407,0
3.8597388,-0.18344426,-3.6509447,0.76741493,-0.50025362,-0.40102407,0
-0.28472996,5.7850757,0.14354134,0.47069594,0.86427808,-0.17739356,0
3.3154769,-1.2425798,-3.7476597,0.76741493,-0.50025362,-0.40102407,0
-2.337224,6.0990496,-1.3207512,-0.76741493,0.50025362,0.40102407,0
0.052513123,6.1871538,2.7662277,0.47069594,0.86427808,-0.17739356,0
0.065768719,-6.0258327,-0.40687561,-0.47069594,-0.86427808,0.17739356,0
3.574146,2.9201024,-5.1740007,0.47069594,0.86427808,-0.17739356,0
0.61042279,4.6680193,-3.662034,0.47069594,0.86427808,-0.17739356,0
-1.5301781,1.2265863,-3.6029196,-0.4353382,0.052625656,-0.89872742,0
3.1011353,3.0896916,-5.420764,0.47069594,0.86427808,-0.17739356,0
7.0733857,1.9186305,-0.021413326,0.47069594,0.86427808,-0.17739356,0
0.26834607,6.0704589,1.1199863,0.47069594,0.86427808,-0.17739356,0
-0.67658472,0.86291122,4.8023777,0.4353382,-0.052625656,0.89872742,0
-4.3767977,3.3139567,-2.184068,-0.4353382,0.052625656,-0.89872742,0
-1.9844527,-1.1642573,-3.6836104,-0.4353382,0.052625656,-0.89872742,0
0.43776107,-5.8495297,1.7116647,-0.47069594,-0.86427808,0.17739356,0
4.4404955,3.9172559,2.1270289,0.47069594,0.86427808,-0.17739356,0
-4.2662864,2.7521651,-2.1679103,-0.4353382,0.052625656,-0.89872742,0
6.4272127,1.449995,-0.54616547,0.76741493,-0.50025362,-0.40102407,0
0.41764838,2.0579658,-4.6362085,-0.4353382,0.052625656,-0.89872742,0
-5.8397331,-0.55230498,-1.7123727,-0.4353382,0.052625656,-0.89872742,0
2.0601883,-3.5879593,-2.4787302,0.76741493,-0.50025362,-0.40102407,0
2.5101624,-1.0553489,3.1045759,0.4353382,-0.052625656,0.89872742,0
4.3030186,2.5919435,2.3336239,0.4353382,-0.052625656,0.89872742,0
-3.5890679,4.88906,-2.5439045,-0.4353382,0.052625656,-0.89872742,0
2.3900068,2.90168,-5.2278848,-0.4353382,0.052625656,-0.89872742,0
-4.0306416,-2.8701186,3.3673167,-0.47069594,-0.86427808,0.17739356,0
5.6066833,2.3626986,1.8086023,0.4353382,-0.052625656,0.89872742,0
2.8153045,1.4596593,3.192153,0.4353382,-0.052625656,0.89872742,0
-3.7253494,4.6925921,-2.5436556,-0.4353382,0.052625656,-0.89872742,0
-1.530179,-3.3104539,-3.8634169,-0.4353382,0.052625656,-0.89872742,0
-4.6808414,-1.8156393,4.9549966,-0.76741493,0.50025362,0.40102407,0
5.3901105,1.2152894,-2.4884443,0.76741493,-0.50025362,-0.40102407,0
-4.2725992,-2.7144599,4.1005759,-0.47069594,-0.86427808,0.17739356,0
2.3799386,-4.5276833,-0.57244396,0.76741493,-0.50025362,-0.40102407,0
2.6864967,0.25127816,3.1032665,0.4353382,-0.052625656,0.89872742,0
-1.3504877,-3.9197145,4.8967352,0.4353382,-0.052625656,0.89872742,0
6.7620277,2.0127687,0.52920914,0.47069594,0.86427808,-0.17739356,0
4.4820757,2.0477743,-4.7079005,0.76741493,-0.50025362,-0.40102407,0
-5.7915215,-2.7625816,-0.81075287,-0.47069594,-0.86427808,0.17739356,0
-5.2918067,-3.1967998,-1.918802,-0.4353382,0.052625656,-0.89872742,0
6.0797386,2.8419929,1.6900547,0.47069594,0.86427808,-0.17739356,0
1.3317814,4.9449987,0.44511938,0.47069594,0.86427808,-0.17739356,0
-3.0014005,-0.045754433,5.0698357,-0.76741493,0.50025362,0.40102407,0
-3.8858562,3.8167408,-0.83988261,-0.76741493,0.50025362,0.40102407,0
0.75425059,4.8030577,-3.8107805,0.47069594,0.86427808,-0.17739356,0
-4.8170123,-3.2336369,-0.92094851,-0.47069594,-0.86427808,0.17739356,0
-1.9316486,-0.90633345,-3.597044,-0.4353382,0.052625656,-0.89872742,0
-1.1819406,6.0708156,0.92054105,-0.76741493,0.50025362,0.40102407,0
2.3439112,-6.4036651,2.8510642,-0.47069594,-0.86427808,0.17739356,0
-2.5248935,-1.0781279,5.451437,0.4353382,-0.052625656,0.89872742,0
-0.66927147,5.5199919,2.754806,-0.76741493,0.50025362,0.40102407,0
3.1129944,4.0409241,0.54408455,0.47069594,0.86427808,-0.17739356,0
1.5270824,-6.7644258,-0.0023741722,-0.47069594,-0.86427808,0.17739356,0
-2.196193,-0.35046768,5.4884892,0.4353382,-0.052625656,0.89872742,0
-1.7608099,5.221858,0.85540795,-0.76741493,0.50025362,0.40102407,0
-1.8609586,4.2445464,2.0085306,-0.76741493,0.50025362,0.40102407,0
-2.0982218,3.0002222,3.0989499,-0.76741493,0.50025362,0.40102407,0
-1.9377804,5.1280622,1.5533559,-0.76741493,0.50025362,0.40102407,0
3.108573,0.17891908,-5.624167,0.76741493,-0.50025362,-0.40102407,0
2.8009543,-0.258111,-5.8387785,0.76741493,-0.50025362,-0.40102407,0
1.3295138,2.3618088,-4.9935188,-0.4353382,0.052625656,-0.89872742,0
-4.6510801,0.56514001,-1.9564795,-0.4353382,0.052625656,-0.89872742,0
2.2930319,3.3624024,-5.500834,-0.4353382,0.052625656,-0.89872742,0
4.5556159,1.2855033,-3.7009239,0.76741493,-0.50025362,-0.40102407,0
-0.32363462,-5.1648107,-4.7243686,-0.4353382,0.052625656,-0.89872742,0
3.1546998,-2.6466923,-2.3754795,0.76741493,-0.50025362,-0.40102407,0
-0.54652882,1.7866445,-4.2370782,-0.4353382,0.052625656,-0.89872742,0
-0.99827242,5.6783166,2.178597,-0.76741493,0.50025362,0.40102407,0
5.2399139,2.1707966,-2.8367233,0.47069594,0.86427808,-0.17739356,0
3.4860654,2.7744443,-5.0572147,0.47069594,0.86427808,-0.17739356,0
5.2349606,0.45278215,1.80062,0.4353382,-0.052625656,0.89872742,0
5.3341622,-0.98812675,0.36283684,0.76741493,-0.50025362,-0.40102407,0
2.9294286,-1.8579903,3.0319605,0.4353382,-0.052625656,0.89872742,0
5.002656,2.3577046,-3.1569943,0.47069594,0.86427808,-0.17739356,0
3.9214258,-2.2402375,-1.406517,0.76741493,-0.50025362,-0.40102407,0
-1.8133817,2.9705827,-3.2766836,-0.4353382,0.052625656,-0.89872742,0
-1.8069944,4.1516533,3.0201378,-0.76741493,0.50025362,0.40102407,0
5.8366055,0.54558283,-1.068089,0.76741493,-0.50025362,-0.40102407,0
-3.8406558,3.7510796,-0.37753844,-0.76741493,0.50025362,0.40102407,0
-1.137079,1.6279342,5.2852011,0.4353382,-0.052625656,0.89872742,0
-1.422861,-3.3145404,-4.0005479,-0.4353382,0.052625656,-0.89872742,0
1.7425778,4.9689312,1.5588293,0.47069594,0.86427808,-0.17739356,0
4.1459384,1.4607515,2.5384684,0.4353382,-0.052625656,0.89872742,0
2.5136437,-6.4650106,2.3611279,-0.47069594,-0.86427808,0.17739356,0
0.28397369,-5.3007574,2.4970098,-0.47069594,-0.86427808,0.17739356,0
-0.18224549,-4.2322598,4.3137169,0.4353382,-0.052625656,0.89872742,0
1.9277306,-5.3461738,-1.1567879,0.76741493,-0.50025362,-0.40102407,0
1.5383503,4.2283411,-3.8352857,0.47069594,0.86427808,-0.17739356,0
1.3233976,0.48852062,-5.0762806,-0.4353382,0.052625656,-0.89872742,0
6.003243,1.3653157,-1.4793215,0.76741493,-0.50025362,-0.40102407,0
1.9008366,4.4318829,-0.60378075,0.47069594,0.86427808,-0.17739356,0
-2.955698,3.3351045,1.774111,-0.76741493,0.50025362,0.40102407,0
-6.3122978,0.66014504,-1.424268,-0.76741493,0.50025362,0.40102407,0
-2.8328621,-3.1468763,5.4505105,-0.47069594,-0.86427808,0.17739356,0
-6.7493734,-0.93573713,-0.32953215,-0.76741493,0.50025362,0.40102407,0
-6.1099873,-3.0188234,-1.7142324,-0.47069594,-0.86427808,0.17739356,0
4.5900049,-1.9052525,0.40711534,0.76741493,-0.50025362,-0.40102407,0
-5.1480122,0.29067111,0.57213283,-0.76741493,0.50025362,0.40102407,0
0.44397384,-2.9105563,4.0924206,0.4353382,-0.052625656,0.89872742,0
4.2580128,1.3172708,2.248584,0.4353382,-0.052625656,0.89872742,0
-2.1253791,-2.2873878,5.1465254,0.4353382,-0.052625656,0.89872742,0
-1.4170132,6.5799685,0.26903915,-0.76741493,0.50025362,0.40102407,0
-2.3807864,6.1484327,-1.4923992,-0.76741493,0.50025362,0.40102407,0
0.95999169,-1.7826898,-4.8230386,-0.4353382,0.052625656,-0.89872742,0
-0.82160032,-5.6021123,-1.0250046,-0.47069594,-0.86427808,0.17739356,0
1.164901,4.2961369,-3.4907699,0.47069594,0.86427808,-0.17739356,0
-3.8259654,3.2188082,0.051315665,-0.76741493,0.50025362,0.40102407,0
1.8562756,-5.0946188,-1.5206575,0.76741493,-0.50025362,-0.40102407,0
-0.70072627,1.564569,4.8420529,0.4353382,-0.052625656,0.89872742,0
-1.9178014,3.7553833,2.60707,-0.76741493,0.50025362,0.40102407,0
1.7634783,-6.5786314,1.5687785,-0.47069594,-0.86427808,0.17739356,0
-0.050647974,-1.8379436,-4.3688564,-0.4353382,0.052625656,-0.89872742,0
0.01104641,-5.8149586,0.78007984,-0.47069594,-0.86427808,0.17739356,0
-1.8307357,5.4997029,-3.1864266,-0.4353382,0.052625656,-0.89872742,0
-4.0084562,-3.8570936,-2.6308451,-0.4353382,0.052625656,-0.89872742,0
0.41214216,1.4532809,-4.729804,-0.4353382,0.052625656,-0.89872742,0
0.81024861,-1.8772392,-4.8652606,-0.4353382,0.052625656,-0.89872742,0
3.2283568,-0.99800181,2.634016,0.4353382,-0.052625656,0.89872742,0
0.63926554,-5.6187,2.5878835,-0.47069594,-0.86427808,0.17739356,0
4.3220797,1.9894819,-5.1113663,0.76741493,-0.50025362,-0.40102407,0
2.9778256,2.9009142,-5.4281511,0.47069594,0.86427808,-0.17739356,0
-2.0602655,-4.6429129,-0.98880887,-0.47069594,-0.86427808,0.17739356,0
-1.0130829,-1.1777196,4.6957245,0.4353382,-0.052625656,0.89872742,0
-2.1250849,1.4672623,-3.5413573,-0.4353382,0.052625656,-0.89872742,0
-3.967973,-2.8704457,3.3258924,-0.47069594,-0.86427808,0.17739356,0
5.4737592,2.6628096,0.41337824,0.47069594,0.86427808,-0.17739356,0
-5.4779105,0.99840283,-1.5383428,-0.4353382,0.052625656,-0.89872742,0
-2.6078107,-4.9488358,-3.6342258,-0.4353382,0.052625656,-0.89872742,0
-3.8935943,4.4907045,-1.7869892,-0.76741493,0.50025362,0.40102407,0
-5.4875956,-2.2247105,3.3064051,-0.47069594,-0.86427808,0.17739356,0
-1.7573271,1.697782,5.4824638,-0.76741493,0.50025362,0.40102407,0
0.14022875,5.0530543,4.6043882,0.4353382,-0.052625656,0.89872742,0
-5.1840134,-2.6093793,-2.1816933,-0.4353382,0.052625656,-0.89872742,0
-1.595988,-5.4204168,-1.445678,-0.47069594,-0.86427808,0.17739356,0
-1.9151056,6.0964241,-2.8212214,0.47069594,0.86427808,-0.17739356,0
-6.832716,-0.57463837,-0.73190999,-0.76741493,0.50025362,0.40102407,0
0.17459184,4.7505846,-4.2419777,0.47069594,0.86427808,-0.17739356,0
-7.1714253,-1.6815959,-0.37891626,-0.76741493,0.50025362,0.40102407,0
5.2724042,2.5687962,-1.4266181,0.47069594,0.86427808,-0.17739356,0
-2.8791447,-1.4296377,-3.035588,-0.4353382,0.052625656,-0.89872742,0
6.0992069,2.6404953,1.3434961,0.47069594,0.86427808,-0.17739356,0
-0.57439137,4.8584762,4.0658894,-0.76741493,0.50025362,0.40102407,0
3.1207819,-5.8611012,2.4475267,0.76741493,-0.50025362,-0.40102407,0
-5.2970347,0.79320049,0.39719129,-0.76741493,0.50025362,0.40102407,0
0.81329072,2.5187449,-4.7108769,-0.4353382,0.052625656,-0.89872742,0
-3.1006494,-3.2156003,3.4892454,-0.47069594,-0.86427808,0.17739356,0
5.1107817,-0.24822628,-1.1249485,0.76741493,-0.50025362,-0.40102407,0
-6.0977459,0.55472565,-1.0134401,-0.76741493,0.50025362,0.40102407,0
0.16112947,-6.233357,-3.519218,0.76741493,-0.50025362,-0.40102407,0
3.0593996,-0.65085769,-4.8119612,0.76741493,-0.50025362,-0.40102407,0
-4.4395204,-2.4232457,5.5332055,-0.47069594,-0.86427808,0.17739356,0
-3.6899505,4.7410479,-2.0763917,-0.76741493,0.50025362,0.40102407,0
-2.805068,6.5834913,-2.1300144,-0.76741493,0.50025362,0.40102407,0
1.1519589,-6.3288693,-1.077615,0.76741493,-0.50025362,-0.40102407,0
-7.2489519,-1.1862824,-1.1149206,-0.76741493,0.50025362,0.40102407,0
1.131052,-6.5298705,0.46277571,-0.47069594,-0.86427808,0.17739356,0
-7.1272287,-1.4295454,-0.67773867,-0.76741493,0.50025362,0.40102407,0
-3.2122581,-3.5825725,2.5990419,-0.47069594,-0.86427808,0.17739356,0
-0.44863653,4.6170263,4.3345938,-0.76741493,0.50025362,0.40102407,0
2.5108271,-1.7617097,3.3106596,0.4353382,-0.052625656,0.89872742,0
-2.5458469,-3.9295955,2.6686931,-0.47069594,-0.86427808,0.17739356,0
-1.7911658,0.83607578,5.3171186,0.4353382,-0.052625656,0.89872742,0
-0.28604484,5.7935505,-1.279109,0.47069594,0.86427808,-0.17739356,0
0.0074341297,1.0497718,-4.3606615,-0.4353382,0.052625656,-0.89872742,0
-3.4364905,1.3963501,-2.485749,-0.4353382,0.052625656,-0.89872742,0
-3.188834,-2.683805,5.8183317,0.4353382,-0.052625656,0.89872742,0
-0.039301872,-4.5398154,-4.6298056,-0.4353382,0.052625656,-0.89872742,0
-5.0417118,0.56036687,-1.877671,-0.4353382,0.052625656,-0.89872742,0
0.53106999,4.1562076,4.6108856,0.4353382,-0.052625656,0.89872742,0
0.65840292,-5.4292116,-2.7931046,0.76741493,-0.50025362,-0.40102407,0
0.7158767,4.4931173,-4.3306975,0.47069594,0.86427808,-0.17739356,0
4.4158773,-2.0714822,2.3935907,0.4353382,-0.052625656,0.89872742,0
-6.0176802,-1.7747592,2.1071568,-0.76741493,0.50025362,0.40102407,0
4.8733616,-1.0461367,-0.13074362,0.76741493,-0.50025362,-0.40102407,0
4.6192522,0.60134566,-3.1647067,0.76741493,-0.50025362,-0.40102407,0
0.42047399,-0.90792561,4.3876848,0.4353382,-0.052625656,0.89872742,0
1.6159496,-5.6379399,-1.0238092,0.76741493,-0.50025362,-0.40102407,0
-3.2793989,-3.591342,1.4275165,-0.47069594,-0.86427808,0.17739356,0
3.6197352,-2.0425034,-2.1273613,0.76741493,-0.50025362,-0.40102407,0
1.8437793,4.7763457,3.7229195,0.4353382,-0.052625656,0.89872742,0
-3.4358394,-2.8481383,4.5557609,-0.47069594,-0.86427808,0.17739356,0
-3.2130322,-4.1209831,-0.62841368,-0.47069594,-0.86427808,0.17739356,0
-3.6762805,-0.23028898,4.4344358,-0.76741493,0.50025362,0.40102407,0
-7.5293465,-1.6345608,-0.90986919,-0.76741493,0.50025362,0.40102407,0
3.2256694,-4.7309656,0.57845116,0.76741493,-0.50025362,-0.40102407,0
-3.1683173,-1.0586836,-3.0649672,-0.4353382,0.052625656,-0.89872742,0
0.19973135,-4.2265191,-4.6110797,-0.4353382,0.052625656,-0.89872742,0
-1.4263911,6.1040478,-2.5541062,0.47069594,0.86427808,-0.17739356,0
-1.2637564,1.8929243,-3.8308573,-0.4353382,0.052625656,-0.89872742,0
-2.2998264,-4.0315394,1.7110987,-0.47069594,-0.86427808,0.17739356,0
2.2352481,-2.9221241,-3.5361738,0.76741493,-0.50025362,-0.40102407,0
5.2369375,-0.06556046,-1.3886771,0.76741493,-0.50025362,-0.40102407,0
-4.9080944,2.8679254,-1.6095968,-0.76741493,0.50025362,0.40102407,0
1.2131286,-2.947799,-4.7808723,0.76741493,-0.50025362,-0.40102407,0
4.4341288,2.6335516,-4.6545653,0.47069594,0.86427808,-0.17739356,0
1.3870051,4.5715742,-2.8373866,0.47069594,0.86427808,-0.17739356,0
-3.7125058,0.59183884,-2.3985856,-0.4353382,0.052625656,-0.89872742,0
-2.4055047,-4.1555567,0.92207623,-0.47069594,-0.86427808,0.17739356,0
3.8154011,4.0021601,1.1311753,0.47069594,0.86427808,-0.17739356,0
0.91489506,-6.1936011,0.99173069,-0.47069594,-0.86427808,0.17739356,0
-2.1247964,-4.0057926,2.962379,-0.47069594,-0.86427808,0.17739356,0
-2.4917161,-4.7183943,-0.93378592,-0.47069594,-0.86427808,0.17739356,0
6.1469021,2.6404262,-0.097034931,0.47069594,0.86427808,-0.17739356,0
-3.9032822,1.7501926,1.3299847,-0.76741493,0.50025362,0.40102407,0
7.1287656,1.4675368,0.6905489,0.76741493,-0.50025362,-0.40102407,0
-1.1531434,6.4069905,1.1386003,-0.76741493,0.50025362,0.40102407,0
3.5251594,-0.71047306,2.9104781,0.4353382,-0.052625656,0.89872742,0
-1.2127435,-5.889451,-3.4979143,-0.47069594,-0.86427808,0.17739356,0
1.4491334,1.7954555,-5.0512323,-0.4353382,0.052625656,-0.89872742,0
-1.0162417,-4.705523,1.6464219,-0.47069594,-0.86427808,0.17739356,0
4.5352454,-2.8791707,0.68015814,0.76741493,-0.50025362,-0.40102407,0
2.1915808,2.8543868,3.3559422,0.4353382,-0.052625656,0.89872742,0
1.6099818,5.5411968,2.7409625,0.47069594,0.86427808,-0.17739356,0
1.4652605,5.5772667,3.1581271,0.47069594,0.86427808,-0.17739356,0
-1.9384456,-4.0057335,2.9590731,-0.47069594,-0.86427808,0.17739356,0
-3.2996392,2.980412,1.3775508,-0.76741493,0.50025362,0.40102407,0
0.46385002,5.9709225,1.6526389,0.47069594,0.86427808,-0.17739356,0
-1.0820243,-0.18070507,-4.0632162,-0.4353382,0.052625656,-0.89872742,0
3.0602779,0.80570054,2.997231,0.4353382,-0.052625656,0.89872742,0
0.15634441,-6.1191998,-3.5415258,0.76741493,-0.50025362,-0.40102407,0
-1.2862043,4.8554883,2.7964084,-0.76741493,0.50025362,0.40102407,0
-3.3975239,-1.5598133,-2.8783362,-0.4353382,0.052625656,-0.89872742,0
2.5135608,-3.223536,3.1880629,0.4353382,-0.052625656,0.89872742,0
2.03861,-6.4618444,2.3523231,-0.47069594,-0.86427808,0.17739356,0
-2.7645226,2.4138758,2.9298549,-0.76741493,0.50025362,0.40102407,0
0.081150532,3.5561099,4.6114683,0.4353382,-0.052625656,0.89872742,0
3.2660556,-0.20154119,-4.8972235,0.76741493,-0.50025362,-0.40102407,0
-1.411006,0.20530963,-3.5343647,-0.4353382,0.052625656,-0.89872742,0
2.2158842,-3.0015922,-2.8122928,0.76741493,-0.50025362,-0.40102407,0
-5.6731768,-2.9332249,-0.22292614,-0.47069594,-0.86427808,0.17739356,0
1.5394113,-5.9716883,3.277967,-0.47069594,-0.86427808,0.17739356,0
-5.2533584,-2.5120418,3.0622282,-0.47069594,-0.86427808,0.17739356,0
3.5347271,-2.2263291,-1.8705027,0.76741493,-0.50025362,-0.40102407,0
0.52566338,6.0137568,3.2584105,0.47069594,0.86427808,-0.17739356,0
1.1235166,-5.8832736,3.0293989,-0.47069594,-0.86427808,0.17739356,0
-1.7923336,1.349195,5.4374757,0.4353382,-0.052625656,0.89872742,0
-2.0842378,-2.4449887,-3.4115045,-0.4353382,0.052625656,-0.89872742,0
-1.6759591,-3.5985675,5.1814399,-0.47069594,-0.86427808,0.17739356,0
5.8630896,1.3796754,-1.4531274,0.76741493,-0.50025362,-0.40102407,0
-2.204525,6.5034151,-0.71158075,-0.76741493,0.50025362,0.40102407,0
-7.1178269,-1.9857299,-0.9865694,-0.4353382,0.052625656,-0.89872742,0
2.275311,-6.2600951,2.9195056,-0.47069594,-0.86427808,0.17739356,0
-1.0644531,2.0042887,5.0163755,0.4353382,-0.052625656,0.89872742,0
-2.0735641,-5.0212841,-2.5444789,-0.47069594,-0.86427808,0.17739356,0
-3.4798193,-1.4121242,6.1399012,-0.76741493,0.50025362,0.40102407,0
3.2455125,-5.2343674,2.6457281,0.4353382,-0.052625656,0.89872742,0
-4.7079849,-3.8394971,-1.9556832,-0.47069594,-0.86427808,0.17739356,0
-1.6342149,6.0672841,0.35506701,-0.76741493,0.50025362,0.40102407,0
0.65517557,1.4828026,4.117517,0.4353382,-0.052625656,0.89872742,0
-1.8916274,1.7997477,-3.2457201,-0.4353382,0.052625656,-0.89872742,0
-0.55202758,-5.4782395,0.62969494,-0.47069594,-0.86427808,0.17739356,0
5.477603,0.39611101,-1.4755344,0.76741493,-0.50025362,-0.40102407,0
1.5794227,3.6644506,-4.9162836,-0.4353382,0.052625656,-0.89872742,0
3.0767298,2.6062698,3.1326694,0.4353382,-0.052625656,0.89872742,0
4.0194602,-0.49507767,-3.0385134,0.76741493,-0.50025362,-0.40102407,0
3.6408398,3.1425738,2.9984038,0.4353382,-0.052625656,0.89872742,0
-0.090167999,-6.3188987,-3.3707981,-0.47069594,-0.86427808,0.17739356,0
1.9752288,-5.7481685,-0.7066834,0.76741493,-0.50025362,-0.40102407,0
-1.8351469,-4.8103414,-0.95733333,-0.47069594,-0.86427808,0.17739356,0
3.5987775,3.1220057,-3.6727524,0.47069594,0.86427808,-0.17739356,0
0.4612537,-3.7307324,4.189023,0.4353382,-0.052625656,0.89872742,0
2.8128622,4.5693564,2.297225,0.47069594,0.86427808,-0.17739356,0
1.4165313,0.6551075,-5.2180104,-0.4353382,0.052625656,-0.89872742,0
4.0383701,3.7136602,1.1413891,0.47069594,0.86427808,-0.17739356,0
1.7115409,-0.90165377,3.4643047,0.4353382,-0.052625656,0.89872742,0
-3.0558214,1.9581584,3.2245941,-0.76741493,0.50025362,0.40102407,0
2.0583365,5.2115679,3.6320348,0.47069594,0.86427808,-0.17739356,0
2.2121639,-4.5071297,-1.3949852,0.76741493,-0.50025362,-0.40102407,0
-4.2579064,-2.4851084,5.3430815,-0.47069594,-0.86427808,0.17739356,0
1.8205526,5.3469105,1.5846291,0.47069594,0.86427808,-0.17739356,0
3.2004421,4.0774798,-0.049330711,0.47069594,0.86427808,-0.17739356,0
4.4083686,-3.7151203,1.7310612,0.76741493,-0.50025362,-0.40102407,0
3.5040131,-0.75323892,-3.3826809,0.76741493,-0.50025362,-0.40102407,0
-0.39134359,5.8086214,2.7588923,-0.76741493,0.50025362,0.40102407,0
4.0821624,-2.2213366,-1.1280477,0.76741493,-0.50025362,-0.40102407,0
1.7450991,5.0629587,2.1177225,0.47069594,0.86427808,-0.17739356,0
-1.7359397,-5.5986934,-3.8270583,-0.47069594,-0.86427808,0.17739356,0
-3.3879652,5.5723901,-2.3987353,-0.4353382,0.052625656,-0.89872742,0
4.3384933,-3.3393312,1.0453904,0.76741493,-0.50025362,-0.40102407,0
2.520474,-1.4895829,-4.3978271,0.76741493,-0.50025362,-0.40102407,0
1.9863009,-2.6917498,-3.819061,0.76741493,-0.50025362,-0.40102407,0
0.42549729,-2.7161937,-4.7214422,-0.4353382,0.052625656,-0.89872742,0
-0.65088856,-4.6337252,3.698657,-0.47069594,-0.86427808,0.17739356,0
3.1989198,-1.9656425,2.8097293,0.4353382,-0.052625656,0.89872742,0
-2.9987521,1.0251861,-3.0225875,-0.4353382,0.052625656,-0.89872742,0
4.838284,1.940002,2.003144,0.4353382,-0.052625656,0.89872742,0
-3.4875193,-3.0657697,4.0213289,-0.47069594,-0.86427808,0.17739356,0
-3.9747953,-2.274178,5.787714,-0.47069594,-0.86427808,0.17739356,0
-0.67732882,-6.1073151,-3.7051754,-0.47069594,-0.86427808,0.17739356,0
-2.6754649,-4.4159737,-0.71729088,-0.47069594,-0.86427808,0.17739356,0
-1.0241094,5.7639208,2.157289,-0.76741493,0.50025362,0.40102407,0
1.9663064,2.048738,3.4196608,0.4353382,-0.052625656,0.89872742,0
-4.7005949,0.71180272,1.3401423,-0.76741493,0.50025362,0.40102407,0
3.6769753,-1.3342876,-2.5790887,0.76741493,-0.50025362,-0.40102407,0
3.7935777,3.1296782,-3.0019002,0.47069594,0.86427808,-0.17739356,0
0.14107418,-4.3547125,-4.7286053,-0.4353382,0.052625656,-0.89872742,0
-4.9575353,0.66199017,-1.8209734,-0.4353382,0.052625656,-0.89872742,0
3.5440531,2.1052632,3.0649731,0.4353382,-0.052625656,0.89872742,0
4.8589969,3.2835243,0.77136374,0.47069594,0.86427808,-0.17739356,0
5.5750937,-0.56207204,0.21197295,0.76741493,-0.50025362,-0.40102407,0
5.0475817,2.0688767,-4.3166928,0.76741493,-0.50025362,-0.40102407,0
1.1507142,-2.0957916,-5.0785522,-0.4353382,0.052625656,-0.89872742,0
-1.0896077,-4.3119621,3.5546069,-0.47069594,-0.86427808,0.17739356,0
1.5327666,4.386692,-3.619895,0.47069594,0.86427808,-0.17739356,0
-0.072077751,3.9003024,4.7221107,0.4353382,-0.052625656,0.89872742,0
-4.1743603,-3.5128803,0.0036520958,-0.47069594,-0.86427808,0.17739356,0
5.8627801,1.9859775,-2.2228656,0.47069594,0.86427808,-0.17739356,0
3.7215099,-0.686822,-3.4477098,0.76741493,-0.50025362,-0.40102407,0
0.11489391,4.7371831,4.8236432,0.4353382,-0.052625656,0.89872742,0
0.43040037,-1.0774546,-4.8593235,-0.4353382,0.052625656,-0.89872742,0
-3.5678673,4.0004292,-0.96692646,-0.76741493,0.50025362,0.40102407,0
5.2702627,-0.94461811,-0.27363753,0.76741493,-0.50025362,-0.40102407,0
4.152389,2.985306,-2.3469853,0.47069594,0.86427808,-0.17739356,0
3.3589559,-3.7100806,-0.40783936,0.76741493,-0.50025362,-0.40102407,0
5.2042484,2.2823462,-3.39012,0.47069594,0.86427808,-0.17739356,0
-3.0651746,-3.1696525,3.6672325,-0.47069594,-0.86427808,0.17739356,0
-1.8675165,-4.3330727,2.216887,-0.47069594,-0.86427808,0.17739356,0
2.8161988,-0.65920091,-5.4807482,0.76741493,-0.50025362,-0.40102407,0
-1.6830287,5.3799362,1.5508559,-0.76741493,0.50025362,0.40102407,0
-1.5186381,4.66364,2.3233788,-0.76741493,0.50025362,0.40102407,0
2.8572831,-2.5851798,-2.3982861,0.76741493,-0.50025362,-0.40102407,0
1.793311,2.3428993,-5.0906091,-0.4353382,0.052625656,-0.89872742,0
3.4404197,-0.90658021,-3.6504228,0.76741493,-0.50025362,-0.40102407,0
3.1146226,-4.47154,0.22840905,0.76741493,-0.50025362,-0.40102407,0
2.9382951,1.3000858,3.2243228,0.4353382,-0.052625656,0.89872742,0
-4.7960167,-3.4910688,-1.7371075,-0.47069594,-0.86427808,0.17739356,0
-2.4364605,4.707459,-3.1953609,-0.4353382,0.052625656,-0.89872742,0
5.6972752,0.53477556,-0.95066118,0.76741493,-0.50025362,-0.40102407,0
5.6571927,1.0357971,-1.6380448,0.76741493,-0.50025362,-0.40102407,0
0.81607747,-5.7788811,1.9834023,-0.47069594,-0.86427808,0.17739356,0
-0.21925068,5.5871048,-1.6286116,0.47069594,0.86427808,-0.17739356,0
-1.4975237,-5.1420507,-0.66181421,-0.47069594,-0.86427808,0.17739356,0
0.65778923,4.5921984,-3.4321866,0.47069594,0.86427808,-0.17739356,0
0.0052511692,-4.9694147,3.0668583,-0.47069594,-0.86427808,0.17739356,0
1.773087,-5.7409763,-1.0321701,0.76741493,-0.50025362,-0.40102407,0
-5.8902655,-2.6527615,-1.2797723,-0.47069594,-0.86427808,0.17739356,0
1.6489444,4.4638071,-2.8527269,0.47069594,0.86427808,-0.17739356,0
-5.5519013,1.2942755,-1.5259486,-0.4353382,0.052625656,-0.89872742,0
0.65057778,6.0721717,2.7286873,0.47069594,0.86427808,-0.17739356,0
-0.99435592,-5.5963993,-2.8037362,-0.47069594,-0.86427808,0.17739356,0
1.9362764,-6.5559673,1.1887441,-0.47069594,-0.86427808,0.17739356,0
-3.9348195,-3.4189668,-2.7958422,-0.4353382,0.052625656,-0.89872742,0
2.7387118,4.8123617,3.2457774,0.4353382,-0.052625656,0.89872742,0
0.73551488,3.2183142,4.2079487,0.4353382,-0.052625656,0.89872742,0
-3.2960322,-3.0878282,3.2727404,-0.47069594,-0.86427808,0.17739356,0
-1.1345589,-5.6933761,-4.0264277,-0.4353382,0.052625656,-0.89872742,0
4.23035,-2.2508497,-0.16288206,0.76741493,-0.50025362,-0.40102407,0
-3.0772953,2.9481354,1.7783598,-0.76741493,0.50025362,0.40102407,0
-3.7126999,2.518213,0.66784787,-0.76741493,0.50025362,0.40102407,0
5.3145361,-1.2752383,0.52079016,0.76741493,-0.50025362,-0.40102407,0
-3.393466,-4.2228932,-3.0815599,-0.4353382,0.052625656,-0.89872742,0
6.1868553,2.2366707,-0.69049358,0.47069594,0.86427808,-0.17739356,0
4.98627,3.4873605,1.7583442,0.47069594,0.86427808,-0.17739356,0
5.4271312,1.9116204,-3.0752926,0.76741493,-0.50025362,-0.40102407,0
3.8064942,-1.2518203,-2.7667437,0.76741493,-0.50025362,-0.40102407,0
2.5154929,3.7160771,-3.6793108,0.47069594,0.86427808,-0.17739356,0
0.18745208,0.81722164,-4.5915604,-0.4353382,0.052625656,-0.89872742,0
1.1157529,-6.0861368,1.0609579,-0.47069594,-0.86427808,0.17739356,0
-4.9382315,-3.2344258,-1.2309182,-0.47069594,-0.86427808,0.17739356,0
-1.8714349,-1.8866444,5.4345255,0.4353382,-0.052625656,0.89872742,0
-2.5909467,0.54126978,5.147192,-0.76741493,0.50025362,0.40102407,0
4.3427358,-1.8712716,2.4498897,0.4353382,-0.052625656,0.89872742,0
0.87636256,-5.7281933,2.7312493,-0.47069594,-0.86427808,0.17739356,0
-1.3766208,-4.4891748,-3.8359287,-0.4353382,0.052625656,-0.89872742,0
1.7287399,4.1251221,-2.7653403,0.47069594,0.86427808,-0.17739356,0
1.2788879,4.1863246,-3.6549134,0.47069594,0.86427808,-0.17739356,0
3.857141,2.9009857,-3.3438811,0.47069594,0.86427808,-0.17739356,0
-0.58164525,-5.2175164,0.2523427,-0.47069594,-0.86427808,0.17739356,0
-2.2077649,-2.093431,5.1995735,0.4353382,-0.052625656,0.89872742,0
1.8189392,-1.2683434,-5.5525002,-0.4353382,0.052625656,-0.89872742,0
-0.43840873,-5.4545135,1.2226357,-0.47069594,-0.86427808,0.17739356,0
2.4232683,4.2017741,-2.1882367,0.47069594,0.86427808,-0.17739356,0
-3.2743893,-4.2135553,-1.8104188,-0.47069594,-0.86427808,0.17739356,0
-1.016469,1.6884284,-3.695013,-0.4353382,0.052625656,-0.89872742,0
-1.5038404,4.5294809,2.6149735,-0.76741493,0.50025362,0.40102407,0
3.8635583,-4.7140546,1.7850518,0.76741493,-0.50025362,-0.40102407,0
-2.6930056,1.4711143,4.4759226,-0.76741493,0.50025362,0.40102407,0
-2.8519335,1.4798135,4.2196913,-0.76741493,0.50025362,0.40102407,0
-0.32773638,-6.4240427,-2.9624035,-0.47069594,-0.86427808,0.17739356,0
1.8789716,2.1896939,3.4574161,0.4353382,-0.052625656,0.89872742,0
3.3455758,-3.0687721,-0.56954545,0.76741493,-0.50025362,-0.40102407,0
2.8297086,-1.9337187,-3.5797005,0.76741493,-0.50025362,-0.40102407,0
-0.23773861,5.1345491,-3.7897406,0.47069594,0.86427808,-0.17739356,0
4.7792864,-1.7890751,1.979023,0.4353382,-0.052625656,0.89872742,0
-0.1084969,-4.8402462,3.3219686,-0.47069594,-0.86427808,0.17739356,0
-4.5314322,-2.8016326,2.7068591,-0.47069594,-0.86427808,0.17739356,0
-2.4255741,2.4812083,-3.3464122,-0.4353382,0.052625656,-0.89872742,0
3.1184409,3.5279281,-3.1709447,0.47069594,0.86427808,-0.17739356,0
-2.8390584,4.6449494,0.16033363,-0.76741493,0.50025362,0.40102407,0
-3.4783525,2.9472959,1.2820201,-0.76741493,0.50025362,0.40102407,0
-0.99710351,0.7928772,-3.8791423,-0.4353382,0.052625656,-0.89872742,0
-3.2291265,-3.8254099,-2.972755,-0.4353382,0.052625656,-0.89872742,0
-2.1877527,-4.7579255,-0.45629835,-0.47069594,-0.86427808,0.17739356,0
0.51275921,-5.8534598,1.0069132,-0.47069594,-0.86427808,0.17739356,0
1.7118478,4.9775252,4.0022945,0.4353382,-0.052625656,0.89872742,0
-3.9465952,-3.8553178,-1.5436473,-0.47069594,-0.86427808,0.17739356,0
-5.2054253,-2.9394658,-0.96616864,-0.47069594,-0.86427808,0.17739356,0
2.2876472,-2.2466893,3.2918057,0.4353382,-0.052625656,0.89872742,0
4.4734502,-1.8433051,-0.0044693351,0.76741493,-0.50025362,-0.40102407,0
2.4390984,-4.8815413,-0.66316628,0.76741493,-0.50025362,-0.40102407,0
-3.823667,1.4904222,1.6168919,-0.76741493,0.50025362,0.40102407,0
-4.9258747,-1.2351682,3.7579126,-0.76741493,0.50025362,0.40102407,0
-1.6555259,-4.6607299,1.5291023,-0.47069594,-0.86427808,0.17739356,0
-3.7675319,-3.639693,-2.9005837,-0.4353382,0.052625656,-0.89872742,0
-1.1514447,-1.2393918,4.7262974,0.4353382,-0.052625656,0.89872742,0
0.14016151,5.3742309,4.3602037,-0.76741493,0.50025362,0.40102407,0
6.6266074,1.2209754,-0.02881813,0.76741493,-0.50025362,-0.40102407,0
-3.521976,1.0566185,3.1306834,-0.76741493,0.50025362,0.40102407,0
1.1718209,4.5268183,-3.105525,0.47069594,0.86427808,-0.17739356,0
2.1428673,-3.3577654,2.9989617,0.4353382,-0.052625656,0.89872742,0
-3.7943997,0.12546921,3.3728676,-0.76741493,0.50025362,0.40102407,0
-0.78753519,-4.0489135,-4.2170248,-0.4353382,0.052625656,-0.89872742,0
-2.5420585,-4.1545315,1.3487711,-0.47069594,-0.86427808,0.17739356,0
-0.34060192,5.8795533,3.0823984,-0.76741493,0.50025362,0.40102407,0
2.0575309,-6.300807,2.0821815,-0.47069594,-0.86427808,0.17739356,0
-1.0004187,6.4420886,1.0485427,0.47069594,0.86427808,-0.17739356,0
-1.6933653,-5.0130043,0.072029591,-0.47069594,-0.86427808,0.17739356,0
5.148489,-0.59633255,-0.40211082,0.76741493,-0.50025362,-0.40102407,0
-1.1643841,-0.48699427,-3.7958546,-0.4353382,0.052625656,-0.89872742,0
0.29713869,5.3231583,-2.5724859,0.47069594,0.86427808,-0.17739356,0
2.3742189,2.8789697,-5.2228594,-0.4353382,0.052625656,-0.89872742,0
0.851717,-2.8794751,-5.140234,-0.4353382,0.052625656,-0.89872742,0
3.7029333,3.6800933,0.65370846,0.47069594,0.86427808,-0.17739356,0
-4.5958977,1.7730594,0.46397746,-0.76741493,0.50025362,0.40102407,0
3.9454374,0.99657273,-5.3916378,0.76741493,-0.50025362,-0.40102407,0
-2.9313588,6.1842203,-1.6179099,-0.76741493,0.50025362,0.40102407,0
4.1923399,3.6893282,1.6677055,0.47069594,0.86427808,-0.17739356,0
2.0796318,-1.2275465,-5.4927535,-0.4353382,0.052625656,-0.89872742,0
2.3312688,-6.5919704,1.6166706,0.76741493,-0.50025362,-0.40102407,0
1.9857833,-0.58528376,3.4380209,0.4353382,-0.052625656,0.89872742,0
-4.4113398,0.5098359,1.9408455,-0.76741493,0.50025362,0.40102407,0
-1.7034068,5.2283163,1.0263236,-0.76741493,0.50025362,0.40102407,0
0.89496827,-4.8852162,3.730401,0.4353382,-0.052625656,0.89872742,0
0.055386066,0.43255663,4.389607,0.4353382,-0.052625656,0.89872742,0
2.7712641,-1.8367066,-3.6643844,0.76741493,-0.50025362,-0.40102407,0
2.6197252,-1.0797157,3.1789238,0.4353382,-0.052625656,0.89872742,0
-2.7867079,1.0192366,4.3714495,-0.76741493,0.50025362,0.40102407,0
-4.2886109,2.8110664,-0.66440511,-0.76741493,0.50025362,0.40102407,0
2.7263629,2.2285562,3.0813644,0.4353382,-0.052625656,0.89872742,0
1.4644589,-3.3015685,-4.7669988,0.76741493,-0.50025362,-0.40102407,0
0.49148107,-5.9991751,0.70827246,-0.47069594,-0.86427808,0.17739356,0
-3.5098112,-3.3564365,-2.8459735,-0.4353382,0.052625656,-0.89872742,0
0.014724255,-5.055882,-4.7724586,0.76741493,-0.50025362,-0.40102407,0
0.61415267,0.87236834,-4.5940638,-0.4353382,0.052625656,-0.89872742,0
1.3833976,2.0328226,-5.1004591,-0.4353382,0.052625656,-0.89872742,0
3.7923615,3.4999561,-1.3271995,0.47069594,0.86427808,-0.17739356,0
-1.1993918,-5.6505098,-3.2353966,-0.47069594,-0.86427808,0.17739356,0
6.5276122,0.21530938,1.0715623,0.76741493,-0.50025362,-0.40102407,0
3.796989,3.1538804,-2.0210867,0.47069594,0.86427808,-0.17739356,0
3.0624375,3.7999132,-2.0055089,0.47069594,0.86427808,-0.17739356,0
-1.6111478,-3.7615175,5.0107117,-0.47069594,-0.86427808,0.17739356,0
-2.5514297,5.5944781,-2.9824045,-0.4353382,0.052625656,-0.89872742,0
5.5597534,0.16183233,-1.0648823,0.76741493,-0.50025362,-0.40102407,0
