-2.6045756,1.9606481,-5.9355803,0.15948284,-0.18136039,-0.97039866,0
2.6348379,-5.3440757,-0.0054078102,-0.11561909,-0.97964668,0.16408694,0
0.52486694,-5.8815069,-3.2450788,-0.11561909,-0.97964668,0.16408694,0
1.8562896,4.7233777,-1.3281178,0.11561909,0.97964668,-0.16408694,0
0.17436695,-3.2081497,-4.4870238,0.15948284,-0.18136039,-0.97039866,0
-1.1928768,4.7123485,-3.7915401,0.11561909,0.97964668,-0.16408694,0
-1.6629906,4.3469048,-6.192986,0.11561909,0.97964668,-0.16408694,0
2.1448727,-5.7515841,-1.9555569,-0.11561909,-0.97964668,0.16408694,0
3.1683667,3.2043848,4.9974422,-0.15948284,0.18136039,0.97039866,0
-0.65945911,-1.3287261,5.184083,-0.15948284,0.18136039,0.97039866,0
3.6807094,-1.3979318,2.472898,0.98040676,-0.086027503,0.17720559,0
3.8154283,-3.8157628,0.10661983,0.98040676,-0.086027503,0.17720559,0
2.8528275,1.7657621,-4.8152189,0.15948284,-0.18136039,-0.97039866,0
-4.2917404,-3.735153,4.4280095,-0.11561909,-0.97964668,0.16408694,0
-1.2265186,-5.3160291,-2.1713238,-0.11561909,-0.97964668,0.16408694,0
-3.8206782,-4.1309133,4.1276655,-0.11561909,-0.97964668,0.16408694,0
-0.32300794,5.4469495,2.5868909,0.11561909,0.97964668,-0.16408694,0
3.7849221,4.5956521,0.31263256,0.11561909,0.97964668,-0.16408694,0
3.1216855,-2.9732056,4.817584,0.98040676,-0.086027503,0.17720559,0
1.9034343,2.0627506,5.2528839,-0.15948284,0.18136039,0.97039866,0
0.54562473,3.9848146,-5.764677,0.15948284,-0.18136039,-0.97039866,0
0.13775063,4.2041321,-5.8237858,0.11561909,0.97964668,-0.16408694,0
3.2011938,-1.9511099,3.2624047,0.98040676,-0.086027503,0.17720559,0
3.5971961,1.9900103,3.8956733,0.98040676,-0.086027503,0.17720559,0
-3.5960803,0.60756397,4.5440946,-0.15948284,0.18136039,0.97039866,0
2.5021582,-5.2679901,1.8446121,-0.11561909,-0.97964668,0.16408694,0
-4.1713428,-4.165555,3.5065565,-0.11561909,-0.97964668,0.16408694,0
2.7967083,-5.6385579,-0.25795317,-0.11561909,-0.97964668,0.16408694,0
4.9548182,3.788749,-4.5313096,0.11561909,0.97964668,-0.16408694,0
3.7800989,2.6868098,3.0221436,0.98040676,-0.086027503,0.17720559,0
3.8477283,-1.8512444,-0.26294899,0.98040676,-0.086027503,0.17720559,0
-2.1506596,-4.746182,1.0981798,-0.11561909,-0.97964668,0.16408694,0
2.0788937,0.11511064,-4.6876884,0.15948284,-0.18136039,-0.97039866,0
1.6685057,-1.3931633,5.8565931,-0.15948284,0.18136039,0.97039866,0
3.5600514,1.4586153,-4.9533558,0.15948284,-0.18136039,-0.97039866,0
0.3233285,-4.3555446,3.7560353,-0.11561909,-0.97964668,0.16408694,0
0.77218723,4.3459444,-4.3837595,0.11561909,0.97964668,-0.16408694,0
3.1907375,-1.3022335,4.8804483,0.98040676,-0.086027503,0.17720559,0
0.66641152,5.3082256,1.4330807,0.11561909,0.97964668,-0.16408694,0
-0.49965739,-5.5653701,-3.0888631,-0.11561909,-0.97964668,0.16408694,0
-0.11254644,-2.9728329,-4.6637297,0.15948284,-0.18136039,-0.97039866,0
1.6523585,-4.5213223,3.8733325,-0.11561909,-0.97964668,0.16408694,0
0.15229893,3.08038,4.6775389,-0.15948284,0.18136039,0.97039866,0
-2.1971235,-5.1814723,-2.835258,-0.11561909,-0.97964668,0.16408694,0
4.2888269,4.4227381,-0.52005124,0.11561909,0.97964668,-0.16408694,0
0.91942286,-4.9039364,1.8133082,-0.11561909,-0.97964668,0.16408694,0
-1.7524502,-5.3711014,-2.3114483,-0.11561909,-0.97964668,0.16408694,0
2.7977839,-5.5040464,-0.71925592,-0.11561909,-0.97964668,0.16408694,0
4.4232388,2.0445304,-1.5166216,0.98040676,-0.086027503,0.17720559,0
2.2901385,-5.6287889,-3.797277,0.15948284,-0.18136039,-0.97039866,0
4.5636806,-1.6456637,-2.6311569,0.98040676,-0.086027503,0.17720559,0
0.58045214,-5.3459716,-1.0624309,-0.11561909,-0.97964668,0.16408694,0
-3.8857458,3.57427,0.7749896,-0.98040676,0.086027503,-0.17720559,0
1.6039014,-3.7673945,6.1700616,-0.15948284,0.18136039,0.97039866,0
2.3899932,-5.5885525,-3.8296757,0.15948284,-0.18136039,-0.97039866,0
1.9224339,-4.6476641,3.4435925,-0.11561909,-0.97964668,0.16408694,0
2.8921595,-5.2960663,-3.6778789,0.15948284,-0.18136039,-0.97039866,0
-1.0948271,-5.086463,-1.7264421,-0.11561909,-0.97964668,0.16408694,0
-1.7206657,3.9797537,4.1722622,-0.15948284,0.18136039,0.97039866,0
-4.298995,-3.7163424,5.31883,-0.15948284,0.18136039,0.97039866,0
-3.2530513,3.74347,-1.6371131,-0.98040676,0.086027503,-0.17720559,0
-4.4173903,2.6942639,3.0454228,-0.98040676,0.086027503,-0.17720559,0
0.85987949,1.8621918,-5.3847504,0.15948284,-0.18136039,-0.97039866,0
-4.3841357,1.7081795,2.4245443,-0.98040676,0.086027503,-0.17720559,0
-0.22320175,0.48925561,-5.311439,0.15948284,-0.18136039,-0.97039866,0
-4.678772,0.87602615,3.7747357,-0.98040676,0.086027503,-0.17720559,0
-4.7032175,0.0057840347,2.8076515,-0.98040676,0.086027503,-0.17720559,0
-3.6753089,-1.9625667,-2.7235394,-0.98040676,0.086027503,-0.17720559,0
-3.357847,-0.79061329,-4.9098597,-0.98040676,0.086027503,-0.17720559,0
-2.8062832,-4.40095,2.0687199,-0.11561909,-0.97964668,0.16408694,0
3.4924271,0.0055575371,2.2202392,0.98040676,-0.086027503,0.17720559,0
2.5249329,-5.6904531,-0.71221781,-0.11561909,-0.97964668,0.16408694,0
3.6501632,-1.6918263,2.4011478,0.98040676,-0.086027503,0.17720559,0
-3.2269537,-4.8990955,-0.82300591,-0.11561909,-0.97964668,0.16408694,0
-3.4613624,-4.7614756,-4.6504774,0.15948284,-0.18136039,-0.97039866,0
3.1086287,4.8414912,-0.29547405,0.11561909,0.97964668,-0.16408694,0
-1.8502569,-2.3830421,5.4724607,-0.15948284,0.18136039,0.97039866,0
-0.89984941,5.8419442,3.8606341,-0.15948284,0.18136039,0.97039866,0
0.042211533,-3.4302299,-4.4727921,0.15948284,-0.18136039,-0.97039866,0
3.727283,2.5916357,3.9478168,0.98040676,-0.086027503,0.17720559,0
-0.54986668,-0.5415656,-5.3129978,0.15948284,-0.18136039,-0.97039866,0
-1.5807214,4.8155107,-2.1915469,0.11561909,0.97964668,-0.16408694,0
2.2039547,4.6531172,-1.8942857,0.11561909,0.97964668,-0.16408694,0
-0.63507318,4.4593582,-4.2595029,0.11561909,0.97964668,-0.16408694,0
-0.71566361,5.317471,1.5011191,0.11561909,0.97964668,-0.16408694,0
-3.2947483,-0.03152442,-5.1812172,-0.98040676,0.086027503,-0.17720559,0
-0.4811492,4.3693228,-5.0755229,0.11561909,0.97964668,-0.16408694,0
-4.8336411,-4.1156049,1.8806956,-0.11561909,-0.97964668,0.16408694,0
4.2979064,3.8566229,-0.44673729,0.98040676,-0.086027503,0.17720559,0
-1.5516391,-1.6544037,-5.196702,0.15948284,-0.18136039,-0.97039866,0
-1.749136,-5.4896631,-3.3064713,-0.11561909,-0.97964668,0.16408694,0
2.5695992,-0.96229458,-4.6877623,0.15948284,-0.18136039,-0.97039866,0
-0.75161278,5.5992656,2.2733974,0.11561909,0.97964668,-0.16408694,0
-3.0022588,-3.7828827,5.366591,-0.15948284,0.18136039,0.97039866,0
-2.4436779,-4.6346097,1.2603598,-0.11561909,-0.97964668,0.16408694,0
4.1837878,-0.78015423,-1.4342936,0.98040676,-0.086027503,0.17720559,0
-3.1318812,2.6864047,-4.3368363,-0.98040676,0.086027503,-0.17720559,0
-2.8137755,2.3834398,-4.8162007,-0.98040676,0.086027503,-0.17720559,0
0.50260377,-3.7581007,-4.2751484,0.15948284,-0.18136039,-0.97039866,0
4.465158,-1.4714603,-2.1421919,0.98040676,-0.086027503,0.17720559,0
3.8844826,0.86542058,1.9863069,0.98040676,-0.086027503,0.17720559,0
-3.780725,-3.5507903,5.3103032,-0.15948284,0.18136039,0.97039866,0
-1.5278659,-4.1299138,4.8739529,-0.11561909,-0.97964668,0.16408694,0
1.7336931,5.1976242,4.5027924,-0.15948284,0.18136039,0.97039866,0
-1.725913,-3.6093359,-4.5892243,0.15948284,-0.18136039,-0.97039866,0
2.5870733,0.49236965,-4.7013092,0.15948284,-0.18136039,-0.97039866,0
3.7430897,0.87541819,2.1475992,0.98040676,-0.086027503,0.17720559,0
2.8248515,4.2393532,-3.8219945,0.11561909,0.97964668,-0.16408694,0
-3.1634877,-0.41370535,-4.9737444,-0.98040676,0.086027503,-0.17720559,0
4.0966744,-3.5915656,-2.9264107,0.98040676,-0.086027503,0.17720559,0
-4.0243502,-2.9262733,-2.8399312,-0.98040676,0.086027503,-0.17720559,0
-0.78939748,-4.4066696,2.5059934,-0.11561909,-0.97964668,0.16408694,0
-0.40564561,-4.557653,-4.4445152,0.15948284,-0.18136039,-0.97039866,0
1.3005466,-4.4654422,4.8936806,-0.11561909,-0.97964668,0.16408694,0
1.4146957,1.0606941,5.3324995,-0.15948284,0.18136039,0.97039866,0
2.3253081,-5.6619191,-2.3670058,-0.11561909,-0.97964668,0.16408694,0
-1.6144514,-1.1525264,-5.0283113,0.15948284,-0.18136039,-0.97039866,0
0.11431217,-2.6153579,5.860136,-0.15948284,0.18136039,0.97039866,0
3.6529865,-5.9353509,-2.9952416,-0.11561909,-0.97964668,0.16408694,0
4.1623621,-0.73078728,-1.692533,0.98040676,-0.086027503,0.17720559,0
0.92309237,4.8472385,-1.009974,0.11561909,0.97964668,-0.16408694,0
1.7130302,-5.1312675,0.25593901,-0.11561909,-0.97964668,0.16408694,0
4.1867399,-1.1085095,-1.7960434,0.98040676,-0.086027503,0.17720559,0
3.1267123,0.11445653,5.3082614,0.98040676,-0.086027503,0.17720559,0
-1.0064511,-0.31196833,4.9433594,-0.15948284,0.18136039,0.97039866,0
5.0287681,3.8810279,-4.8864422,0.11561909,0.97964668,-0.16408694,0
-1.3888409,-4.8166285,0.17222691,-0.11561909,-0.97964668,0.16408694,0
3.139483,-5.6513715,-0.21586323,-0.11561909,-0.97964668,0.16408694,0
3.6138926,-4.4268045,0.11029196,0.98040676,-0.086027503,0.17720559,0
3.979115,-5.5755434,-2.4727883,0.98040676,-0.086027503,0.17720559,0
-3.37218,-4.7485318,-4.7289834,0.15948284,-0.18136039,-0.97039866,0
-0.96260202,-5.4351335,-3.488452,-0.11561909,-0.97964668,0.16408694,0
-1.3136735,4.3608179,-5.2521081,0.11561909,0.97964668,-0.16408694,0
-0.83317518,2.2056499,-5.9044747,0.15948284,-0.18136039,-0.97039866,0
-1.9893144,5.9531193,3.3378897,0.11561909,0.97964668,-0.16408694,0
2.8582344,4.0831957,-5.2308531,0.11561909,0.97964668,-0.16408694,0
-0.35675693,-5.0205126,-4.4751725,0.15948284,-0.18136039,-0.97039866,0
4.5080976,2.5257986,-2.2029223,0.98040676,-0.086027503,0.17720559,0
-4.6595163,-3.9853334,4.3762302,-0.11561909,-0.97964668,0.16408694,0
-4.2827153,-4.5636659,0.70640039,-0.11561909,-0.97964668,0.16408694,0
2.1553636,-1.4838492,5.5959473,-0.15948284,0.18136039,0.97039866,0
-0.8572731,-1.1309738,-5.2537236,0.15948284,-0.18136039,-0.97039866,0
-2.4744866,-5.3938208,-2.8382826,-0.11561909,-0.97964668,0.16408694,0
-4.3534741,-2.785661,1.0578618,-0.98040676,0.086027503,-0.17720559,0
-0.36960936,0.96671546,-5.3397589,0.15948284,-0.18136039,-0.97039866,0
-3.5136378,2.7825637,-1.8174217,-0.98040676,0.086027503,-0.17720559,0
1.0738435,-5.2180858,1.2436714,-0.11561909,-0.97964668,0.16408694,0
3.4927492,-3.6536484,0.48949051,0.98040676,-0.086027503,0.17720559,0
-0.068931341,5.5921078,4.0007286,-0.15948284,0.18136039,0.97039866,0
0.77030015,-3.875597,-4.4869328,0.15948284,-0.18136039,-0.97039866,0
1.7476835,-5.8551807,-2.5539293,-0.11561909,-0.97964668,0.16408694,0
-3.9510431,2.5845869,0.15967655,-0.98040676,0.086027503,-0.17720559,0
3.3599627,2.6760323,5.0015345,-0.15948284,0.18136039,0.97039866,0
-4.989871,-1.2612243,3.7334404,-0.98040676,0.086027503,-0.17720559,0
4.2137885,2.8793344,0.95623636,0.98040676,-0.086027503,0.17720559,0
-3.9722788,-4.5463629,0.68953991,-0.11561909,-0.97964668,0.16408694,0
-1.1896458,-5.2702193,-4.4307098,0.15948284,-0.18136039,-0.97039866,0
-4.6479454,-0.38054132,4.0214782,-0.98040676,0.086027503,-0.17720559,0
3.8119013,-4.5353079,-0.39902306,0.98040676,-0.086027503,0.17720559,0
3.022989,5.2305636,2.8293409,0.11561909,0.97964668,-0.16408694,0
-5.1340523,-3.1637764,3.8679409,-0.98040676,0.086027503,-0.17720559,0
3.2864997,1.9783947,4.8290801,0.98040676,-0.086027503,0.17720559,0
-4.3863697,3.5546551,2.8397975,-0.98040676,0.086027503,-0.17720559,0
3.7492871,-5.1209221,-0.12684774,0.98040676,-0.086027503,0.17720559,0
-1.7692914,1.0871189,4.5377889,-0.15948284,0.18136039,0.97039866,0
-3.1277988,2.5058241,4.2959619,-0.15948284,0.18136039,0.97039866,0
1.9196153,2.48084,-5.1946745,0.15948284,-0.18136039,-0.97039866,0
3.5421138,-5.8428049,-3.5698743,0.15948284,-0.18136039,-0.97039866,0
0.4810977,-5.0573778,0.93847466,-0.11561909,-0.97964668,0.16408694,0
3.4894605,2.4720974,3.4301574,0.98040676,-0.086027503,0.17720559,0
1.5779653,5.2068486,2.1010129,0.11561909,0.97964668,-0.16408694,0
2.5314083,-4.8602471,3.2410436,-0.11561909,-0.97964668,0.16408694,0
2.7869787,-0.47584438,5.7074842,-0.15948284,0.18136039,0.97039866,0
-2.7775326,1.2840829,4.4276791,-0.15948284,0.18136039,0.97039866,0
3.4919891,4.5464272,4.7806263,0.98040676,-0.086027503,0.17720559,0
4.7933211,0.88321924,-3.1075854,0.98040676,-0.086027503,0.17720559,0
4.9687395,3.6589847,-3.1069393,0.98040676,-0.086027503,0.17720559,0
-0.97874665,5.9623184,4.0276623,0.11561909,0.97964668,-0.16408694,0
-3.0547616,4.0180526,-3.1637306,-0.98040676,0.086027503,-0.17720559,0
-4.5157461,-2.595819,0.18339956,-0.98040676,0.086027503,-0.17720559,0
-3.7703254,1.2523484,4.1124506,-0.15948284,0.18136039,0.97039866,0
3.6763701,-2.2950487,-4.2034569,0.15948284,-0.18136039,-0.97039866,0
-1.6281755,4.7246518,3.8451436,-0.15948284,0.18136039,0.97039866,0
4.7290864,1.2118254,-2.6691396,0.98040676,-0.086027503,0.17720559,0
-2.6902943,4.4467793,-4.802289,0.11561909,0.97964668,-0.16408694,0
-4.7387834,-1.8298292,3.8457174,-0.98040676,0.086027503,-0.17720559,0
4.6836581,2.8875387,-1.7026515,0.98040676,-0.086027503,0.17720559,0
-3.7643793,-5.0042048,-1.5927293,-0.11561909,-0.97964668,0.16408694,0
-1.2079434,-0.98805898,-5.1685367,0.15948284,-0.18136039,-0.97039866,0
3.4849753,-2.8363996,-3.855104,0.15948284,-0.18136039,-0.97039866,0
0.89848089,2.4854732,-5.5772786,0.15948284,-0.18136039,-0.97039866,0
-4.7375798,-2.8836973,1.8319885,-0.98040676,0.086027503,-0.17720559,0
0.95145845,-3.7041359,6.1495314,-0.15948284,0.18136039,0.97039866,0
4.6166029,0.94064665,-4.504499,0.15948284,-0.18136039,-0.97039866,0
-1.5011272,0.90551877,4.5734444,-0.15948284,0.18136039,0.97039866,0
0.85597467,3.1957839,-5.4709163,0.15948284,-0.18136039,-0.97039866,0
-4.0319948,-3.9158056,4.3971825,-0.11561909,-0.97964668,0.16408694,0
-1.806981,5.5782242,1.7267838,0.11561909,0.97964668,-0.16408694,0
1.6153774,-0.24846901,5.567626,-0.15948284,0.18136039,0.97039866,0
-3.9141893,-2.3658178,-2.3331347,-0.98040676,0.086027503,-0.17720559,0
-3.7596233,-4.7257686,-1.0255761,-0.11561909,-0.97964668,0.16408694,0
2.3425736,2.3896418,5.211894,-0.15948284,0.18136039,0.97039866,0
4.5010657,-1.5322495,-2.6329575,0.98040676,-0.086027503,0.17720559,0
1.5350013,5.0219364,4.3851876,-0.15948284,0.18136039,0.97039866,0
1.6407201,5.2715683,3.1755936,0.11561909,0.97964668,-0.16408694,0
-2.1341672,-0.93606097,-5.483448,0.15948284,-0.18136039,-0.97039866,0
-3.0526927,-0.0148772,-4.8592963,-0.98040676,0.086027503,-0.17720559,0
-3.466538,-2.0730748,-4.2075744,-0.98040676,0.086027503,-0.17720559,0
-3.5141425,2.9150498,-1.0317044,-0.98040676,0.086027503,-0.17720559,0
-5.120717,-2.2177944,4.34238,-0.98040676,0.086027503,-0.17720559,0
-3.9541495,-4.8093843,-0.90172505,-0.11561909,-0.97964668,0.16408694,0
-0.074572444,-5.1439185,-0.026463509,-0.11561909,-0.97964668,0.16408694,0
-3.2573543,0.87087917,4.327137,-0.15948284,0.18136039,0.97039866,0
1.9820247,-0.3172667,-4.972558,0.15948284,-0.18136039,-0.97039866,0
-1.9991554,-4.6497016,0.86615849,-0.11561909,-0.97964668,0.16408694,0
3.795289,-4.8256612,-0.21540594,0.98040676,-0.086027503,0.17720559,0
-3.8722751,5.8804684,1.674643,-0.98040676,0.086027503,-0.17720559,0
-2.5101409,-2.6581359,5.1168509,-0.15948284,0.18136039,0.97039866,0
1.0454749,5.4971471,1.9240375,0.11561909,0.97964668,-0.16408694,0
-3.155724,-0.25109124,-5.4460831,-0.98040676,0.086027503,-0.17720559,0
2.0385237,-3.3655267,-4.2598877,0.15948284,-0.18136039,-0.97039866,0
3.9053068,2.0087523,-4.7212334,0.15948284,-0.18136039,-0.97039866,0
3.2463369,1.7435374,4.5934105,0.98040676,-0.086027503,0.17720559,0
-1.1347468,5.2209806,3.9910989,-0.15948284,0.18136039,0.97039866,0
0.95607948,0.90862393,-4.9631929,0.15948284,-0.18136039,-0.97039866,0
-1.4985726,4.2364416,3.9667306,-0.15948284,0.18136039,0.97039866,0
1.2381747,-4.7001023,2.2015543,-0.11561909,-0.97964668,0.16408694,0
-0.23184156,2.8748174,-5.5561757,0.15948284,-0.18136039,-0.97039866,0
0.2015686,4.4180918,-4.3023033,0.11561909,0.97964668,-0.16408694,0
-2.410547,-4.0815263,-4.829957,0.15948284,-0.18136039,-0.97039866,0
4.6461382,-0.22277832,-3.9448371,0.98040676,-0.086027503,0.17720559,0
2.5087495,-5.4969926,-0.24456739,-0.11561909,-0.97964668,0.16408694,0
1.9976195,5.0527616,-0.036428452,0.11561909,0.97964668,-0.16408694,0
-4.344645,-2.9363222,0.18065894,-0.98040676,0.086027503,-0.17720559,0
-2.1121788,5.7146101,3.8983309,-0.15948284,0.18136039,0.97039866,0
-3.7658532,-3.443646,-3.4934449,-0.98040676,0.086027503,-0.17720559,0
2.3150005,1.0346055,-4.798192,0.15948284,-0.18136039,-0.97039866,0
-0.60566401,-4.6716299,0.99886799,-0.11561909,-0.97964668,0.16408694,0
4.2695079,-1.1665645,-4.4087768,0.15948284,-0.18136039,-0.97039866,0
-1.0122626,5.7215137,1.7633128,0.11561909,0.97964668,-0.16408694,0
2.8837409,-4.5780578,-3.9454241,0.15948284,-0.18136039,-0.97039866,0
1.3228309,-3.1066294,-4.4530554,0.15948284,-0.18136039,-0.97039866,0
-0.69303656,5.5305653,1.7406006,0.11561909,0.97964668,-0.16408694,0
1.1576887,5.1481829,0.74416828,0.11561909,0.97964668,-0.16408694,0
3.5893245,-1.1079268,2.2152517,0.98040676,-0.086027503,0.17720559,0
0.030050755,4.7126493,4.4034853,-0.15948284,0.18136039,0.97039866,0
-1.1589797,-5.138104,-4.3066669,0.15948284,-0.18136039,-0.97039866,0
-1.3079638,5.4201598,2.049655,0.11561909,0.97964668,-0.16408694,0
-3.2589388,1.9297428,-3.6514671,-0.98040676,0.086027503,-0.17720559,0
1.0734639,-3.4421234,5.856699,-0.15948284,0.18136039,0.97039866,0
4.2961893,-4.5248971,-2.4100909,0.98040676,-0.086027503,0.17720559,0
3.613997,-3.552108,-0.19469738,0.98040676,-0.086027503,0.17720559,0
-4.0142431,0.975564,0.21305275,-0.98040676,0.086027503,-0.17720559,0
-1.2584674,-5.3525772,-3.1598973,-0.11561909,-0.97964668,0.16408694,0
4.5926299,0.0061292648,-3.2470164,0.98040676,-0.086027503,0.17720559,0
-4.335371,-2.3587987,0.96044552,-0.98040676,0.086027503,-0.17720559,0
-3.9865832,0.33115673,-1.1459666,-0.98040676,0.086027503,-0.17720559,0
-1.8212948,-2.4763131,5.510397,-0.15948284,0.18136039,0.97039866,0
1.816787,-5.0882912,2.3541851,-0.11561909,-0.97964668,0.16408694,0
0.807827,-2.2268286,5.8499022,-0.15948284,0.18136039,0.97039866,0
-2.8946121,-4.1197295,-4.9959412,0.15948284,-0.18136039,-0.97039866,0
-2.2111921,-1.7279241,-5.0602231,0.15948284,-0.18136039,-0.97039866,0
-3.022193,4.232203,-4.5834999,-0.98040676,0.086027503,-0.17720559,0
-2.9313736,1.3889499,4.6134591,-0.15948284,0.18136039,0.97039866,0
3.518378,-3.6906681,-3.9739418,0.15948284,-0.18136039,-0.97039866,0
3.6505325,4.9884558,1.7019656,0.11561909,0.97964668,-0.16408694,0
1.7015886,-5.6891742,-2.2140322,-0.11561909,-0.97964668,0.16408694,0
2.1075735,4.6433377,-1.9923918,0.11561909,0.97964668,-0.16408694,0
3.9538403,-5.8432055,-3.2151814,0.98040676,-0.086027503,0.17720559,0
0.16653001,-5.6846409,-2.7578425,-0.11561909,-0.97964668,0.16408694,0
-1.2812395,3.7286108,-6.0050106,0.15948284,-0.18136039,-0.97039866,0
4.8682809,3.3832755,-4.8182592,0.15948284,-0.18136039,-0.97039866,0
-4.8573265,-1.0569234,4.2596412,-0.98040676,0.086027503,-0.17720559,0
-4.0919833,-3.3092279,-1.5282754,-0.98040676,0.086027503,-0.17720559,0
-0.57227707,4.4592037,-4.7287517,0.11561909,0.97964668,-0.16408694,0
1.5675972,4.6852212,4.4152412,-0.15948284,0.18136039,0.97039866,0
4.0342665,4.6408119,0.86932373,0.11561909,0.97964668,-0.16408694,0
3.1473875,-2.8487,4.6299448,0.98040676,-0.086027503,0.17720559,0
-4.531827,-1.9741659,1.6088181,-0.98040676,0.086027503,-0.17720559,0
4.088315,3.9759359,-4.8307438,0.11561909,0.97964668,-0.16408694,0
-3.4639695,1.2484303,-2.7579072,-0.98040676,0.086027503,-0.17720559,0
1.0044808,0.023376703,-4.9933519,0.15948284,-0.18136039,-0.97039866,0
0.067605972,3.896121,-5.7302604,0.15948284,-0.18136039,-0.97039866,0
1.4912887,0.9082799,5.4059877,-0.15948284,0.18136039,0.97039866,0
2.1778345,-3.6143909,6.1985617,-0.15948284,0.18136039,0.97039866,0
0.8314538,-1.4609369,-4.9167838,0.15948284,-0.18136039,-0.97039866,0
-1.1780462,-4.5000963,1.7471762,-0.11561909,-0.97964668,0.16408694,0
2.6421394,-3.3131652,-3.9836679,0.15948284,-0.18136039,-0.97039866,0
-3.6098924,0.81468081,-2.7708189,-0.98040676,0.086027503,-0.17720559,0
3.5736864,3.0177281,4.121664,0.98040676,-0.086027503,0.17720559,0
1.8483963,-2.636692,6.0952973,-0.15948284,0.18136039,0.97039866,0
4.0844698,3.9910791,-4.8189793,0.11561909,0.97964668,-0.16408694,0
-3.8824623,2.3549409,-0.26262426,-0.98040676,0.086027503,-0.17720559,0
4.5738411,0.10676622,-4.3035893,0.15948284,-0.18136039,-0.97039866,0
-3.3212123,2.6452615,-2.5440717,-0.98040676,0.086027503,-0.17720559,0
4.2595882,-5.4488325,-2.6371436,0.98040676,-0.086027503,0.17720559,0
2.8715794,-3.9522843,3.6690321,0.98040676,-0.086027503,0.17720559,0
0.45323277,4.5477772,-3.6803794,0.11561909,0.97964668,-0.16408694,0
-4.1457853,3.7371368,2.514688,-0.98040676,0.086027503,-0.17720559,0
-2.7766256,-1.1541181,4.9016476,-0.15948284,0.18136039,0.97039866,0
3.2105949,-4.6111689,3.4616413,0.98040676,-0.086027503,0.17720559,0
4.4469252,1.4437966,-1.0603689,0.98040676,-0.086027503,0.17720559,0
2.415833,4.7533131,4.5016375,-0.15948284,0.18136039,0.97039866,0
-0.60023117,5.6108642,3.6256828,0.11561909,0.97964668,-0.16408694,0
-3.9355738,-1.2917194,-0.37434965,-0.98040676,0.086027503,-0.17720559,0
2.1746302,1.0487378,-4.8918495,0.15948284,-0.18136039,-0.97039866,0
-2.8024476,5.4204917,3.6363592,-0.15948284,0.18136039,0.97039866,0
1.2311244,-0.55297512,5.2641416,-0.15948284,0.18136039,0.97039866,0
-4.2007117,-4.0274081,2.5435443,-0.11561909,-0.97964668,0.16408694,0
-1.0839655,5.7528377,3.5122998,0.11561909,0.97964668,-0.16408694,0
-0.29150939,5.6160655,3.9234009,-0.15948284,0.18136039,0.97039866,0
4.2920628,-0.13030148,-4.3336897,0.15948284,-0.18136039,-0.97039866,0
-1.1816694,-5.0060329,0.27758598,-0.11561909,-0.97964668,0.16408694,0
3.8909588,-5.5605984,-2.5505514,0.98040676,-0.086027503,0.17720559,0
-3.4768527,-1.1139525,-3.4824548,-0.98040676,0.086027503,-0.17720559,0
-3.1806004,1.8150779,-4.473279,-0.98040676,0.086027503,-0.17720559,0
-2.7435703,3.2446983,-5.0785866,-0.98040676,0.086027503,-0.17720559,0
-2.0662999,0.84611344,-5.6372738,0.15948284,-0.18136039,-0.97039866,0
-1.7758982,5.1463213,-0.56075144,0.11561909,0.97964668,-0.16408694,0
-3.2458868,1.3459783,4.4646955,-0.15948284,0.18136039,0.97039866,0
3.194962,-1.1028512,3.7796278,0.98040676,-0.086027503,0.17720559,0
3.6294889,4.0008507,-4.3468199,0.11561909,0.97964668,-0.16408694,0
-4.0257397,2.8951745,0.4184413,-0.98040676,0.086027503,-0.17720559,0
-3.2454863,-5.4778948,-4.4671373,-0.11561909,-0.97964668,0.16408694,0
1.4705576,-5.4020872,-1.9611349,-0.11561909,-0.97964668,0.16408694,0
3.6908932,2.9232745,3.5196157,0.98040676,-0.086027503,0.17720559,0
-1.6183457,4.4046993,-5.7445664,0.11561909,0.97964668,-0.16408694,0
-2.1127839,-2.1850066,-4.8983402,0.15948284,-0.18136039,-0.97039866,0
0.26871562,5.6658092,3.7440743,0.11561909,0.97964668,-0.16408694,0
0.50841904,1.8470908,4.9547596,-0.15948284,0.18136039,0.97039866,0
-2.4238381,-3.8205864,5.0887442,-0.11561909,-0.97964668,0.16408694,0
3.0809503,5.281323,3.4971039,0.11561909,0.97964668,-0.16408694,0
2.6762605,-0.78017855,-4.5169907,0.15948284,-0.18136039,-0.97039866,0
3.9219944,-5.7989521,-1.7522893,-0.11561909,-0.97964668,0.16408694,0
-0.020046711,-0.94868863,5.4199958,-0.15948284,0.18136039,0.97039866,0
-4.6892443,1.1409225,3.680105,-0.98040676,0.086027503,-0.17720559,0
2.0548868,0.36910731,5.3738213,-0.15948284,0.18136039,0.97039866,0
3.6695924,1.7126369,2.8173947,0.98040676,-0.086027503,0.17720559,0
-0.64194727,0.93671918,4.811656,-0.15948284,0.18136039,0.97039866,0
-0.12654781,2.1088269,-5.6413879,0.15948284,-0.18136039,-0.97039866,0
-2.393929,-3.4004869,5.3302088,-0.15948284,0.18136039,0.97039866,0
0.38566637,-2.609766,-4.6549864,0.15948284,-0.18136039,-0.97039866,0
1.9097543,-0.42028832,-4.5613375,0.15948284,-0.18136039,-0.97039866,0
-0.64523339,-5.138701,-1.100544,-0.11561909,-0.97964668,0.16408694,0
1.6105704,-5.6838737,-3.6797872,0.15948284,-0.18136039,-0.97039866,0
-4.5870352,0.48208714,2.2882631,-0.98040676,0.086027503,-0.17720559,0
-2.0541549,3.2491636,-5.9847078,0.15948284,-0.18136039,-0.97039866,0
-2.148035,-4.4302645,3.0496321,-0.11561909,-0.97964668,0.16408694,0
0.81558955,-5.8115492,-2.9750304,-0.11561909,-0.97964668,0.16408694,0
5.3277407,2.5368752,-4.8857017,0.15948284,-0.18136039,-0.97039866,0
1.5674138,5.4881806,2.5682199,0.11561909,0.97964668,-0.16408694,0
4.6005392,3.3575332,-2.242228,0.98040676,-0.086027503,0.17720559,0
-3.443676,-4.3158283,1.3254526,-0.11561909,-0.97964668,0.16408694,0
1.4409919,5.7249722,4.5179939,-0.15948284,0.18136039,0.97039866,0
4.7572489,3.7797496,-1.9204922,0.98040676,-0.086027503,0.17720559,0
3.5946996,1.2621324,3.4009967,0.98040676,-0.086027503,0.17720559,0
2.1291196,5.2504473,1.6748371,0.11561909,0.97964668,-0.16408694,0
-4.124023,-0.53160572,0.47593406,-0.98040676,0.086027503,-0.17720559,0
-3.1035814,3.0152385,-4.8246841,-0.98040676,0.086027503,-0.17720559,0
-1.3560098,-4.9903374,-1.1635585,-0.11561909,-0.97964668,0.16408694,0
-0.21906853,0.56743944,-5.4736133,0.15948284,-0.18136039,-0.97039866,0
-3.1017139,4.3878193,-2.7308249,-0.98040676,0.086027503,-0.17720559,0
0.44155598,-2.9232199,-4.5638628,0.15948284,-0.18136039,-0.97039866,0
-2.5801725,-5.3924589,-2.9610455,-0.11561909,-0.97964668,0.16408694,0
3.7098866,0.8419044,1.9855039,0.98040676,-0.086027503,0.17720559,0
1.0053434,-1.4362187,5.5198145,-0.15948284,0.18136039,0.97039866,0
4.338583,0.19125748,-1.2295319,0.98040676,-0.086027503,0.17720559,0
3.2397766,4.6630139,0.35833645,0.11561909,0.97964668,-0.16408694,0
-0.4241147,-0.48764884,5.2531738,-0.15948284,0.18136039,0.97039866,0
-3.4008393,4.3011756,-2.2764096,-0.98040676,0.086027503,-0.17720559,0
3.4802246,5.4678497,3.9464867,0.11561909,0.97964668,-0.16408694,0
-3.1629961,5.7819157,1.4714365,0.11561909,0.97964668,-0.16408694,0
-2.6343713,-4.8856888,0.16777325,-0.11561909,-0.97964668,0.16408694,0
4.1055808,2.201519,0.24040705,0.98040676,-0.086027503,0.17720559,0
-2.9612143,-5.3293982,-3.0637891,-0.11561909,-0.97964668,0.16408694,0
-3.461597,-1.1732287,4.9128194,-0.15948284,0.18136039,0.97039866,0
2.9789491,-1.2994142,5.6239042,0.98040676,-0.086027503,0.17720559,0
0.2735908,-5.670188,-4.0509062,0.15948284,-0.18136039,-0.97039866,0
1.037395,4.550827,-3.0588145,0.11561909,0.97964668,-0.16408694,0
-2.0431111,4.4797335,3.8857691,-0.15948284,0.18136039,0.97039866,0
2.131669,1.0766792,-4.8447676,0.15948284,-0.18136039,-0.97039866,0
-4.4874315,2.3792291,3.6313534,-0.98040676,0.086027503,-0.17720559,0
3.978209,0.79674244,-4.7201204,0.15948284,-0.18136039,-0.97039866,0
-1.6067488,-5.3456388,-3.5609457,-0.11561909,-0.97964668,0.16408694,0
3.430186,-3.4326136,2.9330273,0.98040676,-0.086027503,0.17720559,0
-3.8780999,1.9603057,-0.27544737,-0.98040676,0.086027503,-0.17720559,0
-3.5842271,5.9379339,2.1160979,0.11561909,0.97964668,-0.16408694,0
3.2446337,0.68478179,4.2372065,0.98040676,-0.086027503,0.17720559,0
1.3474607,3.5912032,-5.7562757,0.15948284,-0.18136039,-0.97039866,0
3.1606576,-4.7313352,-3.8704491,0.15948284,-0.18136039,-0.97039866,0
4.725246,0.50111008,-2.7302828,0.98040676,-0.086027503,0.17720559,0
-2.4373069,4.0669961,-6.1000466,-0.98040676,0.086027503,-0.17720559,0
0.63675165,4.1723223,-5.3036776,0.11561909,0.97964668,-0.16408694,0
-4.6200542,-3.3501112,2.2005496,-0.98040676,0.086027503,-0.17720559,0
-4.9724441,-0.97726774,3.5763969,-0.98040676,0.086027503,-0.17720559,0
-1.9920895,2.8122275,4.2686477,-0.15948284,0.18136039,0.97039866,0
-1.6344175,-0.82838011,-5.2626452,0.15948284,-0.18136039,-0.97039866,0
-1.3454003,-4.2392406,4.4544935,-0.11561909,-0.97964668,0.16408694,0
3.9820244,-4.6958771,-2.5210328,0.98040676,-0.086027503,0.17720559,0
-3.8066585,4.6021667,0.33241415,-0.98040676,0.086027503,-0.17720559,0
-0.97205639,-5.5483618,-3.5578728,-0.11561909,-0.97964668,0.16408694,0
3.5827618,3.7282321,-4.5160618,0.11561909,0.97964668,-0.16408694,0
0.33371735,4.9553132,4.4490066,-0.15948284,0.18136039,0.97039866,0
3.9784801,-5.3835573,-2.7832069,0.98040676,-0.086027503,0.17720559,0
-3.7918828,4.4357467,0.59851742,-0.98040676,0.086027503,-0.17720559,0
1.975296,-1.0924822,5.7975249,-0.15948284,0.18136039,0.97039866,0
-1.4190884,4.624496,3.9180167,-0.15948284,0.18136039,0.97039866,0
-3.3054638,5.4598341,0.77979803,0.11561909,0.97964668,-0.16408694,0
-5.0552516,-2.1708512,4.1488338,-0.98040676,0.086027503,-0.17720559,0
-5.1299624,-3.3825669,3.6730876,-0.98040676,0.086027503,-0.17720559,0
2.264528,-1.819284,-4.3330579,0.15948284,-0.18136039,-0.97039866,0
0.13922358,-4.5554919,4.5209641,-0.11561909,-0.97964668,0.16408694,0
4.5875187,1.8108368,-2.3922675,0.98040676,-0.086027503,0.17720559,0
-0.64138603,-1.8400688,-5.0363913,0.15948284,-0.18136039,-0.97039866,0
0.24393749,-4.3009677,3.8292665,-0.11561909,-0.97964668,0.16408694,0
-0.95370245,2.4512339,4.5718341,-0.15948284,0.18136039,0.97039866,0
-3.9027822,5.6360931,1.5715246,0.11561909,0.97964668,-0.16408694,0
-3.831934,-2.7872808,-3.6212137,-0.98040676,0.086027503,-0.17720559,0
-1.6587806,2.8553774,-6.082448,0.15948284,-0.18136039,-0.97039866,0
2.8013778,-3.7045209,5.2338886,0.98040676,-0.086027503,0.17720559,0
0.3072257,1.8089812,4.7893171,-0.15948284,0.18136039,0.97039866,0
4.7828465,0.43714857,-3.1923318,0.98040676,-0.086027503,0.17720559,0
-2.5327559,-3.3357544,5.4615688,-0.15948284,0.18136039,0.97039866,0
3.7550483,-2.100363,1.3312917,0.98040676,-0.086027503,0.17720559,0
1.0972662,0.95940739,5.1791964,-0.15948284,0.18136039,0.97039866,0
1.3513016,-5.6454239,-3.2117016,-0.11561909,-0.97964668,0.16408694,0
-3.9483337,5.9973722,2.0180001,0.11561909,0.97964668,-0.16408694,0
-4.5829339,-3.8513153,3.560308,-0.11561909,-0.97964668,0.16408694,0
1.7233348,-1.2106969,5.5287495,-0.15948284,0.18136039,0.97039866,0
0.85846233,2.0991812,-5.4575315,0.15948284,-0.18136039,-0.97039866,0
3.5777581,-1.72258,3.0621607,0.98040676,-0.086027503,0.17720559,0
-2.2588186,0.17118412,-5.3747759,0.15948284,-0.18136039,-0.97039866,0
-3.7152622,2.5295594,-1.609282,-0.98040676,0.086027503,-0.17720559,0
4.2035284,-4.2898316,-3.4874949,0.98040676,-0.086027503,0.17720559,0
2.8982606,3.9860263,-5.2386661,0.11561909,0.97964668,-0.16408694,0
-1.0599113,-4.429553,3.3475478,-0.11561909,-0.97964668,0.16408694,0
-4.1959572,1.3307958,1.7323201,-0.98040676,0.086027503,-0.17720559,0
1.9617369,-5.2086296,-0.33401489,-0.11561909,-0.97964668,0.16408694,0
4.2694821,4.064394,0.66519451,0.98040676,-0.086027503,0.17720559,0
-3.800138,-3.5703473,-2.1714973,-0.98040676,0.086027503,-0.17720559,0
-1.9236505,5.7293711,3.3195329,0.11561909,0.97964668,-0.16408694,0
-1.2257895,3.0043368,-5.7640877,0.15948284,-0.18136039,-0.97039866,0
-3.1318188,5.4720106,3.4288497,-0.15948284,0.18136039,0.97039866,0
0.5040766,5.6210871,2.3725958,0.11561909,0.97964668,-0.16408694,0
-2.8125694,-4.9896951,-0.59663582,-0.11561909,-0.97964668,0.16408694,0
-2.2199311,-2.4716742,5.0561209,-0.15948284,0.18136039,0.97039866,0
0.85065055,4.7884965,-0.68672419,0.11561909,0.97964668,-0.16408694,0
-4.1688557,-0.3425827,0.72902721,-0.98040676,0.086027503,-0.17720559,0
2.2358756,-1.101465,-4.7626624,0.15948284,-0.18136039,-0.97039866,0
-0.17854223,5.2568121,0.93131638,0.11561909,0.97964668,-0.16408694,0
-3.756443,3.6025183,0.38881254,-0.98040676,0.086027503,-0.17720559,0
-4.2210102,1.7537704,2.4259181,-0.98040676,0.086027503,-0.17720559,0
0.40525663,-5.2056589,0.24482536,-0.11561909,-0.97964668,0.16408694,0
4.1387205,4.5141392,-0.75816798,0.11561909,0.97964668,-0.16408694,0
-1.0485902,-1.5228502,5.3881431,-0.15948284,0.18136039,0.97039866,0
-1.5489287,2.6744461,-6.0875931,0.15948284,-0.18136039,-0.97039866,0
0.13783169,-0.5807333,5.3519135,-0.15948284,0.18136039,0.97039866,0
-0.12592125,-4.2672586,4.6528106,-0.11561909,-0.97964668,0.16408694,0
2.7091312,-4.0298233,5.042263,0.98040676,-0.086027503,0.17720559,0
1.2046082,-5.3003535,-4.0680814,0.15948284,-0.18136039,-0.97039866,0
-3.6083984,4.5428457,0.092421532,-0.98040676,0.086027503,-0.17720559,0
1.4627776,-1.5983939,5.5572872,-0.15948284,0.18136039,0.97039866,0
-4.1352987,-0.81695127,4.4405136,-0.15948284,0.18136039,0.97039866,0
-4.862381,-1.9517622,2.7555721,-0.98040676,0.086027503,-0.17720559,0
3.8834176,-5.1189032,-1.5004244,0.98040676,-0.086027503,0.17720559,0
-5.0938191,-2.252727,3.7431304,-0.98040676,0.086027503,-0.17720559,0
3.2152956,2.2119896,5.0397177,0.98040676,-0.086027503,0.17720559,0
-4.1950998,-1.7173569,-0.010122597,-0.98040676,0.086027503,-0.17720559,0
-2.7647557,0.13599634,4.5172873,-0.15948284,0.18136039,0.97039866,0
-3.0794771,2.9889722,-4.0459886,-0.98040676,0.086027503,-0.17720559,0
3.4283504,-3.4846325,2.0506563,0.98040676,-0.086027503,0.17720559,0
-2.4500475,-2.678597,-4.9223223,0.15948284,-0.18136039,-0.97039866,0
4.9708662,3.7627845,-2.3005404,0.98040676,-0.086027503,0.17720559,0
3.9977815,2.9670076,2.779129,0.98040676,-0.086027503,0.17720559,0
2.6905971,-5.2493238,1.1535015,-0.11561909,-0.97964668,0.16408694,0
-4.003983,-4.6428046,-2.6598287,-0.98040676,0.086027503,-0.17720559,0
3.9530654,2.4236608,1.7964954,0.98040676,-0.086027503,0.17720559,0
-1.5848956,-3.653347,5.4525123,-0.15948284,0.18136039,0.97039866,0
-3.7645779,1.9262745,0.024857283,-0.98040676,0.086027503,-0.17720559,0
3.4796581,3.6266687,-5.3870668,0.15948284,-0.18136039,-0.97039866,0
3.7958994,-1.7435832,1.1872921,0.98040676,-0.086027503,0.17720559,0
-1.5217652,-0.66607547,-5.4767756,0.15948284,-0.18136039,-0.97039866,0
-3.7131703,-1.0972116,-2.6118472,-0.98040676,0.086027503,-0.17720559,0
1.7671031,-5.5376301,-1.5832014,-0.11561909,-0.97964668,0.16408694,0
-0.97268462,-5.5127692,-4.0160456,-0.11561909,-0.97964668,0.16408694,0
-2.0494208,-4.3843856,3.8613832,-0.11561909,-0.97964668,0.16408694,0
-1.2756714,5.4841614,1.7571349,0.11561909,0.97964668,-0.16408694,0
-4.0014186,1.4854722,-0.055984497,-0.98040676,0.086027503,-0.17720559,0
4.3859234,-3.1409168,-3.6592841,0.98040676,-0.086027503,0.17720559,0
-1.9182377,4.4498744,-4.7412701,0.11561909,0.97964668,-0.16408694,0
2.7435617,-3.2314358,5.1344843,0.98040676,-0.086027503,0.17720559,0
-0.73629808,-5.2974739,-1.0077872,-0.11561909,-0.97964668,0.16408694,0
-3.606693,3.0704973,-1.1776962,-0.98040676,0.086027503,-0.17720559,0
-0.5965929,-2.6181316,5.6722355,-0.15948284,0.18136039,0.97039866,0
3.494137,1.2231838,4.1778865,0.98040676,-0.086027503,0.17720559,0
-3.6943352,-0.15069127,-2.5203564,-0.98040676,0.086027503,-0.17720559,0
-0.10246825,5.8761482,4.016717,-0.15948284,0.18136039,0.97039866,0
-1.5980816,-4.2949677,2.7094648,-0.11561909,-0.97964668,0.16408694,0
1.5471025,-0.8672576,-4.6308994,0.15948284,-0.18136039,-0.97039866,0
2.8656991,4.3494902,-2.2824988,0.11561909,0.97964668,-0.16408694,0
1.3140674,-5.1348705,1.7305179,-0.11561909,-0.97964668,0.16408694,0
-4.5876813,2.0232162,3.5818796,-0.98040676,0.086027503,-0.17720559,0
-2.7945454,-3.321497,-4.8451648,0.15948284,-0.18136039,-0.97039866,0
-1.1741672,3.5273576,-6.1061168,0.15948284,-0.18136039,-0.97039866,0
1.3591363,-5.5019712,-2.4580727,-0.11561909,-0.97964668,0.16408694,0
-1.1400175,-1.1351086,-5.3002625,0.15948284,-0.18136039,-0.97039866,0
1.3724437,-2.2731135,-4.3944597,0.15948284,-0.18136039,-0.97039866,0
1.4290638,2.4156289,-5.3666191,0.15948284,-0.18136039,-0.97039866,0
-3.5197136,1.7450719,4.3640184,-0.15948284,0.18136039,0.97039866,0
1.2303487,4.9864655,0.12449503,0.11561909,0.97964668,-0.16408694,0
2.5141034,5.4532709,2.8806155,0.11561909,0.97964668,-0.16408694,0
-3.1555426,-0.14709187,-4.3516898,-0.98040676,0.086027503,-0.17720559,0
-2.2985535,-3.9471593,-4.7781973,0.15948284,-0.18136039,-0.97039866,0
4.0581455,1.5026145,0.3499673,0.98040676,-0.086027503,0.17720559,0
2.0003521,4.5032754,-1.405611,0.11561909,0.97964668,-0.16408694,0
-3.8769255,6.1724997,2.5074863,0.11561909,0.97964668,-0.16408694,0
-4.5869555,-3.3779871,1.3409166,-0.98040676,0.086027503,-0.17720559,0
-3.8648353,-4.0094447,-2.4540803,-0.98040676,0.086027503,-0.17720559,0
0.65096998,-1.7654274,5.5237317,-0.15948284,0.18136039,0.97039866,0
4.5627084,3.8664436,-3.2595761,0.11561909,0.97964668,-0.16408694,0
3.0798588,-5.9517894,-3.5959034,0.15948284,-0.18136039,-0.97039866,0
1.2556548,1.5050851,-5.2711401,0.15948284,-0.18136039,-0.97039866,0
1.1332648,5.1752481,1.4617028,0.11561909,0.97964668,-0.16408694,0
-4.1371727,-3.3829935,-0.69076824,-0.98040676,0.086027503,-0.17720559,0
-2.9225864,1.644052,4.5197954,-0.15948284,0.18136039,0.97039866,0
3.1272936,-3.0663908,2.7131636,0.98040676,-0.086027503,0.17720559,0
4.119822,-1.6131902,-0.46592832,0.98040676,-0.086027503,0.17720559,0
4.6083484,3.952034,-4.1974893,0.11561909,0.97964668,-0.16408694,0
-3.5627234,-4.1482449,2.0861232,-0.11561909,-0.97964668,0.16408694,0
-2.1459208,-5.5006065,-3.997798,-0.11561909,-0.97964668,0.16408694,0
-3.2750301,-4.0182686,4.7801876,-0.11561909,-0.97964668,0.16408694,0
4.8874083,-0.25657225,-3.5044231,0.98040676,-0.086027503,0.17720559,0
-3.700079,-0.89566255,-3.6088133,-0.98040676,0.086027503,-0.17720559,0
-0.96161795,0.42032042,-5.5367489,0.15948284,-0.18136039,-0.97039866,0
-0.080821514,1.9957988,-5.6283259,0.15948284,-0.18136039,-0.97039866,0
4.352253,0.58189631,-2.3039324,0.98040676,-0.086027503,0.17720559,0
2.7798581,0.94261837,-4.7059665,0.15948284,-0.18136039,-0.97039866,0
-1.8283825,3.2508471,-5.9995728,0.15948284,-0.18136039,-0.97039866,0
3.8272724,-3.980243,-0.62262392,0.98040676,-0.086027503,0.17720559,0
-3.6506324,-4.4297986,0.89805031,-0.11561909,-0.97964668,0.16408694,0
-3.5189257,5.3354101,-0.0013442039,-0.98040676,0.086027503,-0.17720559,0
5.0727377,0.69623661,-4.1701298,0.98040676,-0.086027503,0.17720559,0
1.0054274,-5.3733358,-2.0471759,-0.11561909,-0.97964668,0.16408694,0
-1.8855715,-0.95189762,5.2040405,-0.15948284,0.18136039,0.97039866,0
0.24280834,-2.8757477,-4.4458666,0.15948284,-0.18136039,-0.97039866,0
1.8779509,-4.9991608,1.8341112,-0.11561909,-0.97964668,0.16408694,0
-2.7923932,1.866421,4.2141128,-0.15948284,0.18136039,0.97039866,0
1.5281262,0.89386082,-5.1480951,0.15948284,-0.18136039,-0.97039866,0
-2.4696994,5.0112934,3.8375733,-0.15948284,0.18136039,0.97039866,0
2.9190433,4.9172726,4.7649021,-0.15948284,0.18136039,0.97039866,0
-3.2451386,1.502656,-3.3067868,-0.98040676,0.086027503,-0.17720559,0
0.86975479,4.2849026,-3.1854248,0.11561909,0.97964668,-0.16408694,0
2.0412531,3.9859438,-4.1904888,0.11561909,0.97964668,-0.16408694,0
2.0707958,-2.8581707,-4.3448691,0.15948284,-0.18136039,-0.97039866,0
3.5282309,-1.2534459,1.7873974,0.98040676,-0.086027503,0.17720559,0
3.0125666,-0.86846983,5.6571064,0.98040676,-0.086027503,0.17720559,0
2.3615503,-2.1674745,-4.4366465,0.15948284,-0.18136039,-0.97039866,0
-3.7151361,4.7545118,0.52674103,-0.98040676,0.086027503,-0.17720559,0
-3.4791296,-5.4937625,-4.3155103,-0.11561909,-0.97964668,0.16408694,0
-0.99205685,2.9747133,-5.9632506,0.15948284,-0.18136039,-0.97039866,0
1.3047986,-3.2942965,6.0925183,-0.15948284,0.18136039,0.97039866,0
-1.5921357,-1.7719195,-5.177063,0.15948284,-0.18136039,-0.97039866,0
0.02941823,5.4668059,3.1593711,0.11561909,0.97964668,-0.16408694,0
-5.080771,-2.3726082,3.9155695,-0.98040676,0.086027503,-0.17720559,0
1.6243479,-5.5781083,-2.1034584,-0.11561909,-0.97964668,0.16408694,0
3.4949169,-0.9012723,-4.2962255,0.15948284,-0.18136039,-0.97039866,0
-3.5899253,-4.5624051,0.39860511,-0.11561909,-0.97964668,0.16408694,0
-4.3124804,0.99193764,2.5478871,-0.98040676,0.086027503,-0.17720559,0
-1.5945232,-5.3067312,-2.5621724,-0.11561909,-0.97964668,0.16408694,0
4.7164707,1.6369877,-1.9416993,0.98040676,-0.086027503,0.17720559,0
-4.5996728,-4.019207,0.50120211,-0.98040676,0.086027503,-0.17720559,0
2.3779633,-4.3868885,-3.8198986,0.15948284,-0.18136039,-0.97039866,0
1.8821511,-5.5336847,-1.5085421,-0.11561909,-0.97964668,0.16408694,0
4.3087749,2.6265838,1.032081,0.98040676,-0.086027503,0.17720559,0
0.95364666,5.4808402,2.9875269,0.11561909,0.97964668,-0.16408694,0
0.72362947,-4.1603427,5.9270172,-0.15948284,0.18136039,0.97039866,0
3.6261756,-4.8686304,-0.88122082,0.98040676,-0.086027503,0.17720559,0
0.86198235,2.4243708,-5.393034,0.15948284,-0.18136039,-0.97039866,0
1.0903561,3.3985033,4.5225739,-0.15948284,0.18136039,0.97039866,0
-0.052514076,-5.1157684,1.0019336,-0.11561909,-0.97964668,0.16408694,0
0.87147522,3.7439795,4.6172137,-0.15948284,0.18136039,0.97039866,0
1.1918786,5.275589,1.4822516,0.11561909,0.97964668,-0.16408694,0
3.239532,-3.8504314,2.2681732,0.98040676,-0.086027503,0.17720559,0
3.5767143,-2.9329274,1.6611037,0.98040676,-0.086027503,0.17720559,0
3.9475322,-5.326129,-2.6595726,0.98040676,-0.086027503,0.17720559,0
-2.1735847,5.2736378,0.56006336,0.11561909,0.97964668,-0.16408694,0
-3.1737256,2.1836193,-4.9517164,-0.98040676,0.086027503,-0.17720559,0
3.0144229,-4.5017829,2.7792044,0.98040676,-0.086027503,0.17720559,0
-3.9452045,4.4776464,0.53692436,-0.98040676,0.086027503,-0.17720559,0
-1.2084093,0.28273919,-5.347827,0.15948284,-0.18136039,-0.97039866,0
1.4414148,-1.7184153,-4.6396956,0.15948284,-0.18136039,-0.97039866,0
-4.1216602,3.9065819,3.6247969,-0.15948284,0.18136039,0.97039866,0
-0.95769358,-4.4963322,2.8134327,-0.11561909,-0.97964668,0.16408694,0
-1.5740016,5.5441694,1.8188524,0.11561909,0.97964668,-0.16408694,0
-3.7939217,0.97113109,-2.1949492,-0.98040676,0.086027503,-0.17720559,0
-3.3056555,-5.2776308,-2.6985691,-0.11561909,-0.97964668,0.16408694,0
-3.1354051,-2.8401968,-5.0927863,0.15948284,-0.18136039,-0.97039866,0
-0.12619209,5.6733117,3.3747487,0.11561909,0.97964668,-0.16408694,0
-4.4786968,-1.8487875,1.5545839,-0.98040676,0.086027503,-0.17720559,0
-4.512218,0.79209566,4.3419166,-0.15948284,0.18136039,0.97039866,0
1.2570385,5.3480453,2.879256,0.11561909,0.97964668,-0.16408694,0
-2.5918183,-4.001122,4.5622692,-0.11561909,-0.97964668,0.16408694,0
3.3649647,0.22458529,4.8189716,0.98040676,-0.086027503,0.17720559,0
1.9830985,-5.4922066,-0.72431755,-0.11561909,-0.97964668,0.16408694,0
-0.031854272,-5.5735111,-2.9907739,-0.11561909,-0.97964668,0.16408694,0
-1.9620447,-3.9846675,5.3213587,-0.11561909,-0.97964668,0.16408694,0
-4.3579798,-0.18931484,1.3397136,-0.98040676,0.086027503,-0.17720559,0
-4.4632068,4.605051,3.2465298,-0.98040676,0.086027503,-0.17720559,0
4.4025941,4.3527627,-0.20927548,0.98040676,-0.086027503,0.17720559,0
-3.7971253,-4.1812878,-3.8821838,-0.98040676,0.086027503,-0.17720559,0
-3.2743363,4.7771492,3.9107163,-0.15948284,0.18136039,0.97039866,0
4.5388632,2.4414382,-1.7199745,0.98040676,-0.086027503,0.17720559,0
-3.3301873,-3.9630823,5.013752,-0.11561909,-0.97964668,0.16408694,0
-1.7569108,3.5673423,4.0814919,-0.15948284,0.18136039,0.97039866,0
1.9784589,-2.9898605,5.9498162,-0.15948284,0.18136039,0.97039866,0
0.63346255,-5.3635836,-0.3873024,-0.11561909,-0.97964668,0.16408694,0
1.4964604,0.77819645,5.0542626,-0.15948284,0.18136039,0.97039866,0
4.6684723,2.4915748,-1.0234649,0.98040676,-0.086027503,0.17720559,0
-1.1197333,4.6249113,-3.9753871,0.11561909,0.97964668,-0.16408694,0
1.9549766,-0.81116557,-4.5579829,0.15948284,-0.18136039,-0.97039866,0
1.7711184,-5.8975282,-2.4491715,-0.11561909,-0.97964668,0.16408694,0
4.479578,2.8966336,-1.0497043,0.98040676,-0.086027503,0.17720559,0
2.6259713,2.4625037,-5.2749376,0.15948284,-0.18136039,-0.97039866,0
-3.6832974,-5.332602,-3.8178139,-0.11561909,-0.97964668,0.16408694,0
-4.3371444,-3.9038615,-1.2067969,-0.98040676,0.086027503,-0.17720559,0
-4.4061065,-3.7529004,-0.22181559,-0.98040676,0.086027503,-0.17720559,0
-0.37493324,2.2003398,4.7141695,-0.15948284,0.18136039,0.97039866,0
1.1688676,-4.559485,2.8784266,-0.11561909,-0.97964668,0.16408694,0
-3.1812029,-5.2152853,-3.6450672,-0.11561909,-0.97964668,0.16408694,0
-1.3014059,-2.2678893,5.2497044,-0.15948284,0.18136039,0.97039866,0
3.6126604,3.6232088,4.6175833,0.98040676,-0.086027503,0.17720559,0
3.3085361,4.5816126,-1.9561496,0.11561909,0.97964668,-0.16408694,0
-0.067389011,-4.1158385,5.6671119,-0.11561909,-0.97964668,0.16408694,0
3.884584,1.3533866,1.3472254,0.98040676,-0.086027503,0.17720559,0
4.2433701,1.1877241,0.15064165,0.98040676,-0.086027503,0.17720559,0
2.6079376,2.168427,5.0782747,-0.15948284,0.18136039,0.97039866,0
-0.13679409,-4.4026136,3.9082875,-0.11561909,-0.97964668,0.16408694,0
4.1928363,0.052257538,-0.96848369,0.98040676,-0.086027503,0.17720559,0
-4.1579585,-4.0853477,-1.7108079,-0.98040676,0.086027503,-0.17720559,0
4.597765,3.2903643,-1.4997456,0.98040676,-0.086027503,0.17720559,0
3.275425,-0.73542023,-4.5433927,0.15948284,-0.18136039,-0.97039866,0
-3.8244534,1.1863742,0.045918703,-0.98040676,0.086027503,-0.17720559,0
4.7882452,3.2308021,-3.2930923,0.98040676,-0.086027503,0.17720559,0
1.3733342,4.8020601,0.28533173,0.11561909,0.97964668,-0.16408694,0
0.06013155,4.2740684,-5.5456247,0.11561909,0.97964668,-0.16408694,0
-4.2867389,1.6331968,0.86117744,-0.98040676,0.086027503,-0.17720559,0
-4.2854967,-1.6881301,1.2604944,-0.98040676,0.086027503,-0.17720559,0
-1.2469939,5.4454536,1.3616629,0.11561909,0.97964668,-0.16408694,0
3.8296099,-5.9577532,-2.9524584,-0.11561909,-0.97964668,0.16408694,0
-1.1320355,3.7695894,4.2907667,-0.15948284,0.18136039,0.97039866,0
-0.15569305,0.61640561,5.1844072,-0.15948284,0.18136039,0.97039866,0
-1.5184641,4.3472562,-4.5274091,0.11561909,0.97964668,-0.16408694,0
-0.87475967,2.6423485,-5.8387184,0.15948284,-0.18136039,-0.97039866,0
-3.8961189,-4.9321222,-4.000155,-0.98040676,0.086027503,-0.17720559,0
0.37700367,4.6812596,-1.453023,0.11561909,0.97964668,-0.16408694,0
-3.48981,2.4644554,-2.5993614,-0.98040676,0.086027503,-0.17720559,0
2.6108036,4.2707524,4.6594601,-0.15948284,0.18136039,0.97039866,0
3.914094,4.8844376,2.5483932,0.98040676,-0.086027503,0.17720559,0
4.7209806,-0.43324375,-4.4441361,0.15948284,-0.18136039,-0.97039866,0
-3.8472645,-2.5001411,-2.3352978,-0.98040676,0.086027503,-0.17720559,0
0.44876337,2.1445916,4.8724833,-0.15948284,0.18136039,0.97039866,0
-0.7869153,1.6817906,-5.7240024,0.15948284,-0.18136039,-0.97039866,0
-4.4366417,-1.3753352,2.0137866,-0.98040676,0.086027503,-0.17720559,0
-0.86275029,5.6028538,3.1285701,0.11561909,0.97964668,-0.16408694,0
-0.92746258,-1.2592608,-5.2502937,0.15948284,-0.18136039,-0.97039866,0
3.5707333,2.421922,3.9071379,0.98040676,-0.086027503,0.17720559,0
-2.3005559,5.6922092,1.5798879,0.11561909,0.97964668,-0.16408694,0
-1.1207349,5.6041989,3.0117793,0.11561909,0.97964668,-0.16408694,0
-1.7194016,-5.1631866,-4.5744605,0.15948284,-0.18136039,-0.97039866,0
-1.1116304,-5.6404457,-3.5807586,-0.11561909,-0.97964668,0.16408694,0
-0.011306524,-3.9229579,-4.3600407,0.15948284,-0.18136039,-0.97039866,0
-3.4792447,-0.8048265,-2.9574854,-0.98040676,0.086027503,-0.17720559,0
2.1731901,-1.1590371,5.8101926,-0.15948284,0.18136039,0.97039866,0
-2.4710782,-1.2913566,-5.138133,0.15948284,-0.18136039,-0.97039866,0
1.8143187,3.0025043,4.849731,-0.15948284,0.18136039,0.97039866,0
-4.5004764,-1.3938837,1.1825211,-0.98040676,0.086027503,-0.17720559,0
2.4467478,5.0574923,4.8132701,-0.15948284,0.18136039,0.97039866,0
0.27383661,-4.0621376,5.2628555,-0.11561909,-0.97964668,0.16408694,0
-3.9149127,-4.6521015,0.11465693,-0.11561909,-0.97964668,0.16408694,0
0.38286662,-3.508548,-4.344079,0.15948284,-0.18136039,-0.97039866,0
-0.32134056,-4.5765295,2.0753841,-0.11561909,-0.97964668,0.16408694,0
4.6309547,0.75039577,-3.622602,0.98040676,-0.086027503,0.17720559,0
-1.9507459,5.2592235,-1.2214923,0.11561909,0.97964668,-0.16408694,0
-2.3499362,-2.3450994,-4.908649,0.15948284,-0.18136039,-0.97039866,0
-1.7402498,4.8648753,-1.6478086,0.11561909,0.97964668,-0.16408694,0
2.812346,0.7351172,-5.0037184,0.15948284,-0.18136039,-0.97039866,0
4.3733044,-2.9310927,-2.9371841,0.98040676,-0.086027503,0.17720559,0
2.1325688,-4.8497896,3.9484458,-0.11561909,-0.97964668,0.16408694,0
1.220319,-3.3596683,-4.4451451,0.15948284,-0.18136039,-0.97039866,0
-3.9380302,-3.9526291,4.5201974,-0.11561909,-0.97964668,0.16408694,0
-3.9204707,-4.7561178,-3.9960017,-0.98040676,0.086027503,-0.17720559,0
-2.3359241,1.226424,-5.7689233,0.15948284,-0.18136039,-0.97039866,0
-0.80164957,-3.694519,5.827951,-0.15948284,0.18136039,0.97039866,0
-4.0649271,-1.4071846,-0.2310455,-0.98040676,0.086027503,-0.17720559,0
1.1842601,3.5896351,4.476325,-0.15948284,0.18136039,0.97039866,0
-0.73968446,-5.5248985,-3.190129,-0.11561909,-0.97964668,0.16408694,0
-1.0800924,0.45690647,-5.3328629,0.15948284,-0.18136039,-0.97039866,0
3.2321713,4.8968854,1.0187316,0.11561909,0.97964668,-0.16408694,0
-2.7499101,5.002687,-3.2177525,0.11561909,0.97964668,-0.16408694,0
-2.3993926,0.64210582,4.6993041,-0.15948284,0.18136039,0.97039866,0
